# .PCD v0.7 - Point Cloud Data file format
VERSION 0.7
FIELDS x y z
SIZE 4 4 4
TYPE F F F
COUNT 1 1 1
WIDTH 600
HEIGHT 1
VIEWPOINT 0 0 0 1 0 0 0
POINTS 600
DATA ascii
-0.23301634946849786 -0.020779836342923342 -0.05541466319828529
-0.21563589949166675 0.004170686835577278 -0.0605933314297017
-0.19825544951483567 0.02912121001407789 -0.0657719996611181
-0.1808749995380046 0.05407173319257852 -0.07095066789253451
-0.16349454956117349 0.07902225637107914 -0.07612933612395092
-0.1461140995843424 0.10397277954957977 -0.08130800435536734
-0.12873364960751132 0.12892330272808036 -0.08648667258678375
-0.11135319963068023 0.153873825906581 -0.09166534081820016
-0.09397274965384914 0.17882434908508163 -0.09684400904961657
-0.07659229967701804 0.20377487226358224 -0.10202267728103298
-0.22118402283833147 -0.02312997368698969 -0.027026282583847518
-0.20380357286150036 0.0018205494915109295 -0.03220495081526393
-0.18642312288466928 0.026771072670011543 -0.03738361904668034
-0.1690426729078382 0.051721595848512165 -0.04256228727809675
-0.1516622229310071 0.07667211902701279 -0.04774095550951316
-0.134281772954176 0.10162264220551342 -0.052919623740929574
-0.11690132297734492 0.12657316538401403 -0.058098291972345985
-0.09952087300051382 0.15152368856251464 -0.06327696020376239
-0.08214042302368273 0.17647421174101527 -0.0684556284351788
-0.06475997304685163 0.20142473491951587 -0.07363429666659521
-0.20935169620816507 -0.025480111031056036 0.0013620980305902388
-0.19197124623133396 -0.0005295878525554176 -0.003816570200826172
-0.17459079625450288 0.024420935325945196 -0.008995238432242583
-0.1572103462776718 0.04937145850444582 -0.014173906663658994
-0.1398298963008407 0.07432198168294644 -0.019352574895075407
-0.1224494463240096 0.09927250486144708 -0.024531243126491818
-0.1050689963471785 0.12422302803994768 -0.02970991135790823
-0.08768854637034741 0.1491735512184483 -0.03488857958932464
-0.07030809639351632 0.17412407439694894 -0.04006724782074105
-0.05292764641668522 0.19907459757544954 -0.04524591605215746
-0.19751936957799865 -0.027830248375122383 0.029750478645028
-0.18013891960116754 -0.0028797251966217654 0.02457181041361159
-0.16275846962433646 0.02207079798187885 0.019393142182195178
-0.14537801964750538 0.04702132116037947 0.014214473950778768
-0.12799756967067427 0.0719718443388801 0.009035805719362357
-0.11061711969384319 0.09692236751738073 0.003857137487945945
-0.0932366697170121 0.12187289069588134 -0.001321530743470466
-0.075856219740181 0.14682341387438194 -0.006500198974886877
-0.058475769763349915 0.17177393705288257 -0.011678867206303288
-0.04109531978651882 0.19672446023138318 -0.0168575354377197
-0.18568704294783225 -0.030180385719188733 0.05813885925946577
-0.16830659297100115 -0.005229862540688113 0.05296019102804936
-0.15092614299417006 0.019720660637812498 0.04778152279663295
-0.13354569301733898 0.044671183816313124 0.042602854565216536
-0.11616524304050786 0.06962170699481375 0.037424186333800125
-0.09878479306367678 0.09457223017331438 0.03224551810238371
-0.08140434308684569 0.11952275335181499 0.027066849870967302
-0.06402389311001459 0.1444732765303156 0.02188818163955089
-0.046643443133183506 0.16942379970881624 0.01670951340813448
-0.02926299315635241 0.19437432288731685 0.011530845176718069
-0.17385471631766583 -0.03253052306325508 0.08652723987390354
-0.15647426634083472 -0.007579999884754462 0.08134857164248713
-0.13909381636400364 0.01737052329374615 0.07616990341107072
-0.12171336638717258 0.04232104647224678 0.0709912351796543
-0.10433291641034147 0.06727156965074739 0.0658125669482379
-0.08695246643351039 0.09222209282924802 0.06063389871682148
-0.06957201645667929 0.11717261600774863 0.05545523048540507
-0.05219156647984819 0.14212313918624925 0.05027656225398866
-0.034811116503017096 0.16707366236474988 0.04509789402257225
-0.017430666526186002 0.1920241855432505 0.03991922579115584
-0.16202238968749944 -0.03488066040732143 0.1149156204883413
-0.14464193971066833 -0.009930137228820808 0.10973695225692488
-0.12726148973383725 0.015020385949679804 0.10455828402550847
-0.10988103975700617 0.03997090912818043 0.09937961579409206
-0.09250058978017506 0.06492143230668104 0.09420094756267565
-0.07512013980334398 0.08987195548518168 0.08902227933125924
-0.05773968982651288 0.11482247866368228 0.08384361109984283
-0.04035923984968179 0.13977300184218291 0.07866494286842642
-0.022978789872850697 0.16472352502068355 0.07348627463701
-0.005598339896019601 0.18967404819918415 0.0683076064055936
-0.15019006305733304 -0.037230797751387774 0.14330400110277905
-0.13280961308050193 -0.012280274572887157 0.13812533287136264
-0.11542916310367084 0.012670248605613455 0.13294666463994623
-0.09804871312683976 0.03762077178411408 0.12776799640852982
-0.08066826315000865 0.0625712949626147 0.1225893281771134
-0.06328781317317757 0.08752181814111533 0.117410659945697
-0.04590736319634647 0.11247234131961593 0.11223199171428058
-0.028526913219515383 0.13742286449811655 0.10705332348286417
-0.011146463242684288 0.1623733876766172 0.10187465525144776
0.006233986734146807 0.1873239108551178 0.09669598702003135
-0.13835773642716662 -0.03958093509545412 0.17169238171721682
-0.12097728645033551 -0.014630411916953506 0.1665137134858004
-0.10359683647350443 0.010320111261547107 0.161335045254384
-0.08621638649667335 0.035270634440047736 0.15615637702296759
-0.06883593651984224 0.060221157618548356 0.15097770879155117
-0.05145548654301116 0.08517168079704898 0.14579904056013476
-0.034075036566180064 0.11012220397554959 0.14062037232871835
-0.016694586589348973 0.13507272715405022 0.13544170409730194
0.0006858633874821214 0.16002325033255085 0.13026303586588553
0.018066313364313216 0.18497377351105146 0.12508436763446912
-0.12652540979700022 -0.041931072439520475 0.2000807623316546
-0.1091449598201691 -0.016980549261019853 0.19490209410023818
-0.09176450984333802 0.00796997391748076 0.18972342586882177
-0.07438405986650694 0.03292049709598138 0.18454475763740535
-0.05700360988967584 0.057871020274482 0.17936608940598894
-0.039623159912844756 0.08282154345298263 0.17418742117457253
-0.02224270993601366 0.10777206663148324 0.16900875294315612
-0.004862259959182564 0.13272258980998386 0.1638300847117397
0.01251819001764853 0.1576731129884845 0.1586514164803233
0.029898639994479625 0.1826236361669851 0.1534727482489069
-0.029898639994479625 -0.1826236361669851 -0.1534727482489069
-0.01251819001764853 -0.1576731129884845 -0.1586514164803233
0.004862259959182557 -0.1327225898099839 -0.1638300847117397
0.022242709936013644 -0.10777206663148325 -0.16900875294315612
0.039623159912844756 -0.08282154345298263 -0.17418742117457253
0.05700360988967584 -0.057871020274482 -0.17936608940598894
0.07438405986650691 -0.032920497095981396 -0.18454475763740535
0.09176450984333802 -0.007969973917480774 -0.18972342586882177
0.1091449598201691 0.016980549261019853 -0.19490209410023818
0.12652540979700022 0.041931072439520475 -0.2000807623316546
-0.018066313364313216 -0.18497377351105146 -0.12508436763446912
-0.0006858633874821214 -0.16002325033255085 -0.13026303586588553
0.016694586589348966 -0.13507272715405025 -0.13544170409730194
0.03407503656618005 -0.1101222039755496 -0.14062037232871835
0.05145548654301116 -0.08517168079704898 -0.14579904056013476
0.06883593651984224 -0.060221157618548356 -0.15097770879155117
0.08621638649667332 -0.03527063444004775 -0.15615637702296759
0.10359683647350443 -0.01032011126154712 -0.161335045254384
0.12097728645033551 0.014630411916953506 -0.1665137134858004
0.13835773642716662 0.03958093509545412 -0.17169238171721682
-0.006233986734146812 -0.1873239108551178 -0.09669598702003136
0.011146463242684281 -0.1623733876766172 -0.10187465525144777
0.02852691321951537 -0.13742286449811658 -0.10705332348286418
0.04590736319634646 -0.11247234131961595 -0.1122319917142806
0.06328781317317757 -0.08752181814111533 -0.11741065994569701
0.08066826315000865 -0.0625712949626147 -0.12258932817711342
0.09804871312683973 -0.0376207717841141 -0.12776799640852984
0.11542916310367084 -0.01267024860561347 -0.13294666463994625
0.1328096130805019 0.012280274572887157 -0.13812533287136267
0.150190063057333 0.037230797751387774 -0.14330400110277908
0.0055983398960195935 -0.18967404819918415 -0.06830760640559361
0.022978789872850687 -0.16472352502068355 -0.07348627463701002
0.040359239849681774 -0.13977300184218294 -0.07866494286842643
0.05773968982651286 -0.1148224786636823 -0.08384361109984284
0.07512013980334398 -0.08987195548518168 -0.08902227933125925
0.09250058978017506 -0.06492143230668104 -0.09420094756267566
0.10988103975700614 -0.039970909128180444 -0.09937961579409207
0.12726148973383725 -0.015020385949679816 -0.10455828402550849
0.14464193971066833 0.00993013722882081 -0.1097369522569249
0.16202238968749944 0.03488066040732143 -0.11491562048834131
0.017430666526186002 -0.1920241855432505 -0.03991922579115584
0.034811116503017096 -0.16707366236474988 -0.04509789402257225
0.052191566479848184 -0.14212313918624928 -0.05027656225398866
0.06957201645667928 -0.11717261600774864 -0.05545523048540507
0.08695246643351039 -0.09222209282924802 -0.06063389871682148
0.10433291641034147 -0.06727156965074739 -0.0658125669482379
0.12171336638717255 -0.04232104647224679 -0.0709912351796543
0.13909381636400364 -0.017370523293746165 -0.07616990341107072
0.15647426634083472 0.007579999884754462 -0.08134857164248713
0.17385471631766583 0.03253052306325508 -0.08652723987390354
0.02926299315635241 -0.19437432288731685 -0.011530845176718069
0.046643443133183506 -0.16942379970881624 -0.01670951340813448
0.06402389311001459 -0.14447327653031564 -0.02188818163955089
0.08140434308684567 -0.119522753351815 -0.027066849870967302
0.09878479306367678 -0.09457223017331438 -0.03224551810238371
0.11616524304050786 -0.06962170699481375 -0.037424186333800125
0.13354569301733896 -0.04467118381631314 -0.042602854565216536
0.15092614299417006 -0.019720660637812512 -0.04778152279663295
0.16830659297100115 0.005229862540688113 -0.05296019102804936
0.18568704294783225 0.030180385719188733 -0.05813885925946577
0.041095319786518814 -0.19672446023138318 0.01685753543771968
0.05847576976334991 -0.17177393705288257 0.011678867206303269
0.07585621974018099 -0.14682341387438197 0.006500198974886858
0.09323666971701208 -0.12187289069588135 0.001321530743470447
0.11061711969384319 -0.09692236751738073 -0.0038571374879459645
0.12799756967067427 -0.0719718443388801 -0.009035805719362376
0.14537801964750535 -0.047021321160379485 -0.014214473950778787
0.16275846962433646 -0.02207079798187886 -0.0193931421821952
0.18013891960116754 0.0028797251966217667 -0.02457181041361161
0.19751936957799865 0.027830248375122386 -0.02975047864502802
0.05292764641668522 -0.19907459757544954 0.04524591605215745
0.07030809639351632 -0.17412407439694894 0.04006724782074104
0.0876885463703474 -0.14917355121844833 0.03488857958932463
0.10506899634717849 -0.1242230280399477 0.029709911357908216
0.1224494463240096 -0.09927250486144708 0.024531243126491804
0.13982989630084067 -0.07432198168294644 0.019352574895075393
0.15721034627767175 -0.04937145850444583 0.014173906663658982
0.17459079625450286 -0.024420935325945206 0.00899523843224257
0.19197124623133394 0.0005295878525554186 0.0038165702008261596
0.20935169620816504 0.02548011103105604 -0.0013620980305902516
0.06475997304685163 -0.20142473491951587 0.07363429666659521
0.08214042302368273 -0.17647421174101527 0.0684556284351788
0.09952087300051381 -0.15152368856251466 0.06327696020376239
0.1169013229773449 -0.12657316538401403 0.058098291972345985
0.134281772954176 -0.10162264220551342 0.052919623740929574
0.1516622229310071 -0.07667211902701279 0.04774095550951316
0.16904267290783817 -0.05172159584851218 0.04256228727809675
0.18642312288466928 -0.026771072670011557 0.03738361904668034
0.20380357286150036 -0.0018205494915109295 0.03220495081526393
0.22118402283833147 0.02312997368698969 0.027026282583847518
0.07659229967701804 -0.20377487226358224 0.10202267728103298
0.09397274965384914 -0.17882434908508163 0.09684400904961657
0.11135319963068022 -0.15387382590658102 0.09166534081820016
0.1287336496075113 -0.1289233027280804 0.08648667258678375
0.1461140995843424 -0.10397277954957977 0.08130800435536734
0.16349454956117349 -0.07902225637107914 0.07612933612395092
0.18087499953800457 -0.05407173319257853 0.07095066789253451
0.19825544951483567 -0.029121210014077904 0.0657719996611181
0.21563589949166675 -0.004170686835577278 0.0605933314297017
0.23301634946849786 0.020779836342923342 0.05541466319828529
-0.23301634946849786 -0.020779836342923342 -0.05541466319828529
-0.21044771508249585 -0.0387624807678191 -0.06631000598168768
-0.1878790806964938 -0.05674512519271485 -0.07720534876509008
-0.1653104463104918 -0.0747277696176106 -0.08810069154849248
-0.14274181192448976 -0.09271041404250635 -0.09899603433189488
-0.12017317753848773 -0.1106930584674021 -0.10989137711529728
-0.09760454315248572 -0.12867570289229785 -0.12078671989869968
-0.07503590876648368 -0.1466583473171936 -0.13168206268210209
-0.05246727438048165 -0.16464099174208935 -0.1425774054655045
-0.029898639994479625 -0.1826236361669851 -0.1534727482489069
-0.22118402283833147 -0.02312997368698969 -0.027026282583847518
-0.19861538845232946 -0.041112618111885456 -0.03792162536724992
-0.17604675406632742 -0.059095262536781205 -0.04881696815065232
-0.15347811968032538 -0.07707790696167695 -0.05971231093405472
-0.13090948529432336 -0.0950605513865727 -0.07060765371745711
-0.10834085090832132 -0.11304319581146845 -0.08150299650085951
-0.08577221652231931 -0.1310258402363642 -0.09239833928426192
-0.06320358213631727 -0.14900848466125996 -0.10329368206766432
-0.040634947750315245 -0.1669911290861557 -0.11418902485106672
-0.018066313364313216 -0.18497377351105146 -0.12508436763446912
-0.20935169620816507 -0.025480111031056036 0.0013620980305902388
-0.18678306182216306 -0.0434627554559518 -0.009533244752812161
-0.16421442743616102 -0.06144539988084755 -0.020428587536214564
-0.14164579305015898 -0.0794280443057433 -0.031323930319616965
-0.11907715866415695 -0.09741068873063904 -0.042219273103019365
-0.09650852427815491 -0.1153933331555348 -0.053114615886421766
-0.0739398898921529 -0.13337597758043054 -0.06400995866982416
-0.05137125550615087 -0.1513586220053263 -0.07490530145322656
-0.02880262112014884 -0.16934126643022204 -0.08580064423662896
-0.006233986734146812 -0.1873239108551178 -0.09669598702003136
-0.19751936957799865 -0.027830248375122383 0.029750478645028
-0.17495073519199664 -0.04581289280001815 0.0188551358616256
-0.1523821008059946 -0.06379553722491389 0.0079597930782232
-0.12981346641999258 -0.08177818164980964 -0.0029355497051792015
-0.10724483203399054 -0.09976082607470539 -0.013830892488581601
-0.0846761976479885 -0.11774347049960114 -0.024726235271984004
-0.0621075632619865 -0.1357261149244969 -0.0356215780553864
-0.039538928875984466 -0.15370875934939265 -0.0465169208387888
-0.016970294489982433 -0.1716914037742884 -0.057412263622191206
0.0055983398960195935 -0.18967404819918415 -0.06830760640559361
-0.18568704294783225 -0.030180385719188733 0.05813885925946577
-0.16311840856183024 -0.0481630301440845 0.04724351647606337
-0.1405497741758282 -0.06614567456898024 0.03634817369266097
-0.11798113978982616 -0.08412831899387599 0.025452830909258567
-0.09541250540382414 -0.10211096341877174 0.014557488125856166
-0.0728438710178221 -0.12009360784366749 0.0036621453424537658
-0.05027523663182009 -0.13807625226856324 -0.007233197440948632
-0.027706602245818057 -0.156058896693459 -0.018128540224351033
-0.005137967859816024 -0.17404154111835474 -0.029023883007753437
0.017430666526186002 -0.1920241855432505 -0.03991922579115584
-0.17385471631766583 -0.03253052306325508 0.08652723987390354
-0.15128608193166382 -0.050513167488150844 0.07563189709050114
-0.12871744754566178 -0.0684958119130466 0.06473655430709874
-0.10614881315965977 -0.08647845633794235 0.053841211523696336
-0.08358017877365774 -0.1044611007628381 0.042945868740293935
-0.06101154438765569 -0.12244374518773385 0.032050525956891535
-0.03844291000165368 -0.1404263896126296 0.021155183173489137
-0.015874275615651648 -0.15840903403752535 0.010259840390086736
0.006694358770350385 -0.1763916784624211 -0.0006355023933156681
0.02926299315635241 -0.19437432288731685 -0.011530845176718069
-0.16202238968749944 -0.03488066040732143 0.1149156204883413
-0.13945375530149742 -0.05286330483221719 0.1040202777049389
-0.11688512091549538 -0.07084594925711295 0.09312493492153649
-0.09431648652949336 -0.0888285936820087 0.08222959213813409
-0.07174785214349133 -0.10681123810690445 0.07133424935473169
-0.04917921775748929 -0.1247938825318002 0.06043890657132928
-0.026610583371487282 -0.14277652695669593 0.04954356378792689
-0.004041948985485247 -0.16075917138159168 0.03864822100452449
0.018526685400516784 -0.17874181580648743 0.02775287822112208
0.041095319786518814 -0.19672446023138318 0.01685753543771968
-0.15019006305733304 -0.037230797751387774 0.14330400110277905
-0.12762142867133103 -0.05521344217628354 0.13240865831937665
-0.10505279428532897 -0.0731960866011793 0.12151331553597425
-0.08248415989932695 -0.09117873102607504 0.11061797275257185
-0.05991552551332492 -0.1091613754509708 0.09972262996916945
-0.03734689112732288 -0.12714401987586654 0.08882728718576705
-0.014778256741320873 -0.1451266643007623 0.07793194440236466
0.007790377644681161 -0.16310930872565804 0.06703660161896226
0.030359012030683193 -0.1810919531505538 0.05614125883555985
0.05292764641668522 -0.19907459757544954 0.04524591605215745
-0.13835773642716662 -0.03958093509545412 0.17169238171721682
-0.1157891020411646 -0.057563579520349885 0.16079703893381442
-0.09322046765516256 -0.07554622394524564 0.14990169615041202
-0.07065183326916054 -0.09352886837014139 0.13900635336700962
-0.04808319888315851 -0.11151151279503714 0.12811101058360722
-0.025514564497156476 -0.12949415721993288 0.11721566780020481
-0.0029459301111544635 -0.14747680164482863 0.10632032501680243
0.01962270427484757 -0.16545944606972438 0.09542498223340003
0.042191338660849606 -0.18344209049462012 0.08452963944999761
0.06475997304685163 -0.20142473491951587 0.07363429666659521
-0.12652540979700022 -0.041931072439520475 0.2000807623316546
-0.1039567754109982 -0.05991371686441624 0.1891854195482522
-0.08138814102499616 -0.07789636128931199 0.1782900767648498
-0.058819506638994136 -0.09587900571420774 0.16739473398144739
-0.03625087225299211 -0.11386165013910349 0.15649939119804498
-0.013682237866990066 -0.13184429456399924 0.14560404841464258
0.008886396519011946 -0.149826938988895 0.13470870563124018
0.031455030905013975 -0.16780958341379074 0.1238133628478378
0.05402366529101601 -0.18579222783868649 0.11291802006443538
0.07659229967701804 -0.20377487226358224 0.10202267728103298
-0.07659229967701804 0.20377487226358224 -0.10202267728103298
-0.05402366529101601 0.18579222783868649 -0.11291802006443538
-0.03145503090501399 0.16780958341379074 -0.12381336284783778
-0.00888639651901196 0.149826938988895 -0.13470870563124018
0.013682237866990066 0.13184429456399924 -0.14560404841464258
0.03625087225299211 0.11386165013910349 -0.15649939119804498
0.05881950663899412 0.09587900571420774 -0.16739473398144739
0.08138814102499616 0.07789636128931199 -0.1782900767648498
0.1039567754109982 0.05991371686441624 -0.1891854195482522
0.12652540979700022 0.041931072439520475 -0.2000807623316546
-0.06475997304685163 0.20142473491951587 -0.07363429666659521
-0.042191338660849606 0.18344209049462012 -0.08452963944999761
-0.019622704274847583 0.16545944606972438 -0.09542498223340001
0.0029459301111544496 0.14747680164482863 -0.10632032501680241
0.025514564497156476 0.12949415721993288 -0.11721566780020481
0.04808319888315851 0.11151151279503714 -0.12811101058360722
0.07065183326916052 0.09352886837014139 -0.13900635336700962
0.09322046765516256 0.07554622394524564 -0.14990169615041202
0.1157891020411646 0.057563579520349885 -0.16079703893381442
0.13835773642716662 0.03958093509545412 -0.17169238171721682
-0.05292764641668522 0.19907459757544954 -0.04524591605215746
-0.0303590120306832 0.1810919531505538 -0.056141258835559864
-0.00779037764468118 0.16310930872565804 -0.06703660161896226
0.014778256741320852 0.1451266643007623 -0.07793194440236466
0.03734689112732288 0.12714401987586654 -0.08882728718576706
0.05991552551332492 0.1091613754509708 -0.09972262996916946
0.08248415989932693 0.09117873102607504 -0.11061797275257186
0.10505279428532897 0.0731960866011793 -0.12151331553597426
0.127621428671331 0.05521344217628354 -0.13240865831937668
0.150190063057333 0.037230797751387774 -0.14330400110277908
-0.04109531978651882 0.19672446023138318 -0.0168575354377197
-0.018526685400516794 0.17874181580648743 -0.0277528782211221
0.004041948985485226 0.16075917138159168 -0.038648221004524495
0.026610583371487258 0.14277652695669593 -0.049543563787926896
0.049179217757489284 0.1247938825318002 -0.060438906571329304
0.07174785214349133 0.10681123810690445 -0.0713342493547317
0.09431648652949334 0.0888285936820087 -0.0822295921381341
0.11688512091549538 0.07084594925711295 -0.0931249349215365
0.13945375530149742 0.05286330483221719 -0.10402027770493891
0.16202238968749944 0.03488066040732143 -0.11491562048834131
-0.02926299315635241 0.19437432288731685 0.011530845176718069
-0.006694358770350385 0.1763916784624211 0.0006355023933156681
0.015874275615651634 0.15840903403752535 -0.01025984039008673
0.03844291000165367 0.1404263896126296 -0.02115518317348913
0.06101154438765569 0.12244374518773385 -0.032050525956891535
0.08358017877365774 0.1044611007628381 -0.042945868740293935
0.10614881315965975 0.08647845633794235 -0.053841211523696336
0.12871744754566178 0.0684958119130466 -0.06473655430709874
0.15128608193166382 0.050513167488150844 -0.07563189709050114
0.17385471631766583 0.03253052306325508 -0.08652723987390354
-0.017430666526186002 0.1920241855432505 0.03991922579115584
0.005137967859816024 0.17404154111835474 0.029023883007753437
0.027706602245818043 0.156058896693459 0.01812854022435104
0.050275236631820076 0.13807625226856324 0.007233197440948639
0.0728438710178221 0.12009360784366749 -0.0036621453424537658
0.09541250540382414 0.10211096341877174 -0.014557488125856166
0.11798113978982615 0.08412831899387599 -0.025452830909258567
0.1405497741758282 0.06614567456898024 -0.03634817369266097
0.16311840856183024 0.0481630301440845 -0.04724351647606337
0.18568704294783225 0.030180385719188733 -0.05813885925946577
-0.005598339896019601 0.18967404819918415 0.0683076064055936
0.016970294489982423 0.1716914037742884 0.057412263622191186
0.039538928875984446 0.15370875934939265 0.04651692083878879
0.06210756326198648 0.1357261149244969 0.03562157805538639
0.0846761976479885 0.11774347049960114 0.024726235271983983
0.10724483203399054 0.09976082607470539 0.013830892488581582
0.12981346641999256 0.08177818164980964 0.002935549705179182
0.1523821008059946 0.06379553722491389 -0.00795979307822322
0.17495073519199664 0.04581289280001815 -0.01885513586162562
0.19751936957799865 0.027830248375122386 -0.02975047864502802
0.006233986734146807 0.1873239108551178 0.09669598702003135
0.028802621120148832 0.16934126643022204 0.08580064423662895
0.051371255506150855 0.1513586220053263 0.07490530145322656
0.07393988989215289 0.13337597758043054 0.06400995866982416
0.09650852427815491 0.1153933331555348 0.05311461588642175
0.11907715866415695 0.09741068873063904 0.04221927310301935
0.14164579305015895 0.0794280443057433 0.03132393031961695
0.164214427436161 0.06144539988084755 0.02042858753621455
0.18678306182216303 0.0434627554559518 0.00953324475281215
0.20935169620816504 0.02548011103105604 -0.0013620980305902516
0.018066313364313216 0.18497377351105146 0.12508436763446912
0.040634947750315245 0.1669911290861557 0.11418902485106672
0.06320358213631726 0.14900848466125996 0.10329368206766433
0.0857722165223193 0.1310258402363642 0.09239833928426193
0.10834085090832132 0.11304319581146845 0.08150299650085951
0.13090948529432336 0.0950605513865727 0.07060765371745711
0.15347811968032538 0.07707790696167695 0.05971231093405472
0.17604675406632742 0.059095262536781205 0.04881696815065232
0.19861538845232946 0.041112618111885456 0.03792162536724992
0.22118402283833147 0.02312997368698969 0.027026282583847518
0.029898639994479625 0.1826236361669851 0.1534727482489069
0.05246727438048165 0.16464099174208935 0.1425774054655045
0.07503590876648367 0.1466583473171936 0.13168206268210209
0.0976045431524857 0.12867570289229785 0.1207867198986997
0.12017317753848773 0.1106930584674021 0.10989137711529728
0.14274181192448976 0.09271041404250635 0.09899603433189488
0.16531044631049177 0.0747277696176106 0.08810069154849248
0.1878790806964938 0.05674512519271485 0.07720534876509008
0.21044771508249585 0.0387624807678191 0.06631000598168768
0.23301634946849786 0.020779836342923342 0.05541466319828529
-0.23301634946849786 -0.020779836342923342 -0.05541466319828529
-0.21044771508249585 -0.0387624807678191 -0.06631000598168768
-0.1878790806964938 -0.05674512519271485 -0.07720534876509008
-0.1653104463104918 -0.0747277696176106 -0.08810069154849248
-0.14274181192448976 -0.09271041404250635 -0.09899603433189488
-0.12017317753848773 -0.1106930584674021 -0.10989137711529728
-0.09760454315248572 -0.12867570289229785 -0.12078671989869968
-0.07503590876648368 -0.1466583473171936 -0.13168206268210209
-0.05246727438048165 -0.16464099174208935 -0.1425774054655045
-0.029898639994479625 -0.1826236361669851 -0.1534727482489069
-0.21563589949166675 0.004170686835577278 -0.0605933314297017
-0.19306726510566474 -0.013811957589318486 -0.07148867421310409
-0.17049863071966273 -0.031794602014214225 -0.08238401699650649
-0.1479299963336607 -0.049777246439109975 -0.0932793597799089
-0.12536136194765868 -0.06775989086400573 -0.1041747025633113
-0.10279272756165664 -0.08574253528890148 -0.1150700453467137
-0.08022409317565463 -0.10372517971379723 -0.1259653881301161
-0.057655458789652586 -0.121707824138693 -0.1368607309135185
-0.03508682440365055 -0.13969046856358872 -0.1477560736969209
-0.01251819001764853 -0.1576731129884845 -0.1586514164803233
-0.19825544951483567 0.02912121001407789 -0.0657719996611181
-0.17568681512883366 0.011138565589182126 -0.0766673424445205
-0.15311818074283165 -0.0068440788357136155 -0.0875626852279229
-0.1305495463568296 -0.024826723260609366 -0.0984580280113253
-0.10798091197082758 -0.04280936768550512 -0.1093533707947277
-0.08541227758482556 -0.060792012110400875 -0.1202487135781301
-0.06284364319882353 -0.07877465653529661 -0.1311440563615325
-0.0402750088128215 -0.09675730096019236 -0.1420393991449349
-0.01770637442681947 -0.11473994538508811 -0.1529347419283373
0.004862259959182557 -0.1327225898099839 -0.1638300847117397
-0.1808749995380046 0.05407173319257852 -0.07095066789253451
-0.15830636515200255 0.036089088767682756 -0.08184601067593691
-0.13573773076600054 0.01810644434278701 -0.09274135345933932
-0.11316909637999852 0.00012379991789126079 -0.10363669624274172
-0.09060046199399649 -0.017858844507004496 -0.11453203902614412
-0.06803182760799445 -0.03584148893190024 -0.12542738180954652
-0.04546319322199244 -0.05382413335679599 -0.13632272459294892
-0.022894558835990408 -0.07180677778169174 -0.14721806737635132
-0.00032592444998837426 -0.08978942220658749 -0.15811341015975372
0.022242709936013644 -0.10777206663148325 -0.16900875294315612
-0.16349454956117349 0.07902225637107914 -0.07612933612395092
-0.14092591517517147 0.061039611946183375 -0.08702467890735333
-0.11835728078916946 0.04305696752128764 -0.09792002169075573
-0.09578864640316742 0.025074323096391883 -0.10881536447415813
-0.0732200120171654 0.007091678671496129 -0.11971070725756053
-0.05065137763116336 -0.010890965753399626 -0.13060605004096293
-0.028082743245161346 -0.02887361017829537 -0.14150139282436533
-0.005514108859159313 -0.04685625460319112 -0.15239673560776773
0.017054525526842713 -0.06483889902808687 -0.16329207839117013
0.039623159912844756 -0.08282154345298263 -0.17418742117457253
-0.1461140995843424 0.10397277954957977 -0.08130800435536734
-0.12354546519834038 0.08599013512468401 -0.09220334713876974
-0.10097683081233837 0.06800749069978826 -0.10309868992217214
-0.07840819642633633 0.05002484627489251 -0.11399403270557454
-0.0558395620403343 0.03204220184999676 -0.12488937548897694
-0.03327092765433227 0.014059557425101002 -0.13578471827237934
-0.010702293268330252 -0.003923086999794742 -0.14668006105578174
0.011866341117671781 -0.021905731424690492 -0.15757540383918414
0.034434975503673824 -0.03988837584958624 -0.16847074662258654
0.05700360988967584 -0.057871020274482 -0.17936608940598894
-0.12873364960751132 0.12892330272808036 -0.08648667258678375
-0.1061650152215093 0.11094065830318461 -0.09738201537018615
-0.08359638083550727 0.09295801387828886 -0.10827735815358855
-0.061027746449505246 0.07497536945339311 -0.11917270093699095
-0.03845911206350321 0.056992725028497365 -0.13006804372039335
-0.015890477677501184 0.039010080603601616 -0.14096338650379575
0.0066781567085008355 0.021027436178705866 -0.15185872928719815
0.02924679109450286 0.0030447917538101135 -0.16275407207060055
0.051815425480504905 -0.014937852671085636 -0.17364941485400295
0.07438405986650691 -0.032920497095981396 -0.18454475763740535
-0.11135319963068023 0.153873825906581 -0.09166534081820016
-0.0887845652446782 0.13589118148168525 -0.10256068360160256
-0.06621593085867618 0.1179085370567895 -0.11345602638500496
-0.043647296472674145 0.09992589263189375 -0.12435136916840736
-0.021078662086672122 0.081943248206998 -0.13524671195180976
0.001489972299329918 0.06396060378210223 -0.14614205473521216
0.02405860668533193 0.0459779593572065 -0.15703739751861456
0.04662724107133397 0.02799531493231074 -0.16793274030201696
0.06919587545733599 0.01001267050741499 -0.17882808308541936
0.09176450984333802 -0.007969973917480774 -0.18972342586882177
-0.09397274965384914 0.17882434908508163 -0.09684400904961657
-0.07140411526784711 0.16084170466018585 -0.10773935183301897
-0.048835480881845084 0.14285906023529013 -0.11863469461642137
-0.026266846495843054 0.12487641581039438 -0.12953003739982377
-0.0036982121098410275 0.10689377138549862 -0.14042538018322617
0.018870422276161012 0.08891112696060287 -0.15132072296662857
0.04143905666216303 0.07092848253570712 -0.16221606575003097
0.06400769104816505 0.05294583811081137 -0.17311140853343338
0.08657632543416709 0.03496319368591562 -0.18400675131683578
0.1091449598201691 0.016980549261019853 -0.19490209410023818
-0.07659229967701804 0.20377487226358224 -0.10202267728103298
-0.05402366529101601 0.18579222783868649 -0.11291802006443538
-0.03145503090501399 0.16780958341379074 -0.12381336284783778
-0.00888639651901196 0.149826938988895 -0.13470870563124018
0.013682237866990066 0.13184429456399924 -0.14560404841464258
0.03625087225299211 0.11386165013910349 -0.15649939119804498
0.05881950663899412 0.09587900571420774 -0.16739473398144739
0.08138814102499616 0.07789636128931199 -0.1782900767648498
0.1039567754109982 0.05991371686441624 -0.1891854195482522
0.12652540979700022 0.041931072439520475 -0.2000807623316546
-0.12652540979700022 -0.041931072439520475 0.2000807623316546
-0.1039567754109982 -0.05991371686441624 0.1891854195482522
-0.08138814102499616 -0.07789636128931199 0.1782900767648498
-0.058819506638994136 -0.09587900571420774 0.16739473398144739
-0.03625087225299211 -0.11386165013910349 0.15649939119804498
-0.013682237866990066 -0.13184429456399924 0.14560404841464258
0.008886396519011946 -0.149826938988895 0.13470870563124018
0.031455030905013975 -0.16780958341379074 0.1238133628478378
0.05402366529101601 -0.18579222783868649 0.11291802006443538
0.07659229967701804 -0.20377487226358224 0.10202267728103298
-0.1091449598201691 -0.016980549261019853 0.19490209410023818
-0.08657632543416709 -0.03496319368591562 0.18400675131683578
-0.06400769104816507 -0.05294583811081136 0.17311140853343338
-0.04143905666216304 -0.0709284825357071 0.16221606575003097
-0.018870422276161012 -0.08891112696060287 0.15132072296662857
0.0036982121098410275 -0.10689377138549862 0.14042538018322617
0.02626684649584304 -0.12487641581039437 0.12953003739982377
0.04883548088184507 -0.14285906023529013 0.11863469461642139
0.07140411526784711 -0.16084170466018585 0.10773935183301897
0.09397274965384914 -0.17882434908508163 0.09684400904961657
-0.09176450984333802 0.00796997391748076 0.18972342586882177
-0.069195875457336 -0.010012670507415004 0.17882808308541936
-0.04662724107133399 -0.027995314932310746 0.16793274030201696
-0.024058606685331958 -0.0459779593572065 0.15703739751861456
-0.001489972299329918 -0.06396060378210225 0.14614205473521216
0.02107866208667211 -0.08194324820699801 0.13524671195180976
0.043647296472674124 -0.09992589263189375 0.12435136916840737
0.06621593085867616 -0.1179085370567895 0.11345602638500497
0.08878456524467819 -0.13589118148168525 0.10256068360160256
0.11135319963068022 -0.15387382590658102 0.09166534081820016
-0.07438405986650694 0.03292049709598138 0.18454475763740535
-0.051815425480504905 0.014937852671085623 0.17364941485400295
-0.02924679109450289 -0.0030447917538101205 0.16275407207060055
-0.006678156708500856 -0.02102743617870587 0.15185872928719815
0.015890477677501177 -0.03901008060360163 0.14096338650379575
0.038459112063503206 -0.05699272502849738 0.13006804372039335
0.06102774644950522 -0.07497536945339313 0.11917270093699096
0.08359638083550726 -0.09295801387828888 0.10827735815358856
0.10616501522150928 -0.11094065830318463 0.09738201537018615
0.1287336496075113 -0.1289233027280804 0.08648667258678375
-0.05700360988967584 0.057871020274482 0.17936608940598894
-0.034434975503673824 0.03988837584958624 0.16847074662258654
-0.011866341117671795 0.021905731424690506 0.15757540383918414
0.010702293268330238 0.003923086999794752 0.14668006105578174
0.03327092765433227 -0.014059557425101002 0.13578471827237934
0.0558395620403343 -0.03204220184999676 0.12488937548897694
0.07840819642633631 -0.0500248462748925 0.11399403270557455
0.10097683081233835 -0.06800749069978826 0.10309868992217215
0.12354546519834038 -0.08599013512468401 0.09220334713876974
0.1461140995843424 -0.10397277954957977 0.08130800435536734
-0.039623159912844756 0.08282154345298263 0.17418742117457253
-0.017054525526842713 0.06483889902808687 0.16329207839117013
0.0055141088591592995 0.04685625460319112 0.15239673560776773
0.028082743245161332 0.028873610178295376 0.14150139282436533
0.05065137763116336 0.010890965753399626 0.13060605004096293
0.0732200120171654 -0.007091678671496129 0.11971070725756053
0.09578864640316741 -0.025074323096391873 0.10881536447415814
0.11835728078916945 -0.043056967521287626 0.09792002169075574
0.14092591517517147 -0.061039611946183375 0.08702467890735333
0.16349454956117349 -0.07902225637107914 0.07612933612395092
-0.02224270993601366 0.10777206663148324 0.16900875294315612
0.0003259244499883673 0.08978942220658748 0.15811341015975372
0.022894558835990383 0.07180677778169173 0.14721806737635132
0.045463193221992416 0.05382413335679598 0.13632272459294892
0.06803182760799445 0.03584148893190023 0.12542738180954652
0.09060046199399648 0.017858844507004482 0.11453203902614413
0.1131690963799985 -0.00012379991789126426 0.10363669624274173
0.13573773076600051 -0.018106444342787017 0.09274135345933933
0.15830636515200255 -0.03608908876768277 0.08184601067593691
0.18087499953800457 -0.05407173319257853 0.07095066789253451
-0.004862259959182564 0.13272258980998386 0.1638300847117397
0.017706374426819462 0.11473994538508811 0.1529347419283373
0.04027500881282148 0.09675730096019236 0.1420393991449349
0.06284364319882352 0.07877465653529661 0.1311440563615325
0.08541227758482554 0.06079201211040086 0.12024871357813012
0.10798091197082758 0.042809367685505105 0.1093533707947277
0.13054954635682958 0.024826723260609366 0.09845802801132532
0.15311818074283162 0.0068440788357136085 0.08756268522792292
0.17568681512883366 -0.01113856558918214 0.0766673424445205
0.19825544951483567 -0.029121210014077904 0.0657719996611181
0.01251819001764853 0.1576731129884845 0.1586514164803233
0.03508682440365055 0.13969046856358872 0.1477560736969209
0.05765545878965257 0.121707824138693 0.1368607309135185
0.08022409317565461 0.10372517971379724 0.1259653881301161
0.10279272756165664 0.08574253528890148 0.1150700453467137
0.12536136194765868 0.06775989086400573 0.1041747025633113
0.1479299963336607 0.04977724643910998 0.0932793597799089
0.1704986307196627 0.03179460201421423 0.08238401699650649
0.19306726510566474 0.013811957589318486 0.07148867421310409
0.21563589949166675 -0.004170686835577278 0.0605933314297017
0.029898639994479625 0.1826236361669851 0.1534727482489069
0.05246727438048165 0.16464099174208935 0.1425774054655045
0.07503590876648367 0.1466583473171936 0.13168206268210209
0.0976045431524857 0.12867570289229785 0.1207867198986997
0.12017317753848773 0.1106930584674021 0.10989137711529728
0.14274181192448976 0.09271041404250635 0.09899603433189488
0.16531044631049177 0.0747277696176106 0.08810069154849248
0.1878790806964938 0.05674512519271485 0.07720534876509008
0.21044771508249585 0.0387624807678191 0.06631000598168768
0.23301634946849786 0.020779836342923342 0.05541466319828529
