# .PCD v0.7 - Point Cloud Data file format
VERSION 0.7
FIELDS x y z
SIZE 4 4 4
TYPE F F F
COUNT 1 1 1
WIDTH 600
HEIGHT 1
VIEWPOINT 0 0 0 1 0 0 0
POINTS 600
DATA ascii
-0.1520476382932663 -0.10941963566407223 -0.13117103439146993
-0.15835073319492105 -0.08779091168509681 -0.11237409442724058
-0.16465382809657578 -0.06616218770612142 -0.09357715446301125
-0.17095692299823054 -0.04453346372714601 -0.07478021449878193
-0.17726001789988527 -0.022904739748170613 -0.05598327453455258
-0.18356311280154 -0.0012760157691951953 -0.03718633457032325
-0.18986620770319476 0.020352708209780194 -0.018389394606093932
-0.1961693026048495 0.04198143218875561 0.00040754535813541736
-0.20247239750650423 0.063610156167731 0.019204485322364736
-0.20877549240815899 0.08523888014670641 0.03800142528659409
-0.13495691404954796 -0.12203055437283213 -0.11092930688458352
-0.1412600089512027 -0.10040183039385671 -0.09213236692035418
-0.14756310385285742 -0.07877310641488132 -0.07333542695612486
-0.15386619875451218 -0.057144382435905916 -0.05453848699189553
-0.16016929365616692 -0.03551565845693051 -0.03574154702766619
-0.16647238855782165 -0.0138869344779551 -0.016944607063436853
-0.1727754834594764 0.007741789501020291 0.0018523329007924668
-0.17907857836113114 0.0293705134799957 0.020649272865021814
-0.18538167326278587 0.0509992374589711 0.039446212829251134
-0.19168476816444063 0.07262796143794652 0.05824315279348048
-0.11786618980582961 -0.13464147308159202 -0.09068757937769714
-0.12416928470748435 -0.1130127491026166 -0.0718906394134678
-0.1304723796091391 -0.09138402512364122 -0.05309369944923847
-0.13677547451079383 -0.06975530114466581 -0.03429675948500914
-0.1430785694124486 -0.04812657716569041 -0.0154998195207798
-0.14938166431410332 -0.026497853186714996 0.003297120443449534
-0.15568475921575806 -0.004869129207739606 0.022094060407678855
-0.16198785411741282 0.016759594771235804 0.0408910003719082
-0.16829094901906755 0.0383883187502112 0.05968794033613752
-0.1745940439207223 0.06001704272918662 0.07848488030036686
-0.10077546556211127 -0.14725239179035193 -0.07044585187081076
-0.10707856046376601 -0.12562366781137652 -0.05164891190658141
-0.11338165536542075 -0.10399494383240111 -0.032851971942352086
-0.1196847502670755 -0.08236621985342571 -0.014055031978122757
-0.12598784516873024 -0.060737495874450306 0.004741907986106584
-0.13229094007038497 -0.03910877189547489 0.023538847950335916
-0.13859403497203973 -0.0174800479164995 0.042335787914565236
-0.14489712987369446 0.00414867606247591 0.061132727878794584
-0.1512002247753492 0.025777400041451307 0.07992966784302391
-0.15750331967700396 0.047406124020426724 0.09872660780725326
-0.08368474131839293 -0.15986331049911182 -0.050204124363924366
-0.08998783622004768 -0.1382345865201364 -0.03140718439969502
-0.09629093112170241 -0.11660586254116101 -0.012610244435465691
-0.10259402602335715 -0.0949771385621856 0.006186695528763636
-0.1088971209250119 -0.0733484145832102 0.024983635492992977
-0.11520021582666663 -0.05171969060423479 0.04378057545722231
-0.12150331072832138 -0.0300909666252594 0.06257751542145164
-0.1278064056299761 -0.008462242646283992 0.08137445538568099
-0.13410950053163084 0.013166481332691405 0.1001713953499103
-0.1404125954332856 0.03479520531166682 0.11896833531413965
-0.06659401707467458 -0.17247422920787173 -0.02996239685703797
-0.07289711197632932 -0.1508455052288963 -0.011165456892808623
-0.07920020687798406 -0.12921678124992092 0.007631483071420704
-0.0855033017796388 -0.10758805727094552 0.02642842303565003
-0.09180639668129355 -0.08595933329197011 0.04522536299987937
-0.09810949158294828 -0.0643306093129947 0.0640223029641087
-0.10441258648460303 -0.0427018853340193 0.08281924292833802
-0.11071568138625777 -0.021073161355043894 0.10161618289256737
-0.1170187762879125 0.0005555626239315038 0.12041312285679669
-0.12332187118956726 0.02218428660290692 0.13921006282102605
-0.049503292830956246 -0.1850851479166316 -0.009720669350151591
-0.05580638773261099 -0.1634564239376562 0.009076270614077757
-0.062109482634265724 -0.1418276999586808 0.027873210578307082
-0.06841257753592046 -0.1201989759797054 0.04667015054253641
-0.07471567243757521 -0.09857025200073 0.06546709050676575
-0.08101876733922994 -0.07694152802175458 0.08426403047099508
-0.08732186224088469 -0.0553128040427792 0.1030609704352244
-0.09362495714253943 -0.03368408006380379 0.12185791039945375
-0.09992805204419417 -0.012055356084828389 0.14065485036368308
-0.10623114694584893 0.009573367894147028 0.15945179032791243
-0.03241256858723789 -0.19769606662539152 0.010521058156734805
-0.03871566348889264 -0.1760673426464161 0.029317998120964153
-0.04501875839054737 -0.1544386186674407 0.04811493808519348
-0.05132185329220212 -0.1328098946884653 0.06691187804942281
-0.05762494819385686 -0.11118117070948991 0.08570881801365215
-0.0639280430955116 -0.08955244673051449 0.10450575797788149
-0.07023113799716635 -0.0679237227515391 0.12330269794211081
-0.0765342328988211 -0.04629499877256369 0.14209963790634014
-0.08283732780047583 -0.02466627479358829 0.16089657787056946
-0.08914042270213059 -0.003037550814612874 0.1796935178347988
-0.015321844343519554 -0.2103069853341514 0.030762785663621194
-0.0216249392451743 -0.18867826135517599 0.04955972562785054
-0.027928034146829032 -0.1670495373762006 0.06835666559207987
-0.03423112904848378 -0.1454208133972252 0.08715360555630919
-0.040534223950138525 -0.1237920894182498 0.10595054552053854
-0.04683731885179326 -0.10216336543927439 0.12474748548476787
-0.053140413753448 -0.080534641460299 0.14354442544899718
-0.05944350865510275 -0.05890591748132359 0.16234136541322652
-0.06574660355675749 -0.03727719350234819 0.18113830537745584
-0.07204969845841225 -0.01564846952337277 0.1999352453416852
0.0017688799001987952 -0.2229179040429113 0.05100451317050759
-0.004534215001455951 -0.2012891800639359 0.06980145313473694
-0.010837309903110683 -0.1796604560849605 0.08859839309896626
-0.01714040480476543 -0.15803173210598512 0.1073953330631956
-0.023443499706420175 -0.1364030081270097 0.12619227302742494
-0.029746594608074908 -0.11477428414803428 0.14498921299165426
-0.03604968950972965 -0.0931455601690589 0.16378615295588358
-0.042352784411384396 -0.07151683619008349 0.18258309292011293
-0.04865587931303913 -0.049888112211108095 0.20138003288434225
-0.05495897421469389 -0.028259388232132674 0.2201769728485716
0.05495897421469389 0.028259388232132674 -0.2201769728485716
0.04865587931303913 0.049888112211108095 -0.20138003288434225
0.042352784411384396 0.07151683619008349 -0.18258309292011293
0.03604968950972965 0.09314556016905888 -0.1637861529558836
0.029746594608074908 0.11477428414803428 -0.14498921299165426
0.023443499706420175 0.1364030081270097 -0.12619227302742494
0.01714040480476543 0.1580317321059851 -0.10739533306319561
0.010837309903110683 0.1796604560849605 -0.08859839309896626
0.004534215001455951 0.2012891800639359 -0.06980145313473694
-0.0017688799001987952 0.2229179040429113 -0.05100451317050759
0.07204969845841225 0.01564846952337277 -0.1999352453416852
0.06574660355675749 0.03727719350234819 -0.18113830537745584
0.05944350865510275 0.05890591748132359 -0.16234136541322652
0.053140413753448 0.08053464146029898 -0.1435444254489972
0.04683731885179326 0.10216336543927439 -0.12474748548476787
0.040534223950138525 0.1237920894182498 -0.10595054552053854
0.03423112904848378 0.14542081339722518 -0.0871536055563092
0.027928034146829032 0.1670495373762006 -0.06835666559207987
0.0216249392451743 0.18867826135517599 -0.04955972562785054
0.015321844343519554 0.2103069853341514 -0.030762785663621194
0.08914042270213059 0.003037550814612874 -0.1796935178347988
0.08283732780047583 0.02466627479358829 -0.16089657787056946
0.0765342328988211 0.04629499877256369 -0.14209963790634014
0.07023113799716635 0.06792372275153909 -0.12330269794211084
0.0639280430955116 0.08955244673051449 -0.10450575797788149
0.05762494819385686 0.11118117070948991 -0.08570881801365215
0.05132185329220212 0.1328098946884653 -0.06691187804942282
0.04501875839054737 0.1544386186674407 -0.04811493808519348
0.03871566348889264 0.1760673426464161 -0.029317998120964153
0.03241256858723789 0.19769606662539152 -0.010521058156734805
0.10623114694584893 -0.00957336789414702 -0.15945179032791243
0.09992805204419417 0.012055356084828397 -0.14065485036368308
0.09362495714253943 0.033684080063803794 -0.12185791039945376
0.08732186224088469 0.05531280404277919 -0.10306097043522444
0.08101876733922994 0.0769415280217546 -0.0842640304709951
0.07471567243757521 0.09857025200073001 -0.06546709050676576
0.06841257753592046 0.1201989759797054 -0.04667015054253644
0.06210948263426571 0.1418276999586808 -0.0278732105783071
0.05580638773261098 0.1634564239376562 -0.00907627061407777
0.04950329283095623 0.1850851479166316 0.009720669350151577
0.12332187118956726 -0.02218428660290692 -0.13921006282102605
0.1170187762879125 -0.0005555626239315038 -0.12041312285679669
0.11071568138625777 0.021073161355043894 -0.10161618289256737
0.10441258648460303 0.042701885334019286 -0.08281924292833805
0.09810949158294828 0.0643306093129947 -0.0640223029641087
0.09180639668129355 0.08595933329197011 -0.04522536299987937
0.0855033017796388 0.1075880572709455 -0.026428423035650045
0.07920020687798406 0.12921678124992092 -0.007631483071420704
0.07289711197632932 0.1508455052288963 0.011165456892808623
0.06659401707467458 0.17247422920787173 0.02996239685703797
0.1404125954332856 -0.03479520531166682 -0.11896833531413965
0.13410950053163084 -0.013166481332691405 -0.1001713953499103
0.1278064056299761 0.008462242646283992 -0.08137445538568099
0.12150331072832138 0.030090966625259386 -0.06257751542145167
0.11520021582666663 0.05171969060423479 -0.04378057545722231
0.1088971209250119 0.0733484145832102 -0.024983635492992977
0.10259402602335715 0.09497713856218559 -0.00618669552876365
0.09629093112170241 0.11660586254116101 0.012610244435465691
0.08998783622004768 0.1382345865201364 0.03140718439969502
0.08368474131839293 0.15986331049911182 0.050204124363924366
0.15750331967700396 -0.04740612402042672 -0.09872660780725327
0.1512002247753492 -0.025777400041451296 -0.07992966784302392
0.14489712987369446 -0.004148676062475901 -0.0611327278787946
0.1385940349720397 0.017480047916499496 -0.04233578791456528
0.13229094007038497 0.039108771895474896 -0.023538847950335933
0.12598784516873024 0.06073749587445031 -0.0047419079861065975
0.1196847502670755 0.08236621985342571 0.01405503197812273
0.11338165536542075 0.10399494383240113 0.03285197194235207
0.10707856046376601 0.12562366781137652 0.0516489119065814
0.10077546556211127 0.14725239179035193 0.07044585187081075
0.1745940439207223 -0.06001704272918662 -0.07848488030036686
0.16829094901906755 -0.0383883187502112 -0.05968794033613752
0.16198785411741282 -0.016759594771235804 -0.0408910003719082
0.15568475921575806 0.004869129207739592 -0.022094060407678882
0.14938166431410332 0.026497853186714996 -0.003297120443449534
0.1430785694124486 0.04812657716569041 0.0154998195207798
0.13677547451079383 0.0697553011446658 0.034296759485009126
0.1304723796091391 0.09138402512364122 0.05309369944923847
0.12416928470748435 0.1130127491026166 0.0718906394134678
0.11786618980582961 0.13464147308159202 0.09068757937769714
0.19168476816444063 -0.07262796143794652 -0.05824315279348048
0.18538167326278587 -0.0509992374589711 -0.039446212829251134
0.17907857836113114 -0.0293705134799957 -0.020649272865021814
0.1727754834594764 -0.007741789501020305 -0.0018523329007924946
0.16647238855782165 0.0138869344779551 0.016944607063436853
0.16016929365616692 0.03551565845693051 0.03574154702766619
0.15386619875451218 0.0571443824359059 0.054538486991895514
0.14756310385285742 0.07877310641488132 0.07333542695612486
0.1412600089512027 0.10040183039385671 0.09213236692035418
0.13495691404954796 0.12203055437283213 0.11092930688458352
0.20877549240815899 -0.08523888014670641 -0.03800142528659409
0.20247239750650423 -0.063610156167731 -0.019204485322364736
0.1961693026048495 -0.04198143218875561 -0.00040754535813541736
0.18986620770319476 -0.020352708209780208 0.018389394606093904
0.18356311280154 0.0012760157691951953 0.03718633457032325
0.17726001789988527 0.022904739748170613 0.05598327453455258
0.17095692299823054 0.044533463727146 0.07478021449878192
0.16465382809657578 0.06616218770612142 0.09357715446301125
0.15835073319492105 0.08779091168509681 0.11237409442724058
0.1520476382932663 0.10941963566407223 0.13117103439146993
-0.1520476382932663 -0.10941963566407223 -0.13117103439146993
-0.1290469035701596 -0.09412196634227168 -0.14106058310892566
-0.10604616884705292 -0.07882429702047114 -0.15095013182638142
-0.08304543412394624 -0.0635266276986706 -0.16083968054383715
-0.060044699400839556 -0.048228958376870044 -0.17072922926129291
-0.03704396467773287 -0.0329312890550695 -0.18061877797874865
-0.014043229954626191 -0.017633619733268973 -0.19050832669620438
0.008957504768480503 -0.0023359504114684217 -0.20039787541366014
0.03195823949158718 0.012961718910332123 -0.21028742413111587
0.05495897421469389 0.028259388232132674 -0.2201769728485716
-0.13495691404954796 -0.12203055437283213 -0.11092930688458352
-0.11195617932644125 -0.10673288505103158 -0.12081885560203927
-0.08895544460333457 -0.09143521572923104 -0.13070840431949501
-0.06595470988022789 -0.07613754640743049 -0.14059795303695075
-0.0429539751571212 -0.06083987708562995 -0.1504875017544065
-0.019953240434014516 -0.045542207763829404 -0.16037705047186224
0.003047494289092158 -0.030244538442028877 -0.17026659918931797
0.026048229012198852 -0.014946869120228325 -0.18015614790677373
0.04904896373530553 0.00035080020157221987 -0.19004569662422946
0.07204969845841225 0.01564846952337277 -0.1999352453416852
-0.11786618980582961 -0.13464147308159202 -0.09068757937769714
-0.09486545508272291 -0.11934380375979148 -0.10057712809515289
-0.07186472035961623 -0.10404613443799093 -0.11046667681260863
-0.04886398563650955 -0.08874846511619039 -0.12035622553006438
-0.02586325091340286 -0.07345079579438984 -0.13024577424752012
-0.002862516190296174 -0.0581531264725893 -0.14013532296497586
0.0201382185328105 -0.04285545715078877 -0.1500248716824316
0.04313895325591719 -0.027557787828988222 -0.15991442039988735
0.06613968797902388 -0.012260118507187678 -0.16980396911734308
0.08914042270213059 0.003037550814612874 -0.1796935178347988
-0.10077546556211127 -0.14725239179035193 -0.07044585187081076
-0.07777473083900457 -0.1319547224685514 -0.0803354005882665
-0.05477399611589789 -0.11665705314675083 -0.09022494930572224
-0.03177326139279121 -0.10135938382495029 -0.10011449802317798
-0.008772526669684524 -0.08606171450314974 -0.11000404674063373
0.014228208053422163 -0.0707640451813492 -0.11989359545808946
0.037228942776528835 -0.05546637585954867 -0.1297831441755452
0.06022967749963553 -0.040168706537748115 -0.13967269289300097
0.08323041222274222 -0.02487103721594757 -0.1495622416104567
0.10623114694584893 -0.00957336789414702 -0.15945179032791243
-0.08368474131839293 -0.15986331049911182 -0.050204124363924366
-0.060684006595286236 -0.14456564117731127 -0.06009367308138011
-0.03768327187217954 -0.12926797185551073 -0.06998322179883584
-0.01468253714907287 -0.11397030253371018 -0.07987277051629159
0.008318197574033822 -0.09867263321190964 -0.08976231923374733
0.03131893229714051 -0.0833749638901091 -0.09965186795120307
0.05431966702024718 -0.06807729456830856 -0.10954141666865881
0.07732040174335388 -0.05277962524650802 -0.11943096538611456
0.10032113646646056 -0.037481955924707475 -0.12932051410357032
0.12332187118956726 -0.02218428660290692 -0.13921006282102605
-0.06659401707467458 -0.17247422920787173 -0.02996239685703797
-0.04359328235156788 -0.15717655988607118 -0.039851945574493716
-0.020592547628461196 -0.14187889056427064 -0.049741494291949455
0.002408187094645479 -0.1265812212424701 -0.0596310430094052
0.02540892181775217 -0.11128355192066955 -0.06952059172686095
0.04840965654085886 -0.095985882598869 -0.07941014044431668
0.07141039126396553 -0.08068821327706847 -0.08929968916177243
0.09441112598707223 -0.06539054395526792 -0.09918923787922818
0.11741186071017891 -0.05009287463346737 -0.10907878659668392
0.1404125954332856 -0.03479520531166682 -0.11896833531413965
-0.049503292830956246 -0.1850851479166316 -0.009720669350151591
-0.02650255810784955 -0.16978747859483106 -0.01961021806760734
-0.0035018233847428602 -0.15448980927303052 -0.029499766785063077
0.019498911338363813 -0.13919213995122998 -0.03938931550251882
0.042499646061470504 -0.12389447062942943 -0.049278864219974565
0.06550038078457719 -0.10859680130762889 -0.0591684129374303
0.08850111550768387 -0.09329913198582836 -0.06905796165488605
0.11150185023079057 -0.07800146266402781 -0.0789475103723418
0.13450258495389725 -0.06270379334222727 -0.08883705908979754
0.15750331967700396 -0.04740612402042672 -0.09872660780725327
-0.03241256858723789 -0.19769606662539152 0.010521058156734805
-0.009411833864131202 -0.18239839730359098 0.0006315094392790601
0.013588900858975489 -0.16710072798179043 -0.009258039278176679
0.03658963558208216 -0.1518030586599899 -0.019147587995632424
0.05959037030518886 -0.13650538933818934 -0.02903713671308817
0.08259110502829554 -0.1212077200163888 -0.0389266854305439
0.10559183975140221 -0.10591005069458827 -0.04881623414799965
0.12859257447450892 -0.09061238137278771 -0.05870578286545539
0.1515933091976156 -0.07531471205098716 -0.06859533158291113
0.1745940439207223 -0.06001704272918662 -0.07848488030036686
-0.015321844343519554 -0.2103069853341514 0.030762785663621194
0.00767889037958714 -0.19500931601235086 0.020873236946165448
0.03067962510269383 -0.17971164669055031 0.01098368822870971
0.0536803598258005 -0.16441397736874977 0.0010941395112539635
0.07668109454890719 -0.14911630804694923 -0.008795409206201782
0.09968182927201388 -0.13381863872514868 -0.018684957923657514
0.12268256399512055 -0.11852096940334816 -0.02857450664111326
0.14568329871822724 -0.1032233000815476 -0.038464055358569005
0.16868403344133392 -0.08792563075974706 -0.04835360407602475
0.19168476816444063 -0.07262796143794652 -0.05824315279348048
0.0017688799001987952 -0.2229179040429113 0.05100451317050759
0.02476961462330549 -0.20762023472111077 0.04111496445305184
0.04777034934641218 -0.19232256539931022 0.031225415735596108
0.07077108406951886 -0.17702489607750968 0.021335867018140362
0.09377181879262554 -0.16172722675570914 0.011446318300684615
0.11677255351573224 -0.1464295574339086 0.0015567695832288833
0.13977328823883892 -0.13113188811210807 -0.008332779134226862
0.1627740229619456 -0.11583421879030752 -0.018222327851682606
0.18577475768505228 -0.10053654946850697 -0.028111876569138352
0.20877549240815899 -0.08523888014670641 -0.03800142528659409
-0.20877549240815899 0.08523888014670641 0.03800142528659409
-0.18577475768505228 0.10053654946850697 0.028111876569138352
-0.1627740229619456 0.11583421879030752 0.018222327851682606
-0.13977328823883892 0.13113188811210805 0.008332779134226862
-0.11677255351573224 0.1464295574339086 -0.0015567695832288833
-0.09377181879262554 0.16172722675570914 -0.011446318300684615
-0.07077108406951887 0.17702489607750968 -0.021335867018140362
-0.04777034934641218 0.19232256539931022 -0.031225415735596108
-0.02476961462330549 0.20762023472111077 -0.04111496445305184
-0.0017688799001987952 0.2229179040429113 -0.05100451317050759
-0.19168476816444063 0.07262796143794652 0.05824315279348048
-0.16868403344133392 0.08792563075974706 0.04835360407602475
-0.14568329871822724 0.1032233000815476 0.038464055358569005
-0.12268256399512056 0.11852096940334815 0.02857450664111326
-0.09968182927201388 0.13381863872514868 0.018684957923657514
-0.07668109454890719 0.14911630804694923 0.008795409206201782
-0.05368035982580052 0.16441397736874977 -0.0010941395112539635
-0.03067962510269383 0.17971164669055031 -0.01098368822870971
-0.00767889037958714 0.19500931601235086 -0.020873236946165448
0.015321844343519554 0.2103069853341514 -0.030762785663621194
-0.1745940439207223 0.06001704272918662 0.07848488030036686
-0.1515933091976156 0.07531471205098716 0.06859533158291113
-0.12859257447450892 0.09061238137278771 0.05870578286545539
-0.10559183975140223 0.10591005069458825 0.04881623414799965
-0.08259110502829554 0.1212077200163888 0.0389266854305439
-0.05959037030518886 0.13650538933818934 0.02903713671308817
-0.03658963558208218 0.15180305865998986 0.019147587995632424
-0.013588900858975489 0.16710072798179043 0.009258039278176679
0.009411833864131202 0.18239839730359098 -0.0006315094392790601
0.03241256858723789 0.19769606662539152 -0.010521058156734805
-0.15750331967700396 0.047406124020426724 0.09872660780725326
-0.13450258495389725 0.06270379334222727 0.08883705908979753
-0.11150185023079057 0.07800146266402781 0.07894751037234178
-0.08850111550768389 0.09329913198582836 0.06905796165488604
-0.0655003807845772 0.1085968013076289 0.05916841293743028
-0.04249964606147052 0.12389447062942945 0.04927886421997455
-0.019498911338363848 0.13919213995122998 0.039389315502518805
0.003501823384742848 0.15448980927303052 0.02949976678506306
0.026502558107849537 0.16978747859483106 0.01961021806760732
0.04950329283095623 0.1850851479166316 0.009720669350151577
-0.1404125954332856 0.03479520531166682 0.11896833531413965
-0.11741186071017891 0.05009287463346737 0.10907878659668392
-0.09441112598707223 0.06539054395526792 0.09918923787922818
-0.07141039126396555 0.08068821327706846 0.08929968916177243
-0.04840965654085886 0.095985882598869 0.07941014044431668
-0.02540892181775217 0.11128355192066955 0.06952059172686095
-0.0024081870946454998 0.12658122124247007 0.0596310430094052
0.020592547628461196 0.14187889056427064 0.049741494291949455
0.04359328235156788 0.15717655988607118 0.039851945574493716
0.06659401707467458 0.17247422920787173 0.02996239685703797
-0.12332187118956726 0.02218428660290692 0.13921006282102605
-0.10032113646646056 0.037481955924707475 0.12932051410357032
-0.07732040174335388 0.05277962524650802 0.11943096538611456
-0.054319667020247195 0.06807729456830855 0.10954141666865881
-0.03131893229714051 0.0833749638901091 0.09965186795120307
-0.008318197574033822 0.09867263321190964 0.08976231923374733
0.014682537149072849 0.11397030253371017 0.07987277051629159
0.03768327187217954 0.12926797185551073 0.06998322179883584
0.060684006595286236 0.14456564117731127 0.06009367308138011
0.08368474131839293 0.15986331049911182 0.050204124363924366
-0.10623114694584893 0.009573367894147028 0.15945179032791243
-0.08323041222274222 0.02487103721594758 0.1495622416104567
-0.060229677499635544 0.04016870653774812 0.13967269289300094
-0.03722894277652886 0.05546637585954866 0.1297831441755452
-0.014228208053422176 0.07076404518134921 0.11989359545808945
0.008772526669684512 0.08606171450314976 0.11000404674063372
0.031773261392791186 0.10135938382495029 0.10011449802317797
0.05477399611589788 0.11665705314675084 0.09022494930572222
0.07777473083900457 0.1319547224685514 0.08033540058826649
0.10077546556211127 0.14725239179035193 0.07044585187081075
-0.08914042270213059 -0.003037550814612874 0.1796935178347988
-0.06613968797902388 0.012260118507187678 0.16980396911734308
-0.04313895325591719 0.027557787828988222 0.15991442039988735
-0.020138218532810514 0.042855457150788756 0.1500248716824316
0.002862516190296174 0.0581531264725893 0.14013532296497586
0.02586325091340286 0.07345079579438984 0.13024577424752012
0.04886398563650953 0.08874846511619038 0.12035622553006438
0.07186472035961623 0.10404613443799093 0.11046667681260863
0.09486545508272291 0.11934380375979148 0.10057712809515289
0.11786618980582961 0.13464147308159202 0.09068757937769714
-0.07204969845841225 -0.01564846952337277 0.1999352453416852
-0.04904896373530553 -0.00035080020157221987 0.19004569662422946
-0.026048229012198852 0.014946869120228325 0.18015614790677373
-0.003047494289092172 0.030244538442028863 0.17026659918931797
0.019953240434014516 0.045542207763829404 0.16037705047186224
0.0429539751571212 0.06083987708562995 0.1504875017544065
0.06595470988022788 0.07613754640743048 0.14059795303695075
0.08895544460333457 0.09143521572923104 0.13070840431949501
0.11195617932644125 0.10673288505103158 0.12081885560203927
0.13495691404954796 0.12203055437283213 0.11092930688458352
-0.05495897421469389 -0.028259388232132674 0.2201769728485716
-0.03195823949158718 -0.012961718910332123 0.21028742413111587
-0.008957504768480503 0.0023359504114684217 0.20039787541366014
0.014043229954626178 0.01763361973326896 0.19050832669620438
0.03704396467773287 0.0329312890550695 0.18061877797874865
0.060044699400839556 0.048228958376870044 0.17072922926129291
0.08304543412394623 0.06352662769867058 0.16083968054383715
0.10604616884705292 0.07882429702047114 0.15095013182638142
0.1290469035701596 0.09412196634227168 0.14106058310892566
0.1520476382932663 0.10941963566407223 0.13117103439146993
-0.1520476382932663 -0.10941963566407223 -0.13117103439146993
-0.1290469035701596 -0.09412196634227168 -0.14106058310892566
-0.10604616884705292 -0.07882429702047114 -0.15095013182638142
-0.08304543412394624 -0.0635266276986706 -0.16083968054383715
-0.060044699400839556 -0.048228958376870044 -0.17072922926129291
-0.03704396467773287 -0.0329312890550695 -0.18061877797874865
-0.014043229954626191 -0.017633619733268973 -0.19050832669620438
0.008957504768480503 -0.0023359504114684217 -0.20039787541366014
0.03195823949158718 0.012961718910332123 -0.21028742413111587
0.05495897421469389 0.028259388232132674 -0.2201769728485716
-0.15835073319492105 -0.08779091168509681 -0.11237409442724058
-0.13534999847181434 -0.07249324236329627 -0.12226364314469633
-0.11234926374870766 -0.057195573041495716 -0.13215319186215208
-0.08934852902560099 -0.04189790371969517 -0.1420427405796078
-0.0663477943024943 -0.02660023439789463 -0.15193228929706354
-0.04334705957938761 -0.011302565076094086 -0.1618218380145193
-0.020346324856280937 0.003995104245706444 -0.17171138673197503
0.002654409866825757 0.019292773567506995 -0.1816009354494308
0.02565514458993245 0.03459044288930754 -0.19149048416688652
0.04865587931303913 0.049888112211108095 -0.20138003288434225
-0.16465382809657578 -0.06616218770612142 -0.09357715446301125
-0.1416530933734691 -0.05086451838432086 -0.103466703180467
-0.1186523586503624 -0.03556684906252031 -0.11335625189792274
-0.09565162392725574 -0.020269179740719786 -0.12324580061537847
-0.07265088920414904 -0.0049715104189192345 -0.13313534933283422
-0.049650154481042354 0.01032615890288131 -0.14302489805028998
-0.026649419757935684 0.025623828224681844 -0.1529144467677457
-0.003648685034828989 0.040921497546482395 -0.16280399548520144
0.019352049688277705 0.05621916686828294 -0.1726935442026572
0.042352784411384396 0.07151683619008349 -0.18258309292011293
-0.17095692299823054 -0.04453346372714601 -0.07478021449878193
-0.14795618827512383 -0.029235794405345458 -0.08466976321623768
-0.12495545355201713 -0.013938125083544913 -0.09455931193369341
-0.10195471882891047 0.0013595442382556176 -0.10444886065114915
-0.07895398410580377 0.016657213560056162 -0.1143384093686049
-0.05595324938269709 0.03195488288185671 -0.12422795808606064
-0.03295251465959042 0.04725255220365724 -0.1341175068035164
-0.009951779936483721 0.06255022152545779 -0.14400705552097212
0.01304895478662296 0.07784789084725834 -0.15389660423842785
0.03604968950972965 0.09314556016905888 -0.1637861529558836
-0.17726001789988527 -0.022904739748170613 -0.05598327453455258
-0.1542592831767786 -0.007607070426370054 -0.06587282325200833
-0.13125854845367188 0.00769059889543049 -0.07576237196946407
-0.10825781373056521 0.02298826821723102 -0.08565192068691982
-0.08525707900745852 0.03828593753903157 -0.09554146940437555
-0.06225634428435183 0.05358360686083211 -0.1054310181218313
-0.039255609561245165 0.06888127618263265 -0.11532056683928704
-0.016254874838138467 0.0841789455044332 -0.12521011555674277
0.006745859884968213 0.09947661482623374 -0.13509966427419853
0.029746594608074908 0.11477428414803428 -0.14498921299165426
-0.18356311280154 -0.0012760157691951953 -0.03718633457032325
-0.16056237807843332 0.014021653552605349 -0.047075883287778994
-0.13756164335532664 0.029319322874405897 -0.05696543200523473
-0.11456090863221996 0.044616992196206434 -0.06685498072269047
-0.09156017390911327 0.05991466151800698 -0.07674452944014622
-0.06855943918600657 0.07521233083980752 -0.08663407815760196
-0.04555870446289991 0.09051000016160805 -0.0965236268750577
-0.022557969739793213 0.1058076694834086 -0.10641317559251344
0.00044276498331348083 0.12110533880520914 -0.11630272430996919
0.023443499706420175 0.1364030081270097 -0.12619227302742494
-0.18986620770319476 0.020352708209780194 -0.018389394606093932
-0.16686547298008805 0.03565037753158075 -0.028278943323549664
-0.14386473825698137 0.05094804685338129 -0.038168492041005406
-0.12086400353387469 0.06624571617518182 -0.04805804075846115
-0.09786326881076801 0.08154338549698237 -0.05794758947591689
-0.07486253408766132 0.09684105481878291 -0.06783713819337264
-0.05186179936455465 0.11213872414058344 -0.07772668691082837
-0.028861064641447953 0.127436393462384 -0.08761623562828412
-0.005860329918341265 0.14273406278418455 -0.09750578434573987
0.01714040480476543 0.1580317321059851 -0.10739533306319561
-0.1961693026048495 0.04198143218875561 0.00040754535813541736
-0.1731685678817428 0.05727910151055616 -0.009482003359320328
-0.1501678331586361 0.0725767708323567 -0.019371552076776075
-0.12716709843552945 0.08787444015415724 -0.029261100794231807
-0.10416636371242274 0.10317210947595779 -0.03915064951168755
-0.08116562898931606 0.11846977879775833 -0.049040198229143295
-0.05816489426620939 0.13376744811955887 -0.058929746946599026
-0.035164159543102695 0.14906511744135942 -0.06881929566405477
-0.012163424819996011 0.16436278676315996 -0.07870884438151052
0.010837309903110683 0.1796604560849605 -0.08859839309896626
-0.20247239750650423 0.063610156167731 0.019204485322364736
-0.17947166278339755 0.07890782548953156 0.009314936604909006
-0.15647092806029086 0.0942054948113321 -0.0005746121125467399
-0.13347019333718418 0.10950316413313263 -0.010464160830002485
-0.11046945861407749 0.12480083345493317 -0.020353709547458233
-0.0874687238909708 0.14009850277673372 -0.03024325826491397
-0.06446798916786413 0.15539617209853426 -0.040132806982369706
-0.04146725444475744 0.1706938414203348 -0.05002235569982545
-0.01846651972165075 0.18599151074213535 -0.05991190441728119
0.004534215001455951 0.2012891800639359 -0.06980145313473694
-0.20877549240815899 0.08523888014670641 0.03800142528659409
-0.18577475768505228 0.10053654946850697 0.028111876569138352
-0.1627740229619456 0.11583421879030752 0.018222327851682606
-0.13977328823883892 0.13113188811210805 0.008332779134226862
-0.11677255351573224 0.1464295574339086 -0.0015567695832288833
-0.09377181879262554 0.16172722675570914 -0.011446318300684615
-0.07077108406951887 0.17702489607750968 -0.021335867018140362
-0.04777034934641218 0.19232256539931022 -0.031225415735596108
-0.02476961462330549 0.20762023472111077 -0.04111496445305184
-0.0017688799001987952 0.2229179040429113 -0.05100451317050759
0.0017688799001987952 -0.2229179040429113 0.05100451317050759
0.02476961462330549 -0.20762023472111077 0.04111496445305184
0.04777034934641218 -0.19232256539931022 0.031225415735596108
0.07077108406951886 -0.17702489607750968 0.021335867018140362
0.09377181879262554 -0.16172722675570914 0.011446318300684615
0.11677255351573224 -0.1464295574339086 0.0015567695832288833
0.13977328823883892 -0.13113188811210807 -0.008332779134226862
0.1627740229619456 -0.11583421879030752 -0.018222327851682606
0.18577475768505228 -0.10053654946850697 -0.028111876569138352
0.20877549240815899 -0.08523888014670641 -0.03800142528659409
-0.004534215001455951 -0.2012891800639359 0.06980145313473694
0.01846651972165075 -0.18599151074213535 0.05991190441728119
0.04146725444475744 -0.1706938414203348 0.05002235569982545
0.06446798916786411 -0.15539617209853426 0.040132806982369706
0.0874687238909708 -0.14009850277673372 0.03024325826491397
0.11046945861407749 -0.12480083345493317 0.020353709547458233
0.13347019333718416 -0.10950316413313264 0.010464160830002485
0.15647092806029086 -0.0942054948113321 0.0005746121125467399
0.17947166278339755 -0.07890782548953156 -0.009314936604909006
0.20247239750650423 -0.063610156167731 -0.019204485322364736
-0.010837309903110683 -0.1796604560849605 0.08859839309896626
0.012163424819996011 -0.16436278676315996 0.07870884438151052
0.035164159543102695 -0.14906511744135942 0.06881929566405477
0.05816489426620937 -0.13376744811955887 0.05892974694659904
0.08116562898931606 -0.11846977879775833 0.049040198229143295
0.10416636371242274 -0.10317210947595779 0.03915064951168755
0.12716709843552942 -0.08787444015415725 0.02926110079423182
0.1501678331586361 -0.0725767708323567 0.019371552076776075
0.1731685678817428 -0.05727910151055616 0.009482003359320328
0.1961693026048495 -0.04198143218875561 -0.00040754535813541736
-0.01714040480476543 -0.15803173210598512 0.1073953330631956
0.005860329918341265 -0.14273406278418455 0.09750578434573985
0.02886106464144796 -0.127436393462384 0.0876162356282841
0.05186179936455463 -0.11213872414058347 0.07772668691082836
0.07486253408766132 -0.09684105481878293 0.06783713819337263
0.09786326881076801 -0.08154338549698238 0.057947589475916876
0.12086400353387468 -0.06624571617518185 0.04805804075846114
0.14386473825698137 -0.05094804685338131 0.03816849204100539
0.16686547298008805 -0.03565037753158076 0.028278943323549664
0.18986620770319476 -0.020352708209780208 0.018389394606093904
-0.023443499706420175 -0.1364030081270097 0.12619227302742494
-0.00044276498331348083 -0.12110533880520914 0.11630272430996919
0.022557969739793213 -0.1058076694834086 0.10641317559251344
0.04555870446289989 -0.09051000016160807 0.09652362687505771
0.06855943918600657 -0.07521233083980752 0.08663407815760196
0.09156017390911327 -0.05991466151800698 0.07674452944014622
0.11456090863221993 -0.04461699219620645 0.06685498072269049
0.13756164335532664 -0.029319322874405897 0.05696543200523473
0.16056237807843332 -0.014021653552605349 0.047075883287778994
0.18356311280154 0.0012760157691951953 0.03718633457032325
-0.029746594608074908 -0.11477428414803428 0.14498921299165426
-0.006745859884968213 -0.09947661482623374 0.13509966427419853
0.016254874838138467 -0.0841789455044332 0.12521011555674277
0.039255609561245144 -0.06888127618263266 0.11532056683928704
0.06225634428435183 -0.05358360686083211 0.1054310181218313
0.08525707900745852 -0.03828593753903157 0.09554146940437555
0.10825781373056519 -0.022988268217231034 0.08565192068691982
0.13125854845367188 -0.00769059889543049 0.07576237196946407
0.1542592831767786 0.007607070426370054 0.06587282325200833
0.17726001789988527 0.022904739748170613 0.05598327453455258
-0.03604968950972965 -0.0931455601690589 0.16378615295588358
-0.01304895478662296 -0.07784789084725835 0.15389660423842785
0.009951779936483735 -0.0625502215254578 0.14400705552097212
0.032952514659590405 -0.04725255220365727 0.13411750680351636
0.05595324938269709 -0.031954882881856723 0.12422795808606063
0.07895398410580379 -0.016657213560056176 0.11433840936860488
0.10195471882891045 -0.0013595442382556453 0.10444886065114914
0.12495545355201715 0.013938125083544913 0.0945593119336934
0.14795618827512383 0.029235794405345458 0.08466976321623766
0.17095692299823054 0.044533463727146 0.07478021449878192
-0.042352784411384396 -0.07151683619008349 0.18258309292011293
-0.019352049688277705 -0.05621916686828294 0.1726935442026572
0.003648685034828989 -0.040921497546482395 0.16280399548520144
0.026649419757935656 -0.025623828224681854 0.1529144467677457
0.049650154481042354 -0.01032615890288131 0.14302489805028998
0.07265088920414904 0.0049715104189192345 0.13313534933283422
0.09565162392725571 0.020269179740719772 0.12324580061537849
0.1186523586503624 0.03556684906252031 0.11335625189792274
0.1416530933734691 0.05086451838432086 0.103466703180467
0.16465382809657578 0.06616218770612142 0.09357715446301125
-0.04865587931303913 -0.049888112211108095 0.20138003288434225
-0.02565514458993245 -0.03459044288930754 0.19149048416688652
-0.002654409866825757 -0.019292773567506995 0.1816009354494308
0.020346324856280917 -0.003995104245706458 0.17171138673197503
0.04334705957938761 0.011302565076094086 0.1618218380145193
0.0663477943024943 0.02660023439789463 0.15193228929706354
0.08934852902560096 0.04189790371969516 0.1420427405796078
0.11234926374870766 0.057195573041495716 0.13215319186215208
0.13534999847181434 0.07249324236329627 0.12226364314469633
0.15835073319492105 0.08779091168509681 0.11237409442724058
-0.05495897421469389 -0.028259388232132674 0.2201769728485716
-0.03195823949158718 -0.012961718910332123 0.21028742413111587
-0.008957504768480503 0.0023359504114684217 0.20039787541366014
0.014043229954626178 0.01763361973326896 0.19050832669620438
0.03704396467773287 0.0329312890550695 0.18061877797874865
0.060044699400839556 0.048228958376870044 0.17072922926129291
0.08304543412394623 0.06352662769867058 0.16083968054383715
0.10604616884705292 0.07882429702047114 0.15095013182638142
0.1290469035701596 0.09412196634227168 0.14106058310892566
0.1520476382932663 0.10941963566407223 0.13117103439146993
