# .PCD v0.7 - Point Cloud Data file format
VERSION 0.7
FIELDS x y z
SIZE 4 4 4
TYPE F F F
COUNT 1 1 1
WIDTH 600
HEIGHT 1
VIEWPOINT 0 0 0 1 0 0 0
POINTS 600
DATA ascii
-0.07296933309988994 0.05499350790854893 -0.14719248411971364
-0.06255836318904429 0.06792918758634686 -0.13241599261546658
-0.05214739327819861 0.0808648672641448 -0.11763950111121951
-0.041736423367352955 0.09380054694194272 -0.10286300960697246
-0.0313254534565073 0.10673622661974065 -0.0880865181027254
-0.02091448354566163 0.11967190629753859 -0.07331002659847834
-0.010503513634815984 0.1326075859753365 -0.05853353509423128
-9.254372397032218e-05 0.14554326565313447 -0.04375704358998422
0.01031842618687534 0.1584789453309324 -0.02898055208573715
0.020729396097721002 0.17141462500873034 -0.014204060581490081
-0.08364707687523194 0.04468566104412476 -0.13064561477007716
-0.07323610696438629 0.057621340721922695 -0.11586912326583008
-0.06282513705354062 0.07055702039972063 -0.10109263176158302
-0.05241416714269496 0.08349270007751855 -0.08631614025733596
-0.0420031972318493 0.09642837975531648 -0.0715396487530889
-0.031592227321003634 0.10936405943311442 -0.05676315724884183
-0.021181257410157986 0.12229973911091234 -0.04198666574459478
-0.010770287499312326 0.1352354187887103 -0.02721017424034771
-0.00035931758846666326 0.14817109846650822 -0.012433682736100649
0.010051652322378998 0.16110677814430616 0.0023428087681464224
-0.09432482065057393 0.0343778141797006 -0.11409874542044066
-0.08391385073972828 0.047313493857498536 -0.09932225391619358
-0.07350288082888261 0.06024917353529647 -0.08454576241194652
-0.06309191091803695 0.0731848532130944 -0.06976927090769945
-0.052680941007191305 0.08612053289089233 -0.054992779403452395
-0.042269971096345636 0.09905621256869027 -0.04021628789920533
-0.03185900118549999 0.11199189224648819 -0.025439796394958282
-0.021448031274654326 0.12492757192428613 -0.010663304890711213
-0.011037061363808663 0.13786325160208407 0.004113186613535849
-0.0006260914529630009 0.150798931279882 0.01888967811778292
-0.10500256442591593 0.024069967315276435 -0.09755187607080415
-0.09459159451507028 0.03700564699307437 -0.08277538456655709
-0.08418062460422461 0.0499413266708723 -0.06799889306231002
-0.07376965469337896 0.06287700634867023 -0.05322240155806296
-0.0633586847825333 0.07581268602646817 -0.0384459100538159
-0.05294771487168763 0.0887483657042661 -0.023669418549568836
-0.042536744960841984 0.10168404538206402 -0.008892927045321783
-0.03212577504999632 0.11461972505986197 0.005883564458925284
-0.021714805139150663 0.12755540473765992 0.020660055963172348
-0.011303835228305 0.14049108441545785 0.035436547467419414
-0.11568030820125794 0.013762120450852273 -0.08100500672116766
-0.10526933829041228 0.02669780012865021 -0.06622851521692058
-0.09485836837956661 0.039633479806448144 -0.051452023712673524
-0.08444739846872096 0.05256915948424607 -0.03667553220842646
-0.0740364285578753 0.065504839162044 -0.0218990407041794
-0.06362545864702963 0.07844051883984193 -0.007122549199932337
-0.053214488736183986 0.09137619851763985 0.007653942304314715
-0.042803518825338324 0.1043118781954378 0.022430433808561783
-0.03239254891449266 0.11724755787323574 0.03720692531280884
-0.021981579003647 0.13018323755103367 0.051983416817055914
-0.12635805197659994 0.00345427358642811 -0.06445813737153115
-0.11594708206575428 0.016389953264226043 -0.04968164586728408
-0.10553611215490862 0.029325632942023977 -0.03490515436303702
-0.09512514224406296 0.042261312619821904 -0.02012866285878996
-0.0847141723332173 0.05519699229761984 -0.0053521713545429
-0.07430320242237164 0.06813267197541778 0.009424320149704164
-0.06389223251152598 0.0810683516532157 0.024200811653951215
-0.05348126260068033 0.09400403133101365 0.038977303158198286
-0.043070292689834665 0.10693971100881158 0.05375379466244535
-0.032659322778989 0.11987539068660952 0.06853028616669242
-0.13703579575194194 -0.006853573277996046 -0.04791126802189467
-0.12662482584109627 0.006082106399801888 -0.033134776517647596
-0.1162138559302506 0.01901778607759982 -0.018358285013400533
-0.10580288601940495 0.03195346575539775 -0.003581793509153472
-0.0953919161085593 0.044889145433195686 0.011194697995093587
-0.08498094619771362 0.05782482511099362 0.02597118949934065
-0.07456997628686798 0.07076050478879153 0.04074768100358771
-0.06415900637602232 0.08369618446658948 0.05552417250783477
-0.05374803646517666 0.09663186414438742 0.07030066401208183
-0.043337066554331 0.10956754382218535 0.08507715551632891
-0.14771353952728394 -0.01716142014242021 -0.03136439867225816
-0.13730256961643827 -0.004225740464622278 -0.016587907168011094
-0.1268915997055926 0.008709939213175658 -0.0018114156637640294
-0.11648062979474695 0.021645618890973585 0.01296507584048303
-0.1060696598839013 0.03458129856877152 0.02774156734473009
-0.09565868997305563 0.047516978246569454 0.04251805884897716
-0.08524772006220999 0.060452657924367374 0.057294550353224206
-0.07483675015136432 0.07338833760216532 0.07207104185747128
-0.06442578024051866 0.08632401727996325 0.08684753336171834
-0.054014810329673 0.09925969695776118 0.1016240248659654
-0.15839128330262595 -0.027469267006844378 -0.01481752932262166
-0.14798031339178028 -0.014533587329046442 -4.103781837459007e-05
-0.1375693434809346 -0.0015979076512485082 0.014735453685872474
-0.12715837357008897 0.01133777202654942 0.029511945190119532
-0.1167474036592433 0.024273451704347353 0.04428843669436659
-0.10633643374839763 0.03720913138214529 0.059064928198613656
-0.09592546383755199 0.05014481105994321 0.0738414197028607
-0.08551449392670632 0.06308049073774116 0.08861791120710778
-0.07510352401586066 0.0760161704155391 0.10339440271135485
-0.064692554105015 0.08895185009333703 0.11817089421560191
-0.16906902707796795 -0.037777113871268544 0.0017293400270148424
-0.15865805716712228 -0.024841434193470607 0.01650583153126191
-0.1482470872562766 -0.011905754515672674 0.03128232303550898
-0.13783611734543097 0.001029925162125254 0.046058814539756035
-0.1274251474345853 0.013965604839923188 0.0608353060440031
-0.11701417752373963 0.026901284517721124 0.07561179754825016
-0.10660320761289399 0.03983696419551904 0.09038828905249721
-0.09619223770204832 0.05277264387331699 0.10516478055674428
-0.08578126779120267 0.06570832355111493 0.11994127206099134
-0.075370297880357 0.07864400322891286 0.1347177635652384
0.075370297880357 -0.07864400322891286 -0.1347177635652384
0.08578126779120267 -0.06570832355111493 -0.11994127206099134
0.09619223770204832 -0.05277264387331699 -0.10516478055674428
0.10660320761289398 -0.039836964195519055 -0.09038828905249723
0.11701417752373963 -0.026901284517721124 -0.07561179754825016
0.1274251474345853 -0.013965604839923188 -0.0608353060440031
0.13783611734543094 -0.001029925162125268 -0.04605881453975604
0.1482470872562766 0.011905754515672674 -0.03128232303550898
0.15865805716712228 0.024841434193470607 -0.01650583153126191
0.16906902707796795 0.037777113871268544 -0.0017293400270148424
0.064692554105015 -0.08895185009333703 -0.11817089421560191
0.07510352401586066 -0.0760161704155391 -0.10339440271135485
0.08551449392670632 -0.06308049073774116 -0.08861791120710778
0.09592546383755197 -0.05014481105994322 -0.07384141970286072
0.10633643374839763 -0.03720913138214529 -0.059064928198613656
0.1167474036592433 -0.024273451704347353 -0.04428843669436659
0.12715837357008894 -0.011337772026549434 -0.02951194519011954
0.1375693434809346 0.0015979076512485082 -0.014735453685872474
0.14798031339178028 0.014533587329046442 4.103781837459007e-05
0.15839128330262595 0.027469267006844378 0.01481752932262166
0.054014810329673 -0.09925969695776118 -0.10162402486596542
0.06442578024051866 -0.08632401727996325 -0.08684753336171834
0.07483675015136433 -0.07338833760216532 -0.07207104185747128
0.08524772006220999 -0.06045265792436738 -0.05729455035322422
0.09565868997305564 -0.04751697824656945 -0.04251805884897716
0.10606965988390131 -0.03458129856877151 -0.027741567344730097
0.11648062979474695 -0.021645618890973595 -0.012965075840483042
0.1268915997055926 -0.008709939213175654 0.0018114156637640242
0.13730256961643827 0.00422574046462228 0.016587907168011087
0.14771353952728394 0.017161420142420215 0.03136439867225816
0.043337066554331005 -0.10956754382218535 -0.08507715551632891
0.05374803646517667 -0.09663186414438742 -0.07030066401208185
0.06415900637602233 -0.08369618446658948 -0.055524172507834785
0.07456997628686798 -0.07076050478879155 -0.04074768100358772
0.08498094619771364 -0.05782482511099361 -0.02597118949934066
0.09539191610855931 -0.04488914543319568 -0.011194697995093598
0.10580288601940495 -0.03195346575539776 0.003581793509153455
0.11621385593025062 -0.019017786077599817 0.018358285013400522
0.12662482584109627 -0.006082106399801881 0.03313477651764758
0.13703579575194194 0.006853573277996053 0.04791126802189465
0.032659322778989 -0.11987539068660952 -0.06853028616669242
0.043070292689834665 -0.10693971100881158 -0.05375379466244535
0.05348126260068033 -0.09400403133101365 -0.038977303158198286
0.06389223251152598 -0.08106835165321571 -0.024200811653951222
0.07430320242237164 -0.06813267197541778 -0.009424320149704164
0.0847141723332173 -0.05519699229761984 0.0053521713545429
0.09512514224406295 -0.04226131261982192 0.020128662858789954
0.10553611215490862 -0.029325632942023977 0.03490515436303702
0.11594708206575428 -0.016389953264226043 0.04968164586728408
0.12635805197659994 -0.00345427358642811 0.06445813737153115
0.021981579003647 -0.13018323755103367 -0.051983416817055914
0.03239254891449266 -0.11724755787323574 -0.03720692531280884
0.042803518825338324 -0.1043118781954378 -0.022430433808561783
0.05321448873618398 -0.09137619851763987 -0.007653942304314722
0.06362545864702963 -0.07844051883984193 0.007122549199932337
0.0740364285578753 -0.065504839162044 0.0218990407041794
0.08444739846872094 -0.052569159484246085 0.03667553220842645
0.09485836837956661 -0.039633479806448144 0.051452023712673524
0.10526933829041228 -0.02669780012865021 0.06622851521692058
0.11568030820125794 -0.013762120450852273 0.08100500672116766
0.011303835228305007 -0.14049108441545782 -0.03543654746741943
0.02171480513915067 -0.1275554047376599 -0.020660055963172358
0.03212577504999633 -0.11461972505986197 -0.005883564458925294
0.042536744960841984 -0.10168404538206403 0.008892927045321766
0.05294771487168764 -0.0887483657042661 0.023669418549568826
0.06335868478253331 -0.07581268602646817 0.03844591005381589
0.07376965469337896 -0.06287700634867024 0.053222401558062946
0.08418062460422462 -0.049941326670872296 0.06799889306231001
0.09459159451507029 -0.03700564699307436 0.08277538456655707
0.10500256442591595 -0.02406996731527643 0.09755187607080415
0.0006260914529630043 -0.150798931279882 -0.018889678117782926
0.011037061363808666 -0.13786325160208407 -0.0041131866135358545
0.021448031274654326 -0.12492757192428613 0.010663304890711208
0.03185900118549998 -0.1119918922464882 0.025439796394958268
0.042269971096345636 -0.09905621256869027 0.040216287899205325
0.052680941007191305 -0.08612053289089233 0.054992779403452395
0.06309191091803695 -0.07318485321309441 0.06976927090769945
0.07350288082888262 -0.06024917353529646 0.08454576241194652
0.08391385073972829 -0.04731349385749853 0.09932225391619358
0.09432482065057395 -0.034377814179700594 0.11409874542044064
-0.010051652322378998 -0.16110677814430616 -0.0023428087681464224
0.00035931758846666326 -0.14817109846650822 0.012433682736100649
0.010770287499312326 -0.1352354187887103 0.02721017424034771
0.02118125741015798 -0.12229973911091235 0.041986665744594774
0.031592227321003634 -0.10936405943311442 0.05676315724884183
0.0420031972318493 -0.09642837975531648 0.0715396487530889
0.052414167142694944 -0.08349270007751856 0.08631614025733594
0.06282513705354062 -0.07055702039972063 0.10109263176158302
0.07323610696438629 -0.057621340721922695 0.11586912326583008
0.08364707687523194 -0.04468566104412476 0.13064561477007716
-0.020729396097721002 -0.17141462500873034 0.014204060581490081
-0.01031842618687534 -0.1584789453309324 0.02898055208573715
9.254372397032218e-05 -0.14554326565313447 0.04375704358998422
0.010503513634815977 -0.13260758597533653 0.05853353509423127
0.02091448354566163 -0.11967190629753859 0.07331002659847834
0.0313254534565073 -0.10673622661974065 0.0880865181027254
0.04173642336735294 -0.09380054694194273 0.10286300960697245
0.05214739327819861 -0.0808648672641448 0.11763950111121951
0.06255836318904429 -0.06792918758634686 0.13241599261546658
0.07296933309988994 -0.05499350790854893 0.14719248411971364
-0.07296933309988994 0.05499350790854893 -0.14719248411971364
-0.056487151879862495 0.04014489555994206 -0.1458064040581053
-0.040004970659835055 0.02529628321133519 -0.14442032399649693
-0.023522789439807616 0.01044767086272833 -0.14303424393488856
-0.007040608219780185 -0.004400941485878533 -0.14164816387328022
0.009441573000247255 -0.019249553834485397 -0.14026208381167185
0.025923754220274684 -0.034098166183092256 -0.13887600375006348
0.04240593544030213 -0.04894677853169912 -0.13748992368845514
0.058888116660329566 -0.06379539088030599 -0.13610384362684677
0.075370297880357 -0.07864400322891286 -0.1347177635652384
-0.08364707687523194 0.04468566104412476 -0.13064561477007716
-0.0671648956552045 0.02983704869551789 -0.1292595347084688
-0.05068271443517706 0.014988436346911027 -0.12787345464686042
-0.03420053321514962 0.00013982399830416486 -0.12648737458525208
-0.017718351995122186 -0.014708788350302699 -0.1251012945236437
-0.0012361707750947481 -0.02955740069890956 -0.12371521446203534
0.01524601044493268 -0.04440601304751642 -0.12232913440042699
0.031728191664960124 -0.059254625396123285 -0.12094305433881863
0.048210372884987564 -0.07410323774473015 -0.11955697427721028
0.064692554105015 -0.08895185009333703 -0.11817089421560191
-0.09432482065057393 0.0343778141797006 -0.11409874542044066
-0.07784263943054649 0.019529201831093728 -0.1127126653588323
-0.06136045821051906 0.004680589482486865 -0.11132658529722393
-0.04487827699049162 -0.010168022866119997 -0.10994050523561558
-0.02839609577046419 -0.02501663521472686 -0.10855442517400722
-0.011913914550436748 -0.03986524756333372 -0.10716834511239885
0.004568266669590681 -0.05471385991194058 -0.1057822650507905
0.021050447889618122 -0.06956247226054744 -0.10439618498918214
0.03753262910964556 -0.08441108460915431 -0.10301010492757377
0.054014810329673 -0.09925969695776118 -0.10162402486596542
-0.10500256442591593 0.024069967315276435 -0.09755187607080415
-0.0885203832058885 0.009221354966669567 -0.0961657960091958
-0.07203820198586106 -0.005627257381937296 -0.09477971594758743
-0.055556020765833616 -0.02047586973054416 -0.09339363588597907
-0.039073839545806184 -0.03532448207915102 -0.09200755582437072
-0.02259165832577875 -0.050173094427757886 -0.09062147576276235
-0.006109477105751319 -0.06502170677636475 -0.08923539570115399
0.010372704114276125 -0.07987031912497161 -0.08784931563954564
0.026854885334303562 -0.09471893147357847 -0.08646323557793728
0.043337066554331005 -0.10956754382218535 -0.08507715551632891
-0.11568030820125794 0.013762120450852273 -0.08100500672116766
-0.0991981269812305 -0.0010864918977545963 -0.0796189266595593
-0.08271594576120306 -0.015935104246361458 -0.07823284659795093
-0.06623376454117562 -0.03078371659496832 -0.07684676653634258
-0.049751583321148186 -0.04563232894357518 -0.07546068647473422
-0.03326940210112075 -0.060480941292182046 -0.07407460641312585
-0.01678722088109332 -0.07532955364078892 -0.0726885263515175
-0.0003050396610658762 -0.09017816598939578 -0.07130244628990914
0.016177141558961564 -0.10502677833800264 -0.06991636622830077
0.032659322778989 -0.11987539068660952 -0.06853028616669242
-0.12635805197659994 0.00345427358642811 -0.06445813737153115
-0.1098758707565725 -0.01139433876217876 -0.0630720573099228
-0.09339368953654506 -0.026242951110785624 -0.06168597724831443
-0.07691150831651762 -0.04109156345939249 -0.06029989718670607
-0.06042932709649019 -0.05594017580799935 -0.05891381712509772
-0.04394714587646275 -0.0707887881566062 -0.05752773706348935
-0.02746496465643532 -0.08563740050521307 -0.05614165700188099
-0.010982783436407878 -0.10048601285381993 -0.05475557694027264
0.005499397783619562 -0.1153346252024268 -0.053369496878664276
0.021981579003647 -0.13018323755103367 -0.051983416817055914
-0.13703579575194194 -0.006853573277996046 -0.04791126802189467
-0.12055361453191449 -0.021702185626602918 -0.04652518796028631
-0.10407143331188705 -0.03655079797520978 -0.04513910789867794
-0.08758925209185961 -0.05139941032381664 -0.04375302783706959
-0.07110707087183218 -0.06624802267242351 -0.04236694777546123
-0.054624889651804745 -0.08109663502103037 -0.04098086771385286
-0.03814270843177731 -0.09594524736963723 -0.03959478765224451
-0.02166052721174987 -0.1107938597182441 -0.03820870759063615
-0.005178345991722432 -0.12564247206685095 -0.03682262752902779
0.011303835228305007 -0.14049108441545782 -0.03543654746741943
-0.14771353952728394 -0.01716142014242021 -0.03136439867225816
-0.1312313583072565 -0.03201003249102708 -0.02997831861064981
-0.11474917708722905 -0.046858644839633944 -0.02859223854904144
-0.09826699586720161 -0.061707257188240806 -0.027206158487433085
-0.08178481464717419 -0.07655586953684768 -0.02582007842582473
-0.06530263342714675 -0.09140448188545454 -0.02443399836421636
-0.048820452207119315 -0.1062530942340614 -0.023047918302608005
-0.032338270987091876 -0.12110170658266826 -0.02166183824099965
-0.015856089767064437 -0.13595031893127513 -0.020275758179391288
0.0006260914529630043 -0.150798931279882 -0.018889678117782926
-0.15839128330262595 -0.027469267006844378 -0.01481752932262166
-0.1419091020825985 -0.04231787935545125 -0.013431449261013305
-0.12542692086257107 -0.05716649170405811 -0.012045369199404935
-0.10894473964254361 -0.07201510405266497 -0.01065928913779658
-0.09246255842251619 -0.08686371640127183 -0.009273209076188225
-0.07598037720248875 -0.10171232874987869 -0.007887129014579856
-0.05949819598246132 -0.11656094109848555 -0.006501048952971502
-0.04301601476243388 -0.13140955344709243 -0.005114968891363147
-0.02653383354240644 -0.14625816579569928 -0.0037288888297547845
-0.010051652322378998 -0.16110677814430616 -0.0023428087681464224
-0.16906902707796795 -0.037777113871268544 0.0017293400270148424
-0.1525868458579405 -0.052625726219875414 0.0031154200886231976
-0.13610466463791307 -0.06747433856848227 0.004501500150231566
-0.11962248341788562 -0.08232295091708913 0.005887580211839921
-0.10314030219785819 -0.097171563265696 0.0072736602734482765
-0.08665812097783075 -0.11202017561430286 0.008659740335056646
-0.07017593975780333 -0.12686878796290973 0.010045820396665002
-0.05369375853777588 -0.14171740031151658 0.011431900458273357
-0.03721157731774844 -0.15656601266012346 0.012817980519881719
-0.020729396097721002 -0.17141462500873034 0.014204060581490081
0.020729396097721002 0.17141462500873034 -0.014204060581490081
0.03721157731774844 0.15656601266012346 -0.012817980519881719
0.05369375853777588 0.14171740031151658 -0.011431900458273357
0.07017593975780331 0.12686878796290973 -0.010045820396665002
0.08665812097783075 0.11202017561430286 -0.008659740335056646
0.10314030219785819 0.097171563265696 -0.0072736602734482765
0.11962248341788562 0.08232295091708915 -0.005887580211839921
0.13610466463791307 0.06747433856848227 -0.004501500150231566
0.1525868458579405 0.052625726219875414 -0.0031154200886231976
0.16906902707796795 0.037777113871268544 -0.0017293400270148424
0.010051652322378998 0.16110677814430616 0.0023428087681464224
0.02653383354240644 0.14625816579569928 0.0037288888297547845
0.04301601476243388 0.13140955344709243 0.005114968891363147
0.05949819598246131 0.11656094109848555 0.006501048952971502
0.07598037720248875 0.10171232874987869 0.007887129014579856
0.09246255842251619 0.08686371640127183 0.009273209076188225
0.10894473964254361 0.07201510405266498 0.01065928913779658
0.12542692086257107 0.05716649170405811 0.012045369199404935
0.1419091020825985 0.04231787935545125 0.013431449261013305
0.15839128330262595 0.027469267006844378 0.01481752932262166
-0.0006260914529630009 0.150798931279882 0.01888967811778292
0.015856089767064437 0.13595031893127513 0.02027575817939128
0.032338270987091876 0.12110170658266826 0.021661838240999643
0.04882045220711931 0.1062530942340614 0.023047918302607998
0.06530263342714675 0.09140448188545454 0.024433998364216353
0.08178481464717419 0.07655586953684768 0.025820078425824722
0.09826699586720163 0.06170725718824082 0.027206158487433078
0.11474917708722907 0.04685864483963395 0.028592238549041433
0.1312313583072565 0.03201003249102709 0.029978318610649802
0.14771353952728394 0.017161420142420215 0.03136439867225816
-0.011303835228305 0.14049108441545785 0.035436547467419414
0.0051783459917224385 0.12564247206685097 0.03682262752902778
0.021660527211749877 0.1107938597182441 0.03820870759063614
0.03814270843177731 0.09594524736963723 0.039594787652244494
0.05462488965180475 0.08109663502103037 0.04098086771385285
0.07110707087183218 0.06624802267242351 0.04236694777546122
0.08758925209185962 0.051399410323816654 0.04375302783706957
0.10407143331188706 0.036550797975209784 0.04513910789867793
0.1205536145319145 0.02170218562660292 0.0465251879602863
0.13703579575194194 0.006853573277996053 0.04791126802189465
-0.021981579003647 0.13018323755103367 0.051983416817055914
-0.005499397783619562 0.1153346252024268 0.053369496878664276
0.010982783436407878 0.10048601285381993 0.05475557694027264
0.02746496465643531 0.08563740050521307 0.05614165700188099
0.04394714587646275 0.0707887881566062 0.05752773706348935
0.06042932709649019 0.05594017580799935 0.05891381712509772
0.07691150831651762 0.041091563459392494 0.06029989718670607
0.09339368953654506 0.026242951110785624 0.06168597724831443
0.1098758707565725 0.01139433876217876 0.0630720573099228
0.12635805197659994 -0.00345427358642811 0.06445813737153115
-0.032659322778989 0.11987539068660952 0.06853028616669242
-0.016177141558961564 0.10502677833800264 0.06991636622830077
0.0003050396610658762 0.09017816598939578 0.07130244628990914
0.016787220881093308 0.07532955364078892 0.0726885263515175
0.03326940210112075 0.060480941292182046 0.07407460641312585
0.049751583321148186 0.04563232894357518 0.07546068647473422
0.06623376454117562 0.030783716594968327 0.07684676653634258
0.08271594576120306 0.015935104246361458 0.07823284659795093
0.0991981269812305 0.0010864918977545963 0.0796189266595593
0.11568030820125794 -0.013762120450852273 0.08100500672116766
-0.043337066554331 0.10956754382218535 0.08507715551632891
-0.026854885334303556 0.09471893147357847 0.08646323557793727
-0.010372704114276118 0.07987031912497161 0.08784931563954564
0.006109477105751315 0.06502170677636475 0.08923539570115399
0.022591658325778755 0.05017309442775789 0.09062147576276235
0.03907383954580619 0.03532448207915103 0.09200755582437072
0.05555602076583362 0.02047586973054417 0.09339363588597907
0.07203820198586107 0.005627257381937303 0.09477971594758743
0.08852038320588851 -0.00922135496666956 0.0961657960091958
0.10500256442591595 -0.02406996731527643 0.09755187607080415
-0.054014810329673 0.09925969695776118 0.1016240248659654
-0.03753262910964556 0.08441108460915431 0.10301010492757377
-0.021050447889618122 0.06956247226054744 0.10439618498918213
-0.004568266669590688 0.05471385991194059 0.10578226505079048
0.011913914550436751 0.039865247563333726 0.10716834511239884
0.02839609577046419 0.025016635214726864 0.10855442517400721
0.04487827699049162 0.010168022866120008 0.10994050523561556
0.06136045821051906 -0.004680589482486863 0.11132658529722392
0.0778426394305465 -0.019529201831093725 0.11271266535883229
0.09432482065057395 -0.034377814179700594 0.11409874542044064
-0.064692554105015 0.08895185009333703 0.11817089421560191
-0.048210372884987564 0.07410323774473015 0.11955697427721028
-0.031728191664960124 0.059254625396123285 0.12094305433881863
-0.01524601044493269 0.04440601304751642 0.12232913440042699
0.0012361707750947481 0.02955740069890956 0.12371521446203534
0.017718351995122186 0.014708788350302699 0.1251012945236437
0.03420053321514962 -0.00013982399830415792 0.12648737458525208
0.05068271443517706 -0.014988436346911027 0.12787345464686042
0.0671648956552045 -0.02983704869551789 0.1292595347084688
0.08364707687523194 -0.04468566104412476 0.13064561477007716
-0.075370297880357 0.07864400322891286 0.1347177635652384
-0.058888116660329566 0.06379539088030599 0.13610384362684677
-0.04240593544030213 0.04894677853169912 0.13748992368845514
-0.025923754220274695 0.034098166183092256 0.13887600375006348
-0.009441573000247255 0.019249553834485397 0.14026208381167185
0.007040608219780185 0.004400941485878533 0.14164816387328022
0.023522789439807616 -0.010447670862728324 0.14303424393488856
0.040004970659835055 -0.02529628321133519 0.14442032399649693
0.056487151879862495 -0.04014489555994206 0.1458064040581053
0.07296933309988994 -0.05499350790854893 0.14719248411971364
-0.07296933309988994 0.05499350790854893 -0.14719248411971364
-0.056487151879862495 0.04014489555994206 -0.1458064040581053
-0.040004970659835055 0.02529628321133519 -0.14442032399649693
-0.023522789439807616 0.01044767086272833 -0.14303424393488856
-0.007040608219780185 -0.004400941485878533 -0.14164816387328022
0.009441573000247255 -0.019249553834485397 -0.14026208381167185
0.025923754220274684 -0.034098166183092256 -0.13887600375006348
0.04240593544030213 -0.04894677853169912 -0.13748992368845514
0.058888116660329566 -0.06379539088030599 -0.13610384362684677
0.075370297880357 -0.07864400322891286 -0.1347177635652384
-0.06255836318904429 0.06792918758634686 -0.13241599261546658
-0.046076181969016826 0.05308057523773999 -0.1310299125538582
-0.0295940007489894 0.03823196288913313 -0.12964383249224987
-0.013111819528961961 0.023383350540526267 -0.1282577524306415
0.0033703616910654775 0.008534738191919402 -0.12687167236903313
0.019852542911092917 -0.006313874156687461 -0.1254855923074248
0.03633472413112034 -0.021162486505294325 -0.12409951224581642
0.05281690535114779 -0.036011098853901184 -0.12271343218420806
0.06929908657117523 -0.05085971120250805 -0.12132735212259971
0.08578126779120267 -0.06570832355111493 -0.11994127206099134
-0.05214739327819861 0.0808648672641448 -0.11763950111121951
-0.03566521205817117 0.06601625491553792 -0.11625342104961116
-0.01918303083814373 0.051167642566931064 -0.1148673409880028
-0.002700849618116307 0.0363190302183242 -0.11348126092639443
0.013781331601911133 0.021470417869717335 -0.11209518086478608
0.030263512821938576 0.006621805521110473 -0.11070910080317772
0.046745694041966004 -0.008226806827496382 -0.10932302074156935
0.06322787526199344 -0.023075419176103253 -0.107936940679961
0.07971005648202088 -0.03792403152471011 -0.10655086061835264
0.09619223770204832 -0.05277264387331699 -0.10516478055674428
-0.041736423367352955 0.09380054694194272 -0.10286300960697246
-0.025254242147325516 0.07895193459333585 -0.1014769295453641
-0.008772060927298077 0.06410332224472899 -0.10009084948375574
0.007710120292729355 0.049254709896122136 -0.09870476942214738
0.024192301512756795 0.034406097547515266 -0.09731868936053902
0.040674482732784234 0.019557485198908403 -0.09593260929893066
0.05715666395281166 0.004708872850301545 -0.0945465292373223
0.0736388451728391 -0.010139739498305317 -0.09316044917571394
0.09012102639286654 -0.02498835184691218 -0.09177436911410558
0.10660320761289398 -0.039836964195519055 -0.09038828905249723
-0.0313254534565073 0.10673622661974065 -0.0880865181027254
-0.014843272236479861 0.09188761427113379 -0.08670043804111703
0.0016389089835475846 0.07703900192252693 -0.08531435797950868
0.018121090203575014 0.06219038957392006 -0.08392827791790032
0.03460327142360245 0.0473417772253132 -0.08254219785629195
0.051085452643629896 0.03249316487670634 -0.0811561177946836
0.06756763386365731 0.017644552528099478 -0.07977003773307524
0.08404981508368477 0.00279594017949261 -0.07838395767146689
0.1005319963037122 -0.012052672169114253 -0.07699787760985852
0.11701417752373963 -0.026901284517721124 -0.07561179754825016
-0.02091448354566163 0.11967190629753859 -0.07331002659847834
-0.0044323023256342 0.10482329394893172 -0.07192394653686997
0.01204987889439324 0.08997468160032486 -0.07053786647526161
0.028532060114420676 0.075126069251718 -0.06915178641365326
0.04501424133444811 0.060277456903111135 -0.0677657063520449
0.06149642255447555 0.045428844554504265 -0.06637962629043653
0.07797860377450298 0.030580232205897413 -0.06499354622882818
0.09446078499453042 0.015731619857290543 -0.06360746616721982
0.11094296621455786 0.0008830075086836812 -0.06222138610561146
0.1274251474345853 -0.013965604839923188 -0.0608353060440031
-0.010503513634815984 0.1326075859753365 -0.05853353509423128
0.005978667585211455 0.11775897362672964 -0.05714745503262292
0.022460848805238895 0.10291036127812278 -0.05576137497101456
0.03894303002526633 0.08806174892951592 -0.0543752949094062
0.055425211245293766 0.07321313658090906 -0.052989214847797846
0.0719073924653212 0.05836452423230219 -0.05160313478618948
0.08838957368534862 0.043515911883695337 -0.05021705472458112
0.10487175490537608 0.028667299535088467 -0.048830974662972766
0.12135393612540352 0.01381868718648161 -0.047444894601364404
0.13783611734543094 -0.001029925162125268 -0.04605881453975604
-9.254372397032218e-05 0.14554326565313447 -0.04375704358998422
0.016389637496057118 0.1306946533045276 -0.042370963528375855
0.03287181871608456 0.11584604095592071 -0.0409848834667675
0.04935399993611199 0.10099742860731385 -0.03959880340515914
0.06583618115613943 0.08614881625870699 -0.038212723343550775
0.08231836237616687 0.07130020391010013 -0.03682664328194242
0.09880054359619429 0.05645159156149328 -0.03544056322033406
0.11528272481622173 0.04160297921288641 -0.034054483158725696
0.13176490603624919 0.026754366864279542 -0.03266840309711734
0.1482470872562766 0.011905754515672674 -0.03128232303550898
0.01031842618687534 0.1584789453309324 -0.02898055208573715
0.02680060740690278 0.14363033298232553 -0.027594472024128788
0.04328278862693022 0.12878172063371865 -0.026208391962520432
0.05976496984695765 0.11393310828511179 -0.02482231190091207
0.07624715106698508 0.09908449593650492 -0.023436231839303708
0.09272933228701252 0.08423588358789806 -0.022050151777695353
0.10921151350703995 0.06938727123929121 -0.02066407171608699
0.1256936947270674 0.05453865889068434 -0.01927799165447863
0.14217587594709483 0.03969004654207748 -0.017891911592870274
0.15865805716712228 0.024841434193470607 -0.01650583153126191
0.020729396097721002 0.17141462500873034 -0.014204060581490081
0.03721157731774844 0.15656601266012346 -0.012817980519881719
0.05369375853777588 0.14171740031151658 -0.011431900458273357
0.07017593975780331 0.12686878796290973 -0.010045820396665002
0.08665812097783075 0.11202017561430286 -0.008659740335056646
0.10314030219785819 0.097171563265696 -0.0072736602734482765
0.11962248341788562 0.08232295091708915 -0.005887580211839921
0.13610466463791307 0.06747433856848227 -0.004501500150231566
0.1525868458579405 0.052625726219875414 -0.0031154200886231976
0.16906902707796795 0.037777113871268544 -0.0017293400270148424
-0.16906902707796795 -0.037777113871268544 0.0017293400270148424
-0.1525868458579405 -0.052625726219875414 0.0031154200886231976
-0.13610466463791307 -0.06747433856848227 0.004501500150231566
-0.11962248341788562 -0.08232295091708913 0.005887580211839921
-0.10314030219785819 -0.097171563265696 0.0072736602734482765
-0.08665812097783075 -0.11202017561430286 0.008659740335056646
-0.07017593975780333 -0.12686878796290973 0.010045820396665002
-0.05369375853777588 -0.14171740031151658 0.011431900458273357
-0.03721157731774844 -0.15656601266012346 0.012817980519881719
-0.020729396097721002 -0.17141462500873034 0.014204060581490081
-0.15865805716712228 -0.024841434193470607 0.01650583153126191
-0.14217587594709483 -0.03969004654207748 0.017891911592870274
-0.1256936947270674 -0.05453865889068434 0.01927799165447863
-0.10921151350703996 -0.0693872712392912 0.02066407171608699
-0.09272933228701252 -0.08423588358789806 0.022050151777695353
-0.07624715106698508 -0.09908449593650492 0.023436231839303708
-0.05976496984695766 -0.11393310828511179 0.02482231190091207
-0.04328278862693022 -0.12878172063371865 0.026208391962520432
-0.02680060740690278 -0.14363033298232553 0.027594472024128788
-0.01031842618687534 -0.1584789453309324 0.02898055208573715
-0.1482470872562766 -0.011905754515672674 0.03128232303550898
-0.13176490603624919 -0.026754366864279542 0.03266840309711734
-0.11528272481622173 -0.04160297921288641 0.034054483158725696
-0.0988005435961943 -0.056451591561493264 0.03544056322033406
-0.08231836237616687 -0.07130020391010013 0.03682664328194242
-0.06583618115613943 -0.08614881625870699 0.038212723343550775
-0.049353999936112 -0.10099742860731385 0.03959880340515914
-0.03287181871608456 -0.11584604095592071 0.0409848834667675
-0.016389637496057118 -0.1306946533045276 0.042370963528375855
9.254372397032218e-05 -0.14554326565313447 0.04375704358998422
-0.13783611734543097 0.001029925162125254 0.046058814539756035
-0.12135393612540352 -0.01381868718648161 0.0474448946013644
-0.10487175490537608 -0.028667299535088474 0.04883097466297276
-0.08838957368534865 -0.043515911883695337 0.050217054724581114
-0.07190739246532121 -0.0583645242323022 0.051603134786189477
-0.05542521124529377 -0.07321313658090907 0.05298921484779784
-0.03894303002526634 -0.08806174892951592 0.054375294909406194
-0.022460848805238902 -0.10291036127812278 0.055761374971014556
-0.005978667585211462 -0.11775897362672964 0.05714745503262291
0.010503513634815977 -0.13260758597533653 0.05853353509423127
-0.1274251474345853 0.013965604839923188 0.0608353060440031
-0.11094296621455786 -0.0008830075086836812 0.06222138610561146
-0.09446078499453042 -0.015731619857290543 0.06360746616721982
-0.077978603774503 -0.030580232205897402 0.06499354622882818
-0.06149642255447555 -0.045428844554504265 0.06637962629043653
-0.04501424133444811 -0.060277456903111135 0.0677657063520449
-0.028532060114420686 -0.07512606925171798 0.06915178641365326
-0.01204987889439324 -0.08997468160032486 0.07053786647526161
0.0044323023256342 -0.10482329394893172 0.07192394653686997
0.02091448354566163 -0.11967190629753859 0.07331002659847834
-0.11701417752373963 0.026901284517721124 0.07561179754825016
-0.1005319963037122 0.012052672169114253 0.07699787760985852
-0.08404981508368477 -0.00279594017949261 0.07838395767146689
-0.06756763386365733 -0.017644552528099468 0.07977003773307524
-0.051085452643629896 -0.03249316487670634 0.0811561177946836
-0.03460327142360245 -0.0473417772253132 0.08254219785629195
-0.018121090203575024 -0.062190389573920056 0.08392827791790032
-0.0016389089835475846 -0.07703900192252693 0.08531435797950868
0.014843272236479861 -0.09188761427113379 0.08670043804111703
0.0313254534565073 -0.10673622661974065 0.0880865181027254
-0.10660320761289399 0.03983696419551904 0.09038828905249721
-0.09012102639286655 0.02498835184691218 0.09177436911410558
-0.07363884517283911 0.010139739498305317 0.09316044917571394
-0.05715666395281168 -0.004708872850301545 0.09454652923732229
-0.04067448273278424 -0.01955748519890841 0.09593260929893065
-0.0241923015127568 -0.03440609754751527 0.09731868936053902
-0.0077101202927293755 -0.04925470989612213 0.09870476942214737
0.00877206092729807 -0.064103322244729 0.10009084948375573
0.025254242147325516 -0.07895193459333585 0.1014769295453641
0.04173642336735294 -0.09380054694194273 0.10286300960697245
-0.09619223770204832 0.05277264387331699 0.10516478055674428
-0.07971005648202088 0.03792403152471011 0.10655086061835264
-0.06322787526199344 0.023075419176103253 0.107936940679961
-0.04674569404196602 0.008226806827496389 0.10932302074156935
-0.03026351282193858 -0.006621805521110473 0.11070910080317772
-0.01378133160191114 -0.021470417869717335 0.11209518086478608
0.002700849618116293 -0.036319030218324194 0.11348126092639443
0.01918303083814373 -0.051167642566931064 0.1148673409880028
0.03566521205817117 -0.06601625491553792 0.11625342104961116
0.05214739327819861 -0.0808648672641448 0.11763950111121951
-0.08578126779120267 0.06570832355111493 0.11994127206099134
-0.06929908657117523 0.05085971120250805 0.12132735212259971
-0.05281690535114779 0.036011098853901184 0.12271343218420806
-0.036334724131120356 0.021162486505294325 0.12409951224581642
-0.019852542911092917 0.006313874156687461 0.1254855923074248
-0.0033703616910654775 -0.008534738191919402 0.12687167236903313
0.013111819528961947 -0.023383350540526256 0.1282577524306415
0.0295940007489894 -0.03823196288913313 0.12964383249224987
0.046076181969016826 -0.05308057523773999 0.1310299125538582
0.06255836318904429 -0.06792918758634686 0.13241599261546658
-0.075370297880357 0.07864400322891286 0.1347177635652384
-0.058888116660329566 0.06379539088030599 0.13610384362684677
-0.04240593544030213 0.04894677853169912 0.13748992368845514
-0.025923754220274695 0.034098166183092256 0.13887600375006348
-0.009441573000247255 0.019249553834485397 0.14026208381167185
0.007040608219780185 0.004400941485878533 0.14164816387328022
0.023522789439807616 -0.010447670862728324 0.14303424393488856
0.040004970659835055 -0.02529628321133519 0.14442032399649693
0.056487151879862495 -0.04014489555994206 0.1458064040581053
0.07296933309988994 -0.05499350790854893 0.14719248411971364
