# .PCD v0.7 - Point Cloud Data file format
VERSION 0.7
FIELDS x y z
SIZE 4 4 4
TYPE F F F
COUNT 1 1 1
WIDTH 600
HEIGHT 1
VIEWPOINT 0 0 0 1 0 0 0
POINTS 600
DATA ascii
-0.022818358566051432 -0.2578391488932687 0.01577977044214769
-0.042314220507750584 -0.23790443586206955 -0.00237308274688586
-0.06181008244944972 -0.21796972283087046 -0.02052593593591941
-0.08130594439114888 -0.19803500979967137 -0.03867878912495293
-0.10080180633284803 -0.17810029676847228 -0.05683164231398648
-0.12029766827454717 -0.15816558373727319 -0.07498449550302001
-0.1397935302162463 -0.13823087070607412 -0.09313734869205355
-0.15928939215794546 -0.11829615767487502 -0.1112902018810871
-0.1787852540996446 -0.09836144464367592 -0.12944305507012063
-0.19828111604134374 -0.07842673161247682 -0.1475959082591542
-0.02511517343835143 -0.23674706026626016 0.041408971252579876
-0.04461103538005058 -0.21681234723506104 0.02325611806354633
-0.06410689732174972 -0.19687763420386195 0.005103264874512781
-0.08360275926344887 -0.17694292117266286 -0.01304958831452074
-0.10309862120514802 -0.15700820814146377 -0.03120244150355429
-0.12259448314684716 -0.13707349511026468 -0.04935529469258783
-0.1420903450885463 -0.1171387820790656 -0.06750814788162136
-0.16158620703024545 -0.09720406904786649 -0.0856610010706549
-0.1810820689719446 -0.0772693560166674 -0.10381385425968845
-0.20057793091364373 -0.0573346429854683 -0.121966707448722
-0.027411988310651423 -0.21565497163925165 0.06703817206301206
-0.04690785025235057 -0.19572025860805253 0.04888531887397851
-0.06640371219404971 -0.17578554557685344 0.030732465684944962
-0.08589957413574886 -0.15585083254565435 0.012579612495911439
-0.10539543607744802 -0.13591611951445526 -0.00557324069312211
-0.12489129801914715 -0.11598140648325618 -0.023726093882155644
-0.1443871599608463 -0.09604669345205709 -0.04187894707118918
-0.16388302190254547 -0.076111980420858 -0.06003180026022272
-0.1833788838442446 -0.056177267389658905 -0.07818465344925626
-0.20287474578594375 -0.0362425543584598 -0.09633750663828981
-0.029708803182951417 -0.19456288301224317 0.09266737287344423
-0.04920466512465057 -0.17462816998104405 0.07451451968441068
-0.06870052706634971 -0.15469345694984496 0.05636166649537713
-0.08819638900804887 -0.13475874391864587 0.03820881330634361
-0.10769225094974802 -0.11482403088744678 0.020055960117310066
-0.12718811289144716 -0.09488931785624768 0.0019031069282765287
-0.1466839748331463 -0.07495460482504859 -0.016249746260757002
-0.16617983677484546 -0.055019891793849494 -0.03440259944979055
-0.1856756987165446 -0.0350851787626504 -0.05255545263882409
-0.20517156065824374 -0.015150465731451299 -0.07070830582785764
-0.032005618055251414 -0.17347079438523466 0.11829657368387642
-0.05150147999695057 -0.15353608135403554 0.10014372049484287
-0.0709973419386497 -0.13360136832283645 0.08199086730580932
-0.09049320388034886 -0.11366665529163736 0.0638380141167758
-0.10998906582204801 -0.09373194226043827 0.04568516092774225
-0.12948492776374715 -0.07379722922923918 0.02753230773870871
-0.1489807897054463 -0.05386251619804009 0.00937945454967518
-0.16847665164714545 -0.03392780316684099 -0.008773398639358367
-0.1879725135888446 -0.0139930901356419 -0.02692625182839191
-0.20746837553054373 0.005941622895557206 -0.04507910501742546
-0.034302432927551404 -0.15237870575822615 0.1439257744943086
-0.05379829486925056 -0.13244399272702703 0.12577292130527506
-0.0732941568109497 -0.11250927969582794 0.1076200681162415
-0.09279001875264885 -0.09257456666462885 0.08946721492720798
-0.112285880694348 -0.07263985363342976 0.07131436173817443
-0.13178174263604714 -0.052705140602230666 0.053161508549140896
-0.15127760457774628 -0.03277042757103158 0.03500865536010737
-0.17077346651944544 -0.012835714539832482 0.016855802171073818
-0.19026932846114458 0.0070989984913666085 -0.0012970510179597242
-0.20976519040284372 0.027033711522565715 -0.019449904206993274
-0.0365992477998514 -0.13128661713121767 0.16955497530474076
-0.056095109741550554 -0.11135190410001854 0.15140212211570722
-0.07559097168324969 -0.09141719106881945 0.13324926892667366
-0.09508683362494884 -0.07148247803762035 0.11509641573764015
-0.11458269556664799 -0.05154776500642127 0.0969435625486066
-0.13407855750834713 -0.03161305197522218 0.07879070935957307
-0.15357441945004627 -0.011678338944023089 0.06063785617053953
-0.17307028139174543 0.00825637408717601 0.04248500298150598
-0.19256614333344457 0.0281910871183751 0.024332149792472443
-0.2120620052751437 0.048125800149574204 0.0061792966034388925
-0.0388960626721514 -0.11019452850420915 0.19518417611517297
-0.05839192461385055 -0.09025981547301003 0.1770313229261394
-0.07788778655554969 -0.07032510244181094 0.15887846973710587
-0.09738364849724884 -0.050390389410611844 0.14072561654807234
-0.116879510438948 -0.030455676379412752 0.12257276335903879
-0.13637537238064712 -0.010520963348213662 0.10441991017000525
-0.15587123432234626 0.009413749682985422 0.08626705698097172
-0.17536709626404542 0.029348462714184523 0.06811420379193818
-0.19486295820574456 0.049283175745383614 0.04996135060290463
-0.2143588201474437 0.06921788877658272 0.03180849741387108
-0.04119287754445139 -0.08910243987720065 0.22081337692560513
-0.06068873948615054 -0.06916772684600153 0.2026605237365716
-0.08018460142784968 -0.04923301381480243 0.18450767054753803
-0.09968046336954883 -0.02929830078360334 0.16635481735850452
-0.11917632531124799 -0.00936358775240425 0.14820196416947096
-0.13867218725294714 0.010571125278794842 0.13004911098043742
-0.15816804919464628 0.030505838309993927 0.1118962577914039
-0.17766391113634544 0.050440551341193025 0.09374340460237035
-0.19715977307804458 0.07037526437239211 0.07559055141333682
-0.21665563501974372 0.09030997740359122 0.057437698224303266
-0.04348969241675139 -0.06801035125019213 0.24644257773603734
-0.06298555435845053 -0.048075638218993015 0.22828972454700378
-0.08248141630014967 -0.02814092518779392 0.21013687135797024
-0.10197727824184882 -0.008206212156594828 0.1919840181689367
-0.12147314018354798 0.011728500874604263 0.17383116497990317
-0.14096900212524713 0.03166321390580335 0.15567831179086963
-0.16046486406694627 0.051597926937002436 0.1375254586018361
-0.17996072600864543 0.07153263996820154 0.11937260541280255
-0.19945658795034457 0.09146735299940063 0.101219752223769
-0.2189524498920437 0.11140206603059974 0.08306689903473545
0.2189524498920437 -0.11140206603059974 -0.08306689903473545
0.19945658795034457 -0.09146735299940063 -0.101219752223769
0.17996072600864543 -0.07153263996820154 -0.11937260541280255
0.16046486406694627 -0.05159792693700245 -0.13752545860183607
0.14096900212524713 -0.03166321390580335 -0.15567831179086963
0.12147314018354798 -0.011728500874604263 -0.17383116497990317
0.10197727824184884 0.008206212156594828 -0.1919840181689367
0.08248141630014967 0.02814092518779392 -0.21013687135797024
0.06298555435845053 0.048075638218993015 -0.22828972454700378
0.04348969241675139 0.06801035125019213 -0.24644257773603734
0.21665563501974372 -0.09030997740359122 -0.057437698224303266
0.19715977307804458 -0.07037526437239211 -0.07559055141333682
0.17766391113634544 -0.050440551341193025 -0.09374340460237035
0.15816804919464628 -0.03050583830999394 -0.11189625779140389
0.13867218725294714 -0.010571125278794842 -0.13004911098043742
0.11917632531124799 0.00936358775240425 -0.14820196416947096
0.09968046336954885 0.02929830078360334 -0.1663548173585045
0.08018460142784968 0.04923301381480243 -0.18450767054753803
0.06068873948615054 0.06916772684600153 -0.2026605237365716
0.04119287754445139 0.08910243987720065 -0.22081337692560513
0.2143588201474437 -0.06921788877658272 -0.03180849741387108
0.19486295820574456 -0.049283175745383614 -0.04996135060290463
0.17536709626404542 -0.029348462714184523 -0.06811420379193818
0.15587123432234626 -0.009413749682985436 -0.0862670569809717
0.13637537238064712 0.010520963348213662 -0.10441991017000525
0.116879510438948 0.030455676379412752 -0.12257276335903879
0.09738364849724886 0.050390389410611844 -0.14072561654807234
0.07788778655554969 0.07032510244181094 -0.15887846973710587
0.05839192461385055 0.09025981547301003 -0.1770313229261394
0.0388960626721514 0.11019452850420915 -0.19518417611517297
0.2120620052751437 -0.04812580014957422 -0.006179296603438909
0.19256614333344457 -0.028191087118375115 -0.024332149792472457
0.17307028139174543 -0.008256374087176022 -0.042485002981506
0.15357441945004627 0.011678338944023063 -0.06063785617053953
0.13407855750834713 0.03161305197522216 -0.07879070935957308
0.11458269556664799 0.051547765006421255 -0.09694356254860662
0.09508683362494885 0.07148247803762034 -0.11509641573764015
0.07559097168324969 0.09141719106881943 -0.1332492689266737
0.056095109741550554 0.11135190410001852 -0.15140212211570722
0.0365992477998514 0.13128661713121764 -0.16955497530474078
0.20976519040284372 -0.027033711522565715 0.019449904206993274
0.19026932846114458 -0.0070989984913666085 0.0012970510179597242
0.17077346651944544 0.012835714539832482 -0.016855802171073818
0.15127760457774628 0.03277042757103157 -0.03500865536010735
0.13178174263604714 0.052705140602230666 -0.053161508549140896
0.112285880694348 0.07263985363342976 -0.07131436173817443
0.09279001875264886 0.09257456666462885 -0.08946721492720797
0.0732941568109497 0.11250927969582794 -0.1076200681162415
0.05379829486925056 0.13244399272702703 -0.12577292130527506
0.034302432927551404 0.15237870575822615 -0.1439257744943086
0.20746837553054373 -0.005941622895557206 0.04507910501742546
0.1879725135888446 0.0139930901356419 0.02692625182839191
0.16847665164714545 0.03392780316684099 0.008773398639358367
0.1489807897054463 0.05386251619804008 -0.009379454549675165
0.12948492776374715 0.07379722922923918 -0.02753230773870871
0.10998906582204801 0.09373194226043827 -0.04568516092774225
0.09049320388034887 0.11366665529163736 -0.06383801411677578
0.0709973419386497 0.13360136832283645 -0.08199086730580932
0.05150147999695057 0.15353608135403554 -0.10014372049484287
0.032005618055251414 0.17347079438523466 -0.11829657368387642
0.20517156065824374 0.015150465731451287 0.07070830582785763
0.1856756987165446 0.03508517876265039 0.05255545263882407
0.16617983677484546 0.05501989179384948 0.03440259944979053
0.1466839748331463 0.07495460482504857 0.016249746260757002
0.12718811289144716 0.09488931785624767 -0.0019031069282765447
0.10769225094974802 0.11482403088744676 -0.02005596011731008
0.08819638900804888 0.13475874391864584 -0.03820881330634362
0.06870052706634971 0.15469345694984493 -0.056361666495377154
0.04920466512465057 0.17462816998104402 -0.0745145196844107
0.029708803182951417 0.19456288301224314 -0.09266737287344425
0.20287474578594375 0.0362425543584598 0.09633750663828981
0.1833788838442446 0.056177267389658905 0.07818465344925626
0.16388302190254547 0.076111980420858 0.06003180026022272
0.1443871599608463 0.09604669345205707 0.04187894707118919
0.12489129801914715 0.11598140648325618 0.023726093882155644
0.10539543607744802 0.13591611951445526 0.00557324069312211
0.08589957413574888 0.15585083254565435 -0.012579612495911425
0.06640371219404971 0.17578554557685344 -0.030732465684944962
0.04690785025235057 0.19572025860805253 -0.04888531887397851
0.027411988310651423 0.21565497163925165 -0.06703817206301206
0.20057793091364373 0.0573346429854683 0.121966707448722
0.1810820689719446 0.0772693560166674 0.10381385425968845
0.16158620703024545 0.09720406904786649 0.0856610010706549
0.1420903450885463 0.11713878207906558 0.06750814788162138
0.12259448314684716 0.13707349511026468 0.04935529469258783
0.10309862120514802 0.15700820814146377 0.03120244150355429
0.08360275926344889 0.17694292117266286 0.013049588314520754
0.06410689732174972 0.19687763420386195 -0.005103264874512781
0.04461103538005058 0.21681234723506104 -0.02325611806354633
0.02511517343835143 0.23674706026626016 -0.041408971252579876
0.19828111604134374 0.07842673161247682 0.1475959082591542
0.1787852540996446 0.09836144464367592 0.12944305507012063
0.15928939215794546 0.11829615767487502 0.1112902018810871
0.1397935302162463 0.1382308707060741 0.09313734869205356
0.12029766827454717 0.15816558373727319 0.07498449550302001
0.10080180633284803 0.17810029676847228 0.05683164231398648
0.0813059443911489 0.19803500979967137 0.03867878912495294
0.06181008244944972 0.21796972283087046 0.02052593593591941
0.042314220507750584 0.23790443586206955 0.00237308274688586
0.022818358566051432 0.2578391488932687 -0.01577977044214769
-0.022818358566051432 -0.2578391488932687 0.01577977044214769
0.00404506459595915 -0.24156836190852765 0.004796807166938447
0.03090848775796972 -0.22529757492378666 -0.006186156108270796
0.05777191091998028 -0.2090267879390457 -0.017169119383480026
0.08463533408199085 -0.1927560009543047 -0.028152082658689268
0.11149875724400142 -0.1764852139695637 -0.039135045933898494
0.138362180406012 -0.16021442698482272 -0.050118009209107736
0.16522560356802257 -0.14394364000008172 -0.06110097248431697
0.19208902673003314 -0.12767285301534073 -0.07208393575952621
0.2189524498920437 -0.11140206603059974 -0.08306689903473545
-0.02511517343835143 -0.23674706026626016 0.041408971252579876
0.0017482497236591546 -0.22047627328151914 0.030426007977370637
0.028611672885669723 -0.20420548629677815 0.019443044702161395
0.055475096047680285 -0.18793469931203718 0.008460081426952166
0.08233851920969086 -0.1716639123272962 -0.0025228818482570772
0.10920194237170143 -0.1553931253425552 -0.013505845123466306
0.136065365533712 -0.1391223383578142 -0.024488808398675548
0.16292878869572258 -0.12285155137307321 -0.03547177167388479
0.18979221185773315 -0.10658076438833222 -0.04645473494909402
0.21665563501974372 -0.09030997740359122 -0.057437698224303266
-0.027411988310651423 -0.21565497163925165 0.06703817206301206
-0.00054856514864084 -0.19938418465451063 0.05605520878780282
0.02631485801336973 -0.18311339766976964 0.045072245512593576
0.053178281175380294 -0.16684261068502867 0.03408928223738435
0.08004170433739087 -0.15057182370028768 0.023106318962175104
0.10690512749940144 -0.1343010367155467 0.012123355686965874
0.133768550661412 -0.11803024973080571 0.001140392411756631
0.16063197382342256 -0.1017594627460647 -0.009842570863452605
0.18749539698543313 -0.08548867576132371 -0.02082553413866184
0.2143588201474437 -0.06921788877658272 -0.03180849741387108
-0.029708803182951417 -0.19456288301224317 0.09266737287344423
-0.002845380020940834 -0.17829209602750215 0.08168440959823499
0.024018043141069735 -0.16202130904276116 0.07070144632302575
0.0508814663030803 -0.14575052205802017 0.05971848304781652
0.07774488946509087 -0.12947973507327917 0.048735519772607275
0.10460831262710144 -0.1132089480885382 0.037752556497398046
0.131471735789112 -0.09693816110379722 0.026769593222188807
0.15833515895112257 -0.08066737411905621 0.01578662994697957
0.18519858211313314 -0.06439658713431522 0.004803666671770334
0.2120620052751437 -0.04812580014957422 -0.006179296603438909
-0.032005618055251414 -0.17347079438523466 0.11829657368387642
-0.005142194893240829 -0.15720000740049364 0.10731361040866717
0.02172122826876974 -0.14092922041575265 0.09633064713345793
0.0485846514307803 -0.12465843343101167 0.0853476838582487
0.07544807459279088 -0.10838764644627068 0.07436472058303946
0.10231149775480144 -0.09211685946152968 0.06338175730783023
0.129174920916812 -0.0758460724767887 0.05239879403262099
0.15603834407882258 -0.05957528549204771 0.04141583075741175
0.18290176724083315 -0.043304498507306714 0.030432867482202516
0.20976519040284372 -0.027033711522565715 0.019449904206993274
-0.034302432927551404 -0.15237870575822615 0.1439257744943086
-0.007439009765540824 -0.13610791877348513 0.13294281121909937
0.019424413396469744 -0.11983713178874414 0.12195984794389012
0.04628783655848031 -0.10356634480400316 0.11097688466868089
0.07315125972049089 -0.08729555781926217 0.09999392139347164
0.10001468288250145 -0.07102477083452118 0.08901095811826241
0.12687810604451202 -0.0547539838497802 0.07802799484305317
0.1537415292065226 -0.0384831968650392 0.06704503156784394
0.18060495236853316 -0.022212409880298205 0.0560620682926347
0.20746837553054373 -0.005941622895557206 0.04507910501742546
-0.0365992477998514 -0.13128661713121767 0.16955497530474076
-0.009735824637840817 -0.11501583014647664 0.15857201202953153
0.01712759852416975 -0.09874504316173564 0.14758904875432227
0.04399102168618031 -0.08247425617699466 0.13660608547911304
0.0708544448481909 -0.06620346919225367 0.12562312220390381
0.09771786801020146 -0.04993268220751269 0.11464015892869459
0.12458129117221203 -0.03366189522277171 0.10365719565348534
0.1514447143342226 -0.017391108238030705 0.0926742323782761
0.17830813749623317 -0.001120321253289713 0.08169126910306687
0.20517156065824374 0.015150465731451287 0.07070830582785763
-0.0388960626721514 -0.11019452850420915 0.19518417611517297
-0.012032639510140813 -0.09392374151946813 0.1842012128399637
0.014830783651869756 -0.07765295453472713 0.17321824956475448
0.041694206813880315 -0.061382167549986155 0.16223528628954526
0.06855762997589089 -0.04511138056524516 0.151252323014336
0.09542105313790146 -0.02884059358050417 0.14026935973912677
0.12228447629991203 -0.012569806595763193 0.12928639646391754
0.1491478994619226 0.003700980388977807 0.1183034331887083
0.17601132262393318 0.0199717673737188 0.10732046991349906
0.20287474578594375 0.0362425543584598 0.09633750663828981
-0.04119287754445139 -0.08910243987720065 0.22081337692560513
-0.014329454382440808 -0.07283165289245963 0.2098304136503959
0.01253396877956976 -0.05656086590771863 0.19884745037518664
0.039397391941580324 -0.04029007892297765 0.1878644870999774
0.0662608151035909 -0.02401929193823666 0.17688152382476818
0.09312423826560147 -0.007748504953495668 0.16589856054955895
0.11998766142761204 0.008522282031245311 0.1549155972743497
0.1468510845896226 0.02479306901598631 0.14393263399914047
0.17371450775163316 0.0410638560007273 0.13294967072393124
0.20057793091364373 0.0573346429854683 0.121966707448722
-0.04348969241675139 -0.06801035125019213 0.24644257773603734
-0.016626269254740804 -0.051739564265451114 0.23545961446082808
0.010237153907269765 -0.03546877728071012 0.22447665118561885
0.03710057706928033 -0.01919799029596914 0.21349368791040962
0.06396400023129091 -0.002927203311228148 0.20251072463520037
0.09082742339330148 0.013343583673512845 0.19152776135999114
0.11769084655531205 0.029614370658253824 0.1805447980847819
0.1445542697173226 0.04588515764299482 0.16956183480957265
0.17141769287933317 0.06215594462773581 0.15857887153436342
0.19828111604134374 0.07842673161247682 0.1475959082591542
-0.19828111604134374 -0.07842673161247682 -0.1475959082591542
-0.17141769287933317 -0.06215594462773581 -0.15857887153436342
-0.1445542697173226 -0.04588515764299482 -0.16956183480957265
-0.11769084655531205 -0.029614370658253838 -0.1805447980847819
-0.09082742339330148 -0.013343583673512845 -0.19152776135999114
-0.06396400023129091 0.002927203311228148 -0.20251072463520037
-0.03710057706928035 0.019197990295969126 -0.21349368791040962
-0.010237153907269765 0.03546877728071012 -0.22447665118561885
0.016626269254740804 0.051739564265451114 -0.23545961446082808
0.04348969241675139 0.06801035125019213 -0.24644257773603734
-0.20057793091364373 -0.0573346429854683 -0.121966707448722
-0.17371450775163316 -0.0410638560007273 -0.13294967072393124
-0.1468510845896226 -0.02479306901598631 -0.14393263399914047
-0.11998766142761204 -0.008522282031245325 -0.1549155972743497
-0.09312423826560147 0.007748504953495668 -0.16589856054955895
-0.0662608151035909 0.02401929193823666 -0.17688152382476818
-0.039397391941580345 0.04029007892297764 -0.1878644870999774
-0.01253396877956976 0.05656086590771863 -0.19884745037518664
0.014329454382440808 0.07283165289245963 -0.2098304136503959
0.04119287754445139 0.08910243987720065 -0.22081337692560513
-0.20287474578594375 -0.0362425543584598 -0.09633750663828981
-0.17601132262393318 -0.0199717673737188 -0.10732046991349906
-0.1491478994619226 -0.003700980388977807 -0.1183034331887083
-0.12228447629991203 0.01256980659576318 -0.12928639646391754
-0.09542105313790146 0.02884059358050417 -0.14026935973912677
-0.06855762997589089 0.04511138056524516 -0.151252323014336
-0.041694206813880336 0.06138216754998614 -0.16223528628954526
-0.014830783651869756 0.07765295453472713 -0.17321824956475448
0.012032639510140813 0.09392374151946813 -0.1842012128399637
0.0388960626721514 0.11019452850420915 -0.19518417611517297
-0.20517156065824374 -0.015150465731451299 -0.07070830582785764
-0.17830813749623317 0.0011203212532896998 -0.08169126910306689
-0.1514447143342226 0.01739110823803069 -0.09267423237827611
-0.12458129117221203 0.03366189522277168 -0.10365719565348536
-0.09771786801020146 0.04993268220751267 -0.1146401589286946
-0.0708544448481909 0.06620346919225366 -0.12562312220390381
-0.04399102168618033 0.08247425617699464 -0.13660608547911307
-0.01712759852416975 0.09874504316173563 -0.1475890487543223
0.009735824637840819 0.11501583014647662 -0.15857201202953153
0.0365992477998514 0.13128661713121764 -0.16955497530474078
-0.20746837553054373 0.005941622895557206 -0.04507910501742546
-0.18060495236853316 0.022212409880298205 -0.0560620682926347
-0.1537415292065226 0.0384831968650392 -0.06704503156784394
-0.12687810604451202 0.05475398384978018 -0.07802799484305317
-0.10001468288250145 0.07102477083452118 -0.08901095811826241
-0.07315125972049089 0.08729555781926217 -0.09999392139347164
-0.04628783655848033 0.10356634480400315 -0.11097688466868089
-0.019424413396469744 0.11983713178874414 -0.12195984794389012
0.007439009765540824 0.13610791877348513 -0.13294281121909937
0.034302432927551404 0.15237870575822615 -0.1439257744943086
-0.20976519040284372 0.027033711522565715 -0.019449904206993274
-0.18290176724083315 0.043304498507306714 -0.030432867482202516
-0.15603834407882258 0.05957528549204771 -0.04141583075741175
-0.129174920916812 0.07584607247678869 -0.05239879403262099
-0.10231149775480144 0.09211685946152968 -0.06338175730783023
-0.07544807459279088 0.10838764644627068 -0.07436472058303946
-0.04858465143078032 0.12465843343101166 -0.0853476838582487
-0.02172122826876974 0.14092922041575265 -0.09633064713345793
0.005142194893240829 0.15720000740049364 -0.10731361040866717
0.032005618055251414 0.17347079438523466 -0.11829657368387642
-0.2120620052751437 0.048125800149574204 0.0061792966034388925
-0.18519858211313314 0.0643965871343152 -0.00480366667177035
-0.15833515895112257 0.0806673741190562 -0.015786629946979585
-0.131471735789112 0.09693816110379719 -0.02676959322218882
-0.10460831262710144 0.11320894808853818 -0.03775255649739807
-0.07774488946509087 0.12947973507327917 -0.048735519772607296
-0.05088146630308032 0.14575052205802014 -0.05971848304781654
-0.024018043141069735 0.16202130904276113 -0.07070144632302576
0.0028453800209408357 0.17829209602750212 -0.081684409598235
0.029708803182951417 0.19456288301224314 -0.09266737287344425
-0.2143588201474437 0.06921788877658272 0.03180849741387108
-0.18749539698543313 0.08548867576132371 0.02082553413866184
-0.16063197382342256 0.1017594627460647 0.009842570863452605
-0.133768550661412 0.1180302497308057 -0.001140392411756631
-0.10690512749940144 0.1343010367155467 -0.012123355686965874
-0.08004170433739087 0.15057182370028768 -0.023106318962175104
-0.053178281175380315 0.16684261068502865 -0.03408928223738435
-0.02631485801336973 0.18311339766976964 -0.045072245512593576
0.00054856514864084 0.19938418465451063 -0.05605520878780282
0.027411988310651423 0.21565497163925165 -0.06703817206301206
-0.21665563501974372 0.09030997740359122 0.057437698224303266
-0.18979221185773315 0.10658076438833222 0.04645473494909402
-0.16292878869572258 0.12285155137307321 0.03547177167388479
-0.136065365533712 0.1391223383578142 0.024488808398675548
-0.10920194237170143 0.1553931253425552 0.013505845123466306
-0.08233851920969086 0.1716639123272962 0.0025228818482570772
-0.055475096047680306 0.18793469931203716 -0.008460081426952166
-0.028611672885669723 0.20420548629677815 -0.019443044702161395
-0.0017482497236591546 0.22047627328151914 -0.030426007977370637
0.02511517343835143 0.23674706026626016 -0.041408971252579876
-0.2189524498920437 0.11140206603059974 0.08306689903473545
-0.19208902673003314 0.12767285301534073 0.07208393575952621
-0.16522560356802257 0.14394364000008172 0.06110097248431697
-0.138362180406012 0.16021442698482272 0.050118009209107736
-0.11149875724400142 0.1764852139695637 0.039135045933898494
-0.08463533408199085 0.1927560009543047 0.028152082658689268
-0.0577719109199803 0.20902678793904567 0.017169119383480026
-0.03090848775796972 0.22529757492378666 0.006186156108270796
-0.00404506459595915 0.24156836190852765 -0.004796807166938447
0.022818358566051432 0.2578391488932687 -0.01577977044214769
-0.022818358566051432 -0.2578391488932687 0.01577977044214769
0.00404506459595915 -0.24156836190852765 0.004796807166938447
0.03090848775796972 -0.22529757492378666 -0.006186156108270796
0.05777191091998028 -0.2090267879390457 -0.017169119383480026
0.08463533408199085 -0.1927560009543047 -0.028152082658689268
0.11149875724400142 -0.1764852139695637 -0.039135045933898494
0.138362180406012 -0.16021442698482272 -0.050118009209107736
0.16522560356802257 -0.14394364000008172 -0.06110097248431697
0.19208902673003314 -0.12767285301534073 -0.07208393575952621
0.2189524498920437 -0.11140206603059974 -0.08306689903473545
-0.042314220507750584 -0.23790443586206955 -0.00237308274688586
-0.015450797345740001 -0.22163364887732856 -0.013356046022095103
0.011412625816270568 -0.20536286189258757 -0.024339009297304332
0.03827604897828113 -0.18909207490784657 -0.03532197257251357
0.0651394721402917 -0.17282128792310558 -0.046304935847722814
0.09200289530230227 -0.1565505009383646 -0.05728789912293205
0.11886631846431282 -0.14027971395362362 -0.06827086239814129
0.1457297416263234 -0.12400892696888262 -0.07925382567335053
0.17259316478833397 -0.10773813998414163 -0.09023678894855976
0.19945658795034457 -0.09146735299940063 -0.101219752223769
-0.06181008244944972 -0.21796972283087046 -0.02052593593591941
-0.03494665928743915 -0.20169893584612947 -0.031508899211128635
-0.008083236125428578 -0.18542814886138848 -0.04249186248633788
0.018780187036581984 -0.16915736187664748 -0.053474825761547114
0.04564361019859256 -0.1528865748919065 -0.06445778903675635
0.07250703336060313 -0.1366157879071655 -0.07544075231196559
0.09937045652261368 -0.12034500092242452 -0.08642371558717482
0.12623387968462427 -0.10407421393768353 -0.09740667886238406
0.15309730284663484 -0.08780342695294253 -0.1083896421375933
0.17996072600864543 -0.07153263996820154 -0.11937260541280255
-0.08130594439114888 -0.19803500979967137 -0.03867878912495293
-0.05444252122913829 -0.18176422281493038 -0.04966175240016217
-0.027579098067127723 -0.16549343583018938 -0.06064471567537141
-0.0007156749051171621 -0.14922264884544842 -0.07162767895058064
0.026147748256893415 -0.13295186186070743 -0.08261064222578988
0.053011171418903984 -0.11668107487596642 -0.09359360550099913
0.07987459458091453 -0.10041028789122544 -0.10457656877620836
0.10673801774292511 -0.08413950090648445 -0.1155595320514176
0.1336014409049357 -0.06786871392174346 -0.12654249532662684
0.16046486406694627 -0.05159792693700245 -0.13752545860183607
-0.10080180633284803 -0.17810029676847228 -0.05683164231398648
-0.07393838317083745 -0.16182950978373128 -0.06781460558919572
-0.04707496000882687 -0.1455587227989903 -0.07879756886440495
-0.020211536846816307 -0.1292879358142493 -0.08978053213961419
0.006651886315194265 -0.11301714882950832 -0.10076349541482343
0.03351530947720484 -0.09674636184476733 -0.11174645869003266
0.06037873263921539 -0.08047557486002635 -0.12272942196524189
0.08724215580122596 -0.06420478787528534 -0.13371238524045115
0.11410557896323653 -0.04793400089054436 -0.14469534851566038
0.14096900212524713 -0.03166321390580335 -0.15567831179086963
-0.12029766827454717 -0.15816558373727319 -0.07498449550302001
-0.09343424511253659 -0.1418947967525322 -0.08596745877822926
-0.06657082195052602 -0.1256240097677912 -0.0969504220534385
-0.03970739878851546 -0.10935322278305021 -0.10793338532864773
-0.012843975626504883 -0.09308243579830922 -0.11891634860385697
0.01401944753550569 -0.07681164881356822 -0.1298993118790662
0.04088287069751624 -0.060540861828827244 -0.14088227515427543
0.06774629385952682 -0.044270074844086245 -0.15186523842948468
0.09460971702153739 -0.027999287859345256 -0.1628482017046939
0.12147314018354798 -0.011728500874604263 -0.17383116497990317
-0.1397935302162463 -0.13823087070607412 -0.09313734869205355
-0.11293010705423573 -0.12196008372133312 -0.10412031196726279
-0.08606668389222516 -0.10568929673659212 -0.11510327524247202
-0.0592032607302146 -0.08941850975185113 -0.12608623851768125
-0.03233983756820402 -0.07314772276711014 -0.1370692017928905
-0.005476414406193447 -0.056876935782369145 -0.14805216506809973
0.021387008755817106 -0.04060614879762816 -0.15903512834330896
0.04825043191782769 -0.02433536181288717 -0.17001809161851822
0.07511385507983825 -0.008064574828146178 -0.18100105489372745
0.10197727824184884 0.008206212156594828 -0.1919840181689367
-0.15928939215794546 -0.11829615767487502 -0.1112902018810871
-0.13242596899593487 -0.10202537069013401 -0.12227316515629634
-0.10556254583392431 -0.08575458370539302 -0.13325612843150558
-0.07869912267191376 -0.06948379672065204 -0.1442390917067148
-0.051835699509903174 -0.05321300973591104 -0.15522205498192404
-0.024972276347892605 -0.03694222275117005 -0.1662050182571333
0.001891146814117949 -0.02067143576642907 -0.17718798153234253
0.028754569976128533 -0.004400648781688064 -0.18817094480755175
0.0556179931381391 0.011870138203052927 -0.199153908082761
0.08248141630014967 0.02814092518779392 -0.21013687135797024
-0.1787852540996446 -0.09836144464367592 -0.12944305507012063
-0.151921830937634 -0.08209065765893492 -0.1404260183453299
-0.12505840777562344 -0.06581987067419393 -0.15140898162053912
-0.09819498461361291 -0.04954908368945294 -0.16239194489574835
-0.07133156145160233 -0.03327829670471195 -0.17337490817095758
-0.04446813828959175 -0.01700750971997096 -0.18435787144616683
-0.017604715127581196 -0.000736722735229979 -0.19534083472137606
0.009258708034429387 0.015534064249511027 -0.20632379799658532
0.036122131196439956 0.03180485123425202 -0.21730676127179455
0.06298555435845053 0.048075638218993015 -0.22828972454700378
-0.19828111604134374 -0.07842673161247682 -0.1475959082591542
-0.17141769287933317 -0.06215594462773581 -0.15857887153436342
-0.1445542697173226 -0.04588515764299482 -0.16956183480957265
-0.11769084655531205 -0.029614370658253838 -0.1805447980847819
-0.09082742339330148 -0.013343583673512845 -0.19152776135999114
-0.06396400023129091 0.002927203311228148 -0.20251072463520037
-0.03710057706928035 0.019197990295969126 -0.21349368791040962
-0.010237153907269765 0.03546877728071012 -0.22447665118561885
0.016626269254740804 0.051739564265451114 -0.23545961446082808
0.04348969241675139 0.06801035125019213 -0.24644257773603734
-0.04348969241675139 -0.06801035125019213 0.24644257773603734
-0.016626269254740804 -0.051739564265451114 0.23545961446082808
0.010237153907269765 -0.03546877728071012 0.22447665118561885
0.03710057706928033 -0.01919799029596914 0.21349368791040962
0.06396400023129091 -0.002927203311228148 0.20251072463520037
0.09082742339330148 0.013343583673512845 0.19152776135999114
0.11769084655531205 0.029614370658253824 0.1805447980847819
0.1445542697173226 0.04588515764299482 0.16956183480957265
0.17141769287933317 0.06215594462773581 0.15857887153436342
0.19828111604134374 0.07842673161247682 0.1475959082591542
-0.06298555435845053 -0.048075638218993015 0.22828972454700378
-0.036122131196439956 -0.03180485123425202 0.21730676127179455
-0.009258708034429387 -0.015534064249511027 0.20632379799658532
0.017604715127581175 0.0007367227352299651 0.19534083472137606
0.04446813828959175 0.01700750971997096 0.18435787144616683
0.07133156145160233 0.03327829670471195 0.17337490817095758
0.09819498461361288 0.049549083689452926 0.16239194489574835
0.12505840777562344 0.06581987067419393 0.15140898162053912
0.151921830937634 0.08209065765893492 0.1404260183453299
0.1787852540996446 0.09836144464367592 0.12944305507012063
-0.08248141630014967 -0.02814092518779392 0.21013687135797024
-0.0556179931381391 -0.011870138203052927 0.199153908082761
-0.028754569976128533 0.004400648781688064 0.18817094480755175
-0.0018911468141179699 0.020671435766429058 0.17718798153234253
0.024972276347892605 0.03694222275117005 0.1662050182571333
0.051835699509903174 0.05321300973591104 0.15522205498192404
0.07869912267191374 0.06948379672065202 0.1442390917067148
0.10556254583392431 0.08575458370539302 0.13325612843150558
0.13242596899593487 0.10202537069013401 0.12227316515629634
0.15928939215794546 0.11829615767487502 0.1112902018810871
-0.10197727824184882 -0.008206212156594828 0.1919840181689367
-0.07511385507983824 0.008064574828146164 0.18100105489372748
-0.04825043191782768 0.024335361812887157 0.17001809161851822
-0.021387008755817116 0.04060614879762814 0.159035128343309
0.005476414406193461 0.05687693578236913 0.14805216506809976
0.03233983756820403 0.07314772276711012 0.1370692017928905
0.059203260730214584 0.0894185097518511 0.12608623851768128
0.08606668389222517 0.10568929673659211 0.11510327524247203
0.11293010705423574 0.1219600837213331 0.1041203119672628
0.1397935302162463 0.1382308707060741 0.09313734869205356
-0.12147314018354798 0.011728500874604263 0.17383116497990317
-0.09460971702153739 0.027999287859345256 0.1628482017046939
-0.06774629385952682 0.044270074844086245 0.15186523842948468
-0.04088287069751626 0.06054086182882724 0.14088227515427545
-0.01401944753550569 0.07681164881356822 0.1298993118790662
0.012843975626504883 0.09308243579830922 0.11891634860385697
0.03970739878851544 0.10935322278305021 0.10793338532864774
0.06657082195052602 0.1256240097677912 0.0969504220534385
0.09343424511253659 0.1418947967525322 0.08596745877822926
0.12029766827454717 0.15816558373727319 0.07498449550302001
-0.14096900212524713 0.03166321390580335 0.15567831179086963
-0.11410557896323653 0.04793400089054436 0.14469534851566038
-0.08724215580122596 0.06420478787528534 0.13371238524045115
-0.060378732639215414 0.08047557486002634 0.1227294219652419
-0.03351530947720484 0.09674636184476733 0.11174645869003266
-0.006651886315194265 0.11301714882950832 0.10076349541482343
0.020211536846816286 0.1292879358142493 0.08978053213961419
0.04707496000882687 0.1455587227989903 0.07879756886440495
0.07393838317083745 0.16182950978373128 0.06781460558919572
0.10080180633284803 0.17810029676847228 0.05683164231398648
-0.16046486406694627 0.051597926937002436 0.1375254586018361
-0.13360144090493567 0.06786871392174344 0.12654249532662684
-0.1067380177429251 0.08413950090648444 0.11555953205141761
-0.07987459458091455 0.10041028789122541 0.10457656877620837
-0.05301117141890398 0.1166810748759664 0.09359360550099914
-0.0261477482568934 0.1329518618607074 0.0826106422257899
0.0007156749051171517 0.1492226488454484 0.07162767895058067
0.027579098067127737 0.16549343583018938 0.06064471567537143
0.054442521229138306 0.18176422281493038 0.049661752400162185
0.0813059443911489 0.19803500979967137 0.03867878912495294
-0.17996072600864543 0.07153263996820154 0.11937260541280255
-0.15309730284663484 0.08780342695294253 0.1083896421375933
-0.12623387968462427 0.10407421393768353 0.09740667886238406
-0.0993704565226137 0.12034500092242452 0.08642371558717483
-0.07250703336060313 0.1366157879071655 0.07544075231196559
-0.04564361019859256 0.1528865748919065 0.06445778903675635
-0.018780187036582005 0.16915736187664748 0.05347482576154712
0.008083236125428578 0.18542814886138848 0.04249186248633788
0.03494665928743915 0.20169893584612947 0.031508899211128635
0.06181008244944972 0.21796972283087046 0.02052593593591941
-0.19945658795034457 0.09146735299940063 0.101219752223769
-0.17259316478833397 0.10773813998414163 0.09023678894855976
-0.1457297416263234 0.12400892696888262 0.07925382567335053
-0.11886631846431285 0.1402797139536236 0.06827086239814129
-0.09200289530230227 0.1565505009383646 0.05728789912293205
-0.0651394721402917 0.17282128792310558 0.046304935847722814
-0.03827604897828115 0.18909207490784657 0.035321972572513585
-0.011412625816270568 0.20536286189258757 0.024339009297304332
0.015450797345740001 0.22163364887732856 0.013356046022095103
0.042314220507750584 0.23790443586206955 0.00237308274688586
-0.2189524498920437 0.11140206603059974 0.08306689903473545
-0.19208902673003314 0.12767285301534073 0.07208393575952621
-0.16522560356802257 0.14394364000008172 0.06110097248431697
-0.138362180406012 0.16021442698482272 0.050118009209107736
-0.11149875724400142 0.1764852139695637 0.039135045933898494
-0.08463533408199085 0.1927560009543047 0.028152082658689268
-0.0577719109199803 0.20902678793904567 0.017169119383480026
-0.03090848775796972 0.22529757492378666 0.006186156108270796
-0.00404506459595915 0.24156836190852765 -0.004796807166938447
0.022818358566051432 0.2578391488932687 -0.01577977044214769
