# .PCD v0.7 - Point Cloud Data file format
VERSION 0.7
FIELDS x y z
SIZE 4 4 4
TYPE F F F
COUNT 1 1 1
WIDTH 600
HEIGHT 1
VIEWPOINT 0 0 0 1 0 0 0
POINTS 600
DATA ascii
-0.10568100085812471 -0.04751866005462928 -0.051641383159787155
-0.0960386873717757 -0.03637173951424505 -0.058546651144718964
-0.0863963738854267 -0.02522481897386081 -0.06545191912965079
-0.0767540603990777 -0.01407789843347658 -0.0723571871145826
-0.06711174691272868 -0.002930977893092344 -0.0792624550995144
-0.05746943342637967 0.008215942647291898 -0.08616772308444623
-0.047827119940030666 0.019362863187676126 -0.09307299106937804
-0.038184806453681656 0.03050978372806036 -0.09997825905430986
-0.028542492967332647 0.0416567042684446 -0.10688352703924167
-0.018900179480983645 0.05280362480882883 -0.1137887950241735
-0.10492955634076748 -0.03943120356408141 -0.03753680406301078
-0.09528724285441847 -0.028284283023697183 -0.044442072047942593
-0.08564492936806947 -0.017137362483312945 -0.05134734003287441
-0.07600261588172047 -0.005990441942928715 -0.05825260801780622
-0.06636030239537145 0.00515647859745552 -0.06515787600273804
-0.056717988909022445 0.016303399137839764 -0.07206314398766986
-0.04707567542267344 0.02745031967822399 -0.07896841197260167
-0.03743336193632443 0.03859724021860823 -0.08587367995753348
-0.027791048449975424 0.04974416075899247 -0.0927789479424653
-0.01814873496362642 0.0608910812993767 -0.09968421592739711
-0.10417811182341025 -0.031343747073533545 -0.0234322249662344
-0.09453579833706124 -0.020196826533149317 -0.030337492951166212
-0.08489348485071224 -0.009049905992765079 -0.037242760936098025
-0.07525117136436324 0.0020970145476191526 -0.04414802892102984
-0.06560885787801422 0.013243935088003388 -0.05105329690596166
-0.055966544391665214 0.02439085562838763 -0.057958564890893474
-0.04632423090531621 0.03553777616877186 -0.06486383287582528
-0.0366819174189672 0.04668469670915609 -0.0717691008607571
-0.027039603932618197 0.057831617249540335 -0.07867436884568892
-0.017397290446269194 0.06897853778992456 -0.08557963683062074
-0.10342666730605303 -0.02325629058298568 -0.009327645869458022
-0.09378435381970403 -0.012109370042601451 -0.016232913854389835
-0.08414204033335503 -0.0009624495022172132 -0.02313818183932165
-0.07449972684700602 0.010184471038167019 -0.030043449824253464
-0.064857413360657 0.021331391578551254 -0.03694871780918528
-0.05521509987430799 0.032478312118935496 -0.0438539857941171
-0.04557278638795899 0.043625232659319724 -0.050759253779048906
-0.03593047290160998 0.05477215319970396 -0.05766452176398072
-0.02628815941526097 0.0659190737400882 -0.06456978974891255
-0.016645845928911968 0.07706599428047242 -0.07147505773384435
-0.1026752227886958 -0.015168834092437812 0.00477693322731836
-0.0930329093023468 -0.004021913552053584 -0.002128334757613453
-0.0833905958159978 0.007125006988330655 -0.009033602742545268
-0.07374828232964879 0.018271927528714888 -0.015938870727477083
-0.06410596884329978 0.029418848069099123 -0.0228441387124089
-0.05446365535695077 0.04056576860948336 -0.029749406697340715
-0.044821341870601765 0.05171268914986759 -0.03665467468227253
-0.035179028384252756 0.06285960969025182 -0.043559942667204345
-0.025536714897903743 0.07400653023063607 -0.05046521065213616
-0.01589440141155474 0.0851534507710203 -0.05737047863706798
-0.10192377827133857 -0.007081377601889942 0.018881512324094744
-0.09228146478498957 0.004065542938494286 0.011976244339162929
-0.08263915129864056 0.015212463478878524 0.005070976354231114
-0.07299683781229156 0.026359384019262754 -0.0018342916307006992
-0.06335452432594255 0.03750630455964699 -0.008739559615632516
-0.05371221083959354 0.048653225100031235 -0.01564482760056433
-0.044069897353244535 0.05980014564041546 -0.022550095585496144
-0.034427583866895525 0.0709470661807997 -0.02945536357042796
-0.02478527038054652 0.08209398672118394 -0.036360631555359776
-0.015142956894197515 0.09324090726156817 -0.04326589954029159
-0.10117233375398134 0.0010060788886579208 0.03298609142087112
-0.09153002026763234 0.012152999429042148 0.0260808234359393
-0.08188770678128333 0.02329991996942639 0.019175555451007485
-0.07224539329493433 0.03444684050981062 0.012270287466075672
-0.06260307980858532 0.04559376105019485 0.005365019481143857
-0.05296076632223631 0.056740681590579094 -0.0015402485037879596
-0.04331845283588731 0.06788760213096333 -0.008445516488719773
-0.0336761393495383 0.07903452267134756 -0.01535078447365159
-0.024033825863189293 0.0901814432117318 -0.022256052458583406
-0.01439151237684029 0.10132836375211603 -0.029161320443515222
-0.10042088923662412 0.009093535379205788 0.047090670517647495
-0.09077857575027512 0.020240455919590016 0.04018540253271568
-0.08113626226392612 0.031387376459974255 0.03328013454778386
-0.07149394877757712 0.04253429700035849 0.026374866562852053
-0.0618516352912281 0.053681217540742725 0.019469598577920237
-0.05220932180487909 0.06482813808112696 0.01256433059298842
-0.04256700831853009 0.07597505862151119 0.005659062608056607
-0.03292469483218108 0.08712197916189543 -0.001246205376875209
-0.023282381345832066 0.09826889970227967 -0.008151473361807025
-0.013640067859483063 0.1094158202426639 -0.015056741346738841
-0.09966944471926689 0.017180991869753658 0.06119524961442388
-0.09002713123291789 0.028327912410137886 0.05428998162949207
-0.08038481774656889 0.03947483295052213 0.047384713644560254
-0.07074250426021989 0.050621753490906356 0.04047944565962844
-0.06110019077387087 0.06176867403129059 0.03357417767469662
-0.05145787728752186 0.07291559457167483 0.026668909689764805
-0.04181556380117286 0.08406251511205906 0.019763641704832993
-0.03217325031482385 0.0952094356524433 0.012858373719901176
-0.02253093682847484 0.10635635619282754 0.005953105734969361
-0.012888623342125838 0.11750327673321177 -0.000952162249962456
-0.09891800020190966 0.025268448360301524 0.07529982871120025
-0.08927568671556066 0.03641536890068575 0.06839456072626844
-0.07963337322921166 0.04756228944106999 0.061489292741336625
-0.06999105974286265 0.05870920998145422 0.054584024756404816
-0.060348746256513645 0.06985613052183845 0.047678756771473
-0.050706432770164636 0.08100305106222269 0.04077348878654118
-0.041064119283815634 0.09214997160260692 0.03386822080160937
-0.031421805797466625 0.10329689214299116 0.02696295281667755
-0.021779492311117615 0.1144438126833754 0.020057684831745734
-0.012137178824768613 0.12559073322375963 0.013152416846813918
0.012137178824768613 -0.12559073322375963 -0.013152416846813918
0.021779492311117615 -0.1144438126833754 -0.020057684831745734
0.031421805797466625 -0.10329689214299116 -0.02696295281667755
0.04106411928381563 -0.09214997160260693 -0.03386822080160937
0.050706432770164636 -0.08100305106222269 -0.04077348878654118
0.060348746256513645 -0.06985613052183845 -0.047678756771473
0.06999105974286264 -0.05870920998145423 -0.05458402475640481
0.07963337322921166 -0.047562289441069994 -0.061489292741336625
0.08927568671556066 -0.03641536890068575 -0.06839456072626844
0.09891800020190966 -0.025268448360301524 -0.07529982871120025
0.012888623342125838 -0.11750327673321177 0.000952162249962456
0.02253093682847484 -0.10635635619282754 -0.005953105734969361
0.03217325031482385 -0.0952094356524433 -0.012858373719901176
0.04181556380117285 -0.08406251511205907 -0.01976364170483299
0.05145787728752186 -0.07291559457167483 -0.026668909689764805
0.06110019077387087 -0.06176867403129059 -0.03357417767469662
0.07074250426021987 -0.05062175349090636 -0.04047944565962844
0.08038481774656889 -0.03947483295052213 -0.047384713644560254
0.09002713123291789 -0.028327912410137886 -0.05428998162949207
0.09966944471926689 -0.017180991869753658 -0.06119524961442388
0.013640067859483063 -0.1094158202426639 0.015056741346738836
0.023282381345832066 -0.09826889970227967 0.00815147336180702
0.03292469483218108 -0.08712197916189543 0.0012462053768752031
0.04256700831853008 -0.0759750586215112 -0.00565906260805661
0.05220932180487909 -0.06482813808112697 -0.012564330592988426
0.0618516352912281 -0.053681217540742725 -0.019469598577920244
0.0714939487775771 -0.0425342970003585 -0.026374866562852057
0.08113626226392612 -0.03138737645997426 -0.03328013454778387
0.09077857575027512 -0.02024045591959002 -0.040185402532715686
0.10042088923662412 -0.009093535379205792 -0.0470906705176475
0.01439151237684029 -0.10132836375211604 0.02916132044351521
0.024033825863189293 -0.09018144321173181 0.022256052458583395
0.0336761393495383 -0.07903452267134757 0.015350784473651579
0.043318452835887304 -0.06788760213096334 0.008445516488719766
0.05296076632223631 -0.0567406815905791 0.0015402485037879505
0.06260307980858532 -0.04559376105019486 -0.005365019481143866
0.07224539329493432 -0.03444684050981063 -0.01227028746607568
0.08188770678128333 -0.023299919969426396 -0.019175555451007496
0.09153002026763234 -0.012152999429042154 -0.026080823435939312
0.10117233375398134 -0.001006078888657926 -0.032986091420871125
0.015142956894197515 -0.09324090726156817 0.04326589954029159
0.02478527038054652 -0.08209398672118394 0.036360631555359776
0.034427583866895525 -0.0709470661807997 0.02945536357042796
0.04406989735324453 -0.05980014564041547 0.022550095585496147
0.05371221083959354 -0.048653225100031235 0.01564482760056433
0.06335452432594255 -0.03750630455964699 0.008739559615632516
0.07299683781229155 -0.02635938401926276 0.0018342916307007026
0.08263915129864056 -0.015212463478878528 -0.005070976354231114
0.09228146478498957 -0.004065542938494286 -0.011976244339162929
0.10192377827133857 0.007081377601889942 -0.018881512324094744
0.01589440141155474 -0.0851534507710203 0.05737047863706798
0.025536714897903743 -0.07400653023063607 0.05046521065213616
0.035179028384252756 -0.06285960969025182 0.043559942667204345
0.04482134187060176 -0.0517126891498676 0.03665467468227253
0.05446365535695077 -0.04056576860948336 0.029749406697340715
0.06410596884329978 -0.029418848069099123 0.0228441387124089
0.07374828232964878 -0.018271927528714895 0.015938870727477086
0.0833905958159978 -0.007125006988330658 0.009033602742545268
0.0930329093023468 0.004021913552053584 0.002128334757613453
0.1026752227886958 0.015168834092437812 -0.00477693322731836
0.016645845928911968 -0.07706599428047244 0.07147505773384435
0.02628815941526097 -0.06591907374008821 0.06456978974891253
0.03593047290160998 -0.054772153199703966 0.057664521763980715
0.04557278638795898 -0.04362523265931974 0.050759253779048906
0.05521509987430799 -0.0324783121189355 0.04385398579411709
0.064857413360657 -0.021331391578551257 0.03694871780918527
0.07449972684700601 -0.01018447103816703 0.030043449824253457
0.08414204033335503 0.0009624495022172047 0.02313818183932164
0.09378435381970403 0.012109370042601446 0.016232913854389824
0.10342666730605303 0.023256290582985676 0.009327645869458012
0.017397290446269194 -0.06897853778992456 0.08557963683062073
0.027039603932618197 -0.057831617249540335 0.07867436884568892
0.0366819174189672 -0.04668469670915609 0.07176910086075709
0.046324230905316205 -0.035537776168771865 0.06486383287582528
0.055966544391665214 -0.024390855628387633 0.05795856489089347
0.06560885787801422 -0.013243935088003391 0.05105329690596165
0.07525117136436323 -0.002097014547619163 0.044148028921029835
0.08489348485071224 0.009049905992765072 0.03724276093609802
0.09453579833706124 0.020196826533149314 0.030337492951166205
0.10417811182341025 0.031343747073533545 0.023432224966234393
0.01814873496362642 -0.0608910812993767 0.09968421592739711
0.027791048449975424 -0.04974416075899247 0.0927789479424653
0.03743336193632443 -0.03859724021860823 0.08587367995753348
0.047075675422673435 -0.027450319678224 0.07896841197260167
0.056717988909022445 -0.016303399137839764 0.07206314398766986
0.06636030239537145 -0.00515647859745552 0.06515787600273804
0.07600261588172046 0.005990441942928708 0.058252608017806226
0.08564492936806947 0.01713736248331294 0.05134734003287441
0.09528724285441847 0.028284283023697183 0.044442072047942593
0.10492955634076748 0.03943120356408141 0.03753680406301078
0.018900179480983645 -0.05280362480882883 0.1137887950241735
0.028542492967332647 -0.0416567042684446 0.10688352703924167
0.038184806453681656 -0.03050978372806036 0.09997825905430986
0.04782711994003066 -0.019362863187676133 0.09307299106937804
0.05746943342637967 -0.008215942647291898 0.08616772308444623
0.06711174691272868 0.002930977893092344 0.0792624550995144
0.07675406039907769 0.014077898433476572 0.0723571871145826
0.0863963738854267 0.025224818973860808 0.06545191912965079
0.0960386873717757 0.03637173951424505 0.058546651144718964
0.10568100085812471 0.04751866005462928 0.051641383159787155
-0.10568100085812471 -0.04751866005462928 -0.051641383159787155
-0.09259009200446991 -0.05619333485119932 -0.04736483134723457
-0.07949918315081508 -0.06486800964776936 -0.04308827953468199
-0.06640827429716029 -0.0735426844443394 -0.03881172772212941
-0.05331736544350545 -0.08221735924090944 -0.03453517590957683
-0.04022645658985064 -0.09089203403747947 -0.030258624097024248
-0.02713554773619583 -0.09956670883404951 -0.025982072284471663
-0.014044638882541018 -0.10824138363061955 -0.021705520471919086
-0.0009537300288861928 -0.11691605842718959 -0.017428968659366502
0.012137178824768613 -0.12559073322375963 -0.013152416846813918
-0.10492955634076748 -0.03943120356408141 -0.03753680406301078
-0.09183864748711268 -0.04810587836065145 -0.0332602522504582
-0.07874773863345785 -0.05678055315722149 -0.02898370043790562
-0.06565682977980306 -0.06545522795379154 -0.024707148625353035
-0.05256592092614823 -0.07412990275036158 -0.020430596812800454
-0.03947501207249342 -0.08280457754693162 -0.016154045000247873
-0.026384103218838606 -0.09147925234350165 -0.01187749318769529
-0.013293194365183792 -0.1001539271400717 -0.007600941375142713
-0.00020228551152896702 -0.10882860193664173 -0.003324389562590128
0.012888623342125838 -0.11750327673321177 0.000952162249962456
-0.10417811182341025 -0.031343747073533545 -0.0234322249662344
-0.09108720296975545 -0.040018421870103585 -0.01915567315368182
-0.07799629411610062 -0.048693096666673624 -0.01487912134112924
-0.06490538526244582 -0.057367771463243664 -0.010602569528576656
-0.051814476408791 -0.0660424462598137 -0.006326017716024075
-0.03872356755513619 -0.07471712105638374 -0.002049465903471494
-0.02563265870148138 -0.08339179585295378 0.00222708590908109
-0.012541749847826567 -0.09206647064952382 0.006503637721633667
0.000549159005828259 -0.10074114544609386 0.010780189534186252
0.013640067859483063 -0.1094158202426639 0.015056741346738836
-0.10342666730605303 -0.02325629058298568 -0.009327645869458022
-0.09033575845239823 -0.03193096537955572 -0.00505109405690544
-0.0772448495987434 -0.04060564017612576 -0.0007745422443528632
-0.06415394074508861 -0.0492803149726958 0.003502009568199721
-0.051063031891433776 -0.05795498976926584 0.007778561380752302
-0.037972123037778964 -0.06662966456583588 0.012055113193304882
-0.024881214184124152 -0.07530433936240592 0.016331665005857466
-0.01179030533046934 -0.08397901415897596 0.020608216818410043
0.001300603523185485 -0.092653688955546 0.024884768630962627
0.01439151237684029 -0.10132836375211604 0.02916132044351521
-0.1026752227886958 -0.015168834092437812 0.00477693322731836
-0.089584313935041 -0.02384350888900785 0.009053485039870942
-0.07649340508138618 -0.03251818368557789 0.013330036852423519
-0.06340249622773138 -0.04119285848214793 0.0176065886649761
-0.05031158737407655 -0.04986753327871797 0.021883140477528682
-0.03722067852042174 -0.05854220807528801 0.026159692290081263
-0.024129769666766925 -0.06721688287185805 0.030436244102633847
-0.011038860813112115 -0.07589155766842809 0.034712795915186424
0.002052048040542711 -0.08456623246499813 0.03898934772773901
0.015142956894197515 -0.09324090726156817 0.04326589954029159
-0.10192377827133857 -0.007081377601889942 0.018881512324094744
-0.08883286941768377 -0.015756052398459983 0.023158064136647324
-0.07574196056402895 -0.024430727195030023 0.0274346159491999
-0.06265105171037415 -0.03310540199160006 0.031711167761752486
-0.04956014285671932 -0.0417800767881701 0.03598771957430506
-0.03646923400306451 -0.05045475158474014 0.04026427138685765
-0.023378325149409702 -0.05912942638131018 0.04454082319941023
-0.010287416295754888 -0.06780410117788022 0.04881737501196281
0.002803492557899937 -0.07647877597445026 0.05309392682451539
0.01589440141155474 -0.0851534507710203 0.05737047863706798
-0.10117233375398134 0.0010060788886579208 0.03298609142087112
-0.08808142490032654 -0.007668595907912119 0.037262643233423695
-0.07499051604667172 -0.016343270704482157 0.04153919504597627
-0.061899607193016924 -0.025017945501052196 0.04581574685852886
-0.0488086983393621 -0.03369262029762224 0.05009229867108144
-0.03571778948570729 -0.04236729509419228 0.05436885048363402
-0.022626880632052475 -0.05104196989076232 0.0586454022961866
-0.009535971778397663 -0.05971664468733236 0.06292195410873919
0.0035549370752571627 -0.0683913194839024 0.06719850592129177
0.016645845928911968 -0.07706599428047244 0.07147505773384435
-0.10042088923662412 0.009093535379205788 0.047090670517647495
-0.08732998038296932 0.0004188605826357488 0.05136722233020007
-0.0742390715293145 -0.00825581421393429 0.05564377414275265
-0.0611481626756597 -0.01693048901050433 0.059920325955305234
-0.048057253822004875 -0.02560516380707437 0.06419687776785782
-0.03496634496835006 -0.034279838603644405 0.0684734295804104
-0.021875436114695248 -0.042954513400214445 0.07274998139296299
-0.008784527261040436 -0.051629188196784484 0.07702653320551556
0.004306381592614389 -0.06030386299335452 0.08130308501806814
0.017397290446269194 -0.06897853778992456 0.08557963683062073
-0.09966944471926689 0.017180991869753658 0.06119524961442388
-0.0865785358656121 0.00850631707318362 0.06547180142697646
-0.07348762701195727 -0.00016835772338641967 0.06974835323952903
-0.06039671815830247 -0.008843032519956459 0.07402490505208162
-0.047305809304647645 -0.0175177073165265 0.0783014568646342
-0.03421490045099283 -0.02619238211309654 0.08257800867718679
-0.02112399159733802 -0.03486705690966658 0.08685456048973937
-0.008033082743683211 -0.04354173170623662 0.09113111230229194
0.005057826109971615 -0.05221640650280666 0.09540766411484453
0.01814873496362642 -0.0608910812993767 0.09968421592739711
-0.09891800020190966 0.025268448360301524 0.07529982871120025
-0.08582709134825486 0.016593773563731484 0.07957638052375283
-0.07273618249460004 0.007919098767161445 0.08385293233630542
-0.05964527364094525 -0.000755576029408595 0.088129484148858
-0.04655436478729042 -0.009430250825978634 0.09240603596141057
-0.03346345593363561 -0.018104925622548673 0.09668258777396316
-0.020372547079980798 -0.026779600419118713 0.10095913958651574
-0.007281638226325985 -0.03545427521568875 0.10523569139906833
0.005809270627328841 -0.04412895001225879 0.10951224321162091
0.018900179480983645 -0.05280362480882883 0.1137887950241735
-0.018900179480983645 0.05280362480882883 -0.1137887950241735
-0.005809270627328841 0.04412895001225879 -0.10951224321162091
0.007281638226325978 0.03545427521568875 -0.10523569139906833
0.02037254707998079 0.026779600419118713 -0.10095913958651574
0.03346345593363561 0.018104925622548673 -0.09668258777396316
0.04655436478729042 0.009430250825978634 -0.09240603596141057
0.05964527364094523 0.000755576029408595 -0.088129484148858
0.07273618249460004 -0.007919098767161441 -0.08385293233630542
0.08582709134825486 -0.016593773563731484 -0.07957638052375283
0.09891800020190966 -0.025268448360301524 -0.07529982871120025
-0.01814873496362642 0.0608910812993767 -0.09968421592739711
-0.005057826109971615 0.05221640650280666 -0.09540766411484453
0.008033082743683204 0.04354173170623662 -0.09113111230229196
0.021123991597338014 0.03486705690966658 -0.08685456048973937
0.03421490045099283 0.02619238211309654 -0.08257800867718679
0.047305809304647645 0.0175177073165265 -0.0783014568646342
0.060396718158302456 0.008843032519956459 -0.07402490505208162
0.07348762701195727 0.00016835772338642314 -0.06974835323952905
0.0865785358656121 -0.00850631707318362 -0.06547180142697646
0.09966944471926689 -0.017180991869753658 -0.06119524961442388
-0.017397290446269194 0.06897853778992456 -0.08557963683062074
-0.004306381592614389 0.06030386299335452 -0.08130308501806816
0.00878452726104043 0.051629188196784484 -0.07702653320551557
0.02187543611469524 0.042954513400214445 -0.07274998139296299
0.03496634496835006 0.034279838603644405 -0.0684734295804104
0.048057253822004875 0.025605163807074366 -0.06419687776785782
0.06114816267565969 0.016930489010504327 -0.05992032595530524
0.0742390715293145 0.00825581421393429 -0.055643774142752664
0.08732998038296932 -0.00041886058263575226 -0.05136722233020008
0.10042088923662412 -0.009093535379205792 -0.0470906705176475
-0.016645845928911968 0.07706599428047242 -0.07147505773384435
-0.003554937075257163 0.06839131948390238 -0.06719850592129177
0.009535971778397656 0.05971664468733235 -0.0629219541087392
0.022626880632052468 0.05104196989076231 -0.05864540229618661
0.03571778948570729 0.04236729509419227 -0.054368850483634025
0.0488086983393621 0.03369262029762223 -0.05009229867108145
0.06189960719301691 0.025017945501052193 -0.045815746858528864
0.07499051604667172 0.016343270704482157 -0.041539195045976286
0.08808142490032654 0.007668595907912114 -0.0372626432334237
0.10117233375398134 -0.001006078888657926 -0.032986091420871125
-0.01589440141155474 0.0851534507710203 -0.05737047863706798
-0.002803492557899937 0.07647877597445026 -0.05309392682451539
0.010287416295754881 0.06780410117788022 -0.048817375011962816
0.023378325149409695 0.05912942638131018 -0.04454082319941023
0.03646923400306451 0.05045475158474014 -0.04026427138685765
0.04956014285671932 0.0417800767881701 -0.03598771957430506
0.06265105171037413 0.03310540199160006 -0.031711167761752486
0.07574196056402895 0.024430727195030026 -0.02743461594919991
0.08883286941768377 0.015756052398459983 -0.023158064136647324
0.10192377827133857 0.007081377601889942 -0.018881512324094744
-0.015142956894197515 0.09324090726156817 -0.04326589954029159
-0.002052048040542711 0.08456623246499813 -0.03898934772773901
0.011038860813112108 0.07589155766842809 -0.03471279591518643
0.02412976966676692 0.06721688287185805 -0.030436244102633847
0.03722067852042174 0.05854220807528801 -0.026159692290081263
0.05031158737407655 0.04986753327871797 -0.021883140477528682
0.06340249622773136 0.04119285848214793 -0.0176065886649761
0.07649340508138618 0.03251818368557789 -0.013330036852423526
0.089584313935041 0.02384350888900785 -0.009053485039870942
0.1026752227886958 0.015168834092437812 -0.00477693322731836
-0.01439151237684029 0.10132836375211603 -0.029161320443515222
-0.0013006035231854854 0.09265368895554599 -0.024884768630962638
0.011790305330469333 0.08397901415897595 -0.02060821681841006
0.024881214184124145 0.07530433936240591 -0.016331665005857476
0.037972123037778964 0.06662966456583587 -0.012055113193304892
0.051063031891433776 0.05795498976926583 -0.0077785613807523106
0.0641539407450886 0.04928031497269579 -0.0035020095681997303
0.0772448495987434 0.04060564017612576 0.0007745422443528472
0.09033575845239823 0.03193096537955571 0.005051094056905432
0.10342666730605303 0.023256290582985676 0.009327645869458012
-0.013640067859483063 0.1094158202426639 -0.015056741346738841
-0.0005491590058282593 0.10074114544609386 -0.010780189534186257
0.01254174984782656 0.09206647064952382 -0.00650363772163368
0.025632658701481372 0.08339179585295378 -0.002227085909081096
0.03872356755513619 0.07471712105638374 0.002049465903471488
0.051814476408791 0.0660424462598137 0.006326017716024069
0.06490538526244581 0.057367771463243664 0.01060256952857665
0.07799629411610062 0.048693096666673624 0.014879121341129228
0.09108720296975545 0.040018421870103585 0.019155673153681812
0.10417811182341025 0.031343747073533545 0.023432224966234393
-0.012888623342125838 0.11750327673321177 -0.000952162249962456
0.00020228551152896702 0.10882860193664173 0.003324389562590128
0.013293194365183785 0.1001539271400717 0.007600941375142706
0.0263841032188386 0.09147925234350165 0.01187749318769529
0.03947501207249342 0.08280457754693162 0.016154045000247873
0.05256592092614823 0.07412990275036158 0.020430596812800454
0.06565682977980304 0.06545522795379154 0.024707148625353035
0.07874773863345785 0.0567805531572215 0.028983700437905612
0.09183864748711268 0.04810587836065145 0.0332602522504582
0.10492955634076748 0.03943120356408141 0.03753680406301078
-0.012137178824768613 0.12559073322375963 0.013152416846813918
0.0009537300288861928 0.11691605842718959 0.017428968659366502
0.01404463888254101 0.10824138363061955 0.02170552047191908
0.027135547736195822 0.09956670883404951 0.025982072284471663
0.04022645658985064 0.09089203403747947 0.030258624097024248
0.05331736544350545 0.08221735924090944 0.03453517590957683
0.06640827429716027 0.0735426844443394 0.03881172772212941
0.07949918315081508 0.06486800964776936 0.043088279534681986
0.09259009200446991 0.05619333485119932 0.04736483134723457
0.10568100085812471 0.04751866005462928 0.051641383159787155
-0.10568100085812471 -0.04751866005462928 -0.051641383159787155
-0.09259009200446991 -0.05619333485119932 -0.04736483134723457
-0.07949918315081508 -0.06486800964776936 -0.04308827953468199
-0.06640827429716029 -0.0735426844443394 -0.03881172772212941
-0.05331736544350545 -0.08221735924090944 -0.03453517590957683
-0.04022645658985064 -0.09089203403747947 -0.030258624097024248
-0.02713554773619583 -0.09956670883404951 -0.025982072284471663
-0.014044638882541018 -0.10824138363061955 -0.021705520471919086
-0.0009537300288861928 -0.11691605842718959 -0.017428968659366502
0.012137178824768613 -0.12559073322375963 -0.013152416846813918
-0.0960386873717757 -0.03637173951424505 -0.058546651144718964
-0.08294777851812091 -0.04504641431081509 -0.05427009933216639
-0.06985686966446608 -0.05372108910738513 -0.0499935475196138
-0.05676596081081127 -0.06239576390395517 -0.045716995707061225
-0.04367505195715645 -0.07107043870052521 -0.04144044389450864
-0.030584143103501635 -0.07974511349709525 -0.03716389208195606
-0.017493234249846827 -0.08841978829366529 -0.03288734026940348
-0.004402325396192016 -0.09709446309023533 -0.028610788456850896
0.00868858345746281 -0.10576913788680536 -0.02433423664429831
0.021779492311117615 -0.1144438126833754 -0.020057684831745734
-0.0863963738854267 -0.02522481897386081 -0.06545191912965079
-0.0733054650317719 -0.03389949377043085 -0.0611753673170982
-0.06021455617811707 -0.042574168567000886 -0.05689881550454562
-0.04712364732446226 -0.051248843363570926 -0.05262226369199304
-0.03403273847080745 -0.059923518160140965 -0.04834571187944046
-0.02094182961715263 -0.068598192956711 -0.04406916006688787
-0.007850920763497821 -0.07727286775328104 -0.039792608254335296
0.00523998809015699 -0.08594754254985108 -0.03551605644178271
0.018330896943811816 -0.09462221734642112 -0.031239504629230128
0.031421805797466625 -0.10329689214299116 -0.02696295281667755
-0.0767540603990777 -0.01407789843347658 -0.0723571871145826
-0.06366315154542289 -0.02275257323004662 -0.06808063530203001
-0.05057224269176807 -0.03142724802661666 -0.06380408348947743
-0.03748133383811326 -0.0401019228231867 -0.05952753167692485
-0.02439042498445844 -0.04877659761975674 -0.055250979864372274
-0.011299516130803624 -0.057451272416326776 -0.05097442805181969
0.0017913927228511853 -0.06612594721289682 -0.046697876239267105
0.014882301576505996 -0.07480062200946686 -0.04242132442671453
0.027973210430160822 -0.0834752968060369 -0.038144772614161944
0.04106411928381563 -0.09214997160260693 -0.03386822080160937
-0.06711174691272868 -0.002930977893092344 -0.0792624550995144
-0.05402083805907388 -0.01160565268966238 -0.07498590328696184
-0.04092992920541906 -0.02028032748623242 -0.07070935147440925
-0.027839020351764245 -0.02895500228280246 -0.06643279966185667
-0.01474811149810943 -0.037629677079372495 -0.06215624784930408
-0.0016572026444546138 -0.04630435187594254 -0.057879696036751506
0.011433706209200197 -0.054979026672512574 -0.05360314422419892
0.02452461506285501 -0.06365370146908261 -0.049326592411646344
0.03761552391650983 -0.07232837626565265 -0.04505004059909376
0.050706432770164636 -0.08100305106222269 -0.04077348878654118
-0.05746943342637967 0.008215942647291898 -0.08616772308444623
-0.04437852457272486 -0.0004587321492781413 -0.08189117127189365
-0.03128761571907005 -0.009133406945848185 -0.07761461945934106
-0.018196706865415236 -0.01780808174241822 -0.07333806764678849
-0.00510579801176042 -0.02648275653898826 -0.0690615158342359
0.007985110841894398 -0.0351574313355583 -0.06478496402168332
0.021076019695549206 -0.04383210613212834 -0.06050841220913074
0.03416692854920402 -0.05250678092869838 -0.05623186039657816
0.04725783740285885 -0.06118145572526842 -0.05195530858402558
0.060348746256513645 -0.06985613052183845 -0.047678756771473
-0.047827119940030666 0.019362863187676126 -0.09307299106937804
-0.03473621108637586 0.010688188391106086 -0.08879643925682547
-0.021645302232721042 0.0020135135945360473 -0.08451988744427288
-0.008554393379066232 -0.006661161202033992 -0.0802433356317203
0.004536515474588584 -0.015335835998604032 -0.07596678381916772
0.0176274243282434 -0.02401051079517407 -0.07169023200661513
0.030718333181898212 -0.032685185591744104 -0.06741368019406255
0.043809242035553024 -0.04135986038831414 -0.06313712838150998
0.05690015088920785 -0.05003453518488419 -0.058860576568957386
0.06999105974286264 -0.05870920998145423 -0.05458402475640481
-0.038184806453681656 0.03050978372806036 -0.09997825905430986
-0.025093897600026855 0.02183510893149032 -0.09570170724175728
-0.012002988746372036 0.013160434134920282 -0.0914251554292047
0.0010879201072827747 0.004485759338350243 -0.08714860361665211
0.014178828960937591 -0.004188915458219796 -0.08287205180409954
0.02726973781459241 -0.012863590254789836 -0.07859549999154695
0.040360646668247215 -0.021538265051359872 -0.07431894817899437
0.053451555521902026 -0.03021293984792991 -0.07004239636644179
0.06654246437555685 -0.038887614644499954 -0.0657658445538892
0.07963337322921166 -0.047562289441069994 -0.061489292741336625
-0.028542492967332647 0.0416567042684446 -0.10688352703924167
-0.015451584113677842 0.03298202947187456 -0.1026069752266891
-0.0023606752600230244 0.024307354675304524 -0.09833042341413652
0.010730233593631788 0.015632679878734485 -0.09405387160158393
0.023821142447286604 0.006958005082164446 -0.08977731978903135
0.03691205130094142 -0.0017166697144055936 -0.08550076797647876
0.05000296015459623 -0.01039134451097563 -0.0812242161639262
0.06309386900825104 -0.01906601930754567 -0.07694766435137361
0.07618477786190586 -0.027740694104115712 -0.07267111253882103
0.08927568671556066 -0.03641536890068575 -0.06839456072626844
-0.018900179480983645 0.05280362480882883 -0.1137887950241735
-0.005809270627328841 0.04412895001225879 -0.10951224321162091
0.007281638226325978 0.03545427521568875 -0.10523569139906833
0.02037254707998079 0.026779600419118713 -0.10095913958651574
0.03346345593363561 0.018104925622548673 -0.09668258777396316
0.04655436478729042 0.009430250825978634 -0.09240603596141057
0.05964527364094523 0.000755576029408595 -0.088129484148858
0.07273618249460004 -0.007919098767161441 -0.08385293233630542
0.08582709134825486 -0.016593773563731484 -0.07957638052375283
0.09891800020190966 -0.025268448360301524 -0.07529982871120025
-0.09891800020190966 0.025268448360301524 0.07529982871120025
-0.08582709134825486 0.016593773563731484 0.07957638052375283
-0.07273618249460004 0.007919098767161445 0.08385293233630542
-0.05964527364094525 -0.000755576029408595 0.088129484148858
-0.04655436478729042 -0.009430250825978634 0.09240603596141057
-0.03346345593363561 -0.018104925622548673 0.09668258777396316
-0.020372547079980798 -0.026779600419118713 0.10095913958651574
-0.007281638226325985 -0.03545427521568875 0.10523569139906833
0.005809270627328841 -0.04412895001225879 0.10951224321162091
0.018900179480983645 -0.05280362480882883 0.1137887950241735
-0.08927568671556066 0.03641536890068575 0.06839456072626844
-0.07618477786190586 0.027740694104115712 0.07267111253882103
-0.06309386900825104 0.019066019307545673 0.0769476643513736
-0.05000296015459624 0.010391344510975634 0.08122421616392618
-0.03691205130094142 0.0017166697144055936 0.08550076797647876
-0.023821142447286604 -0.006958005082164446 0.08977731978903135
-0.010730233593631795 -0.015632679878734485 0.09405387160158393
0.0023606752600230175 -0.024307354675304524 0.09833042341413652
0.015451584113677842 -0.03298202947187456 0.1026069752266891
0.028542492967332647 -0.0416567042684446 0.10688352703924167
-0.07963337322921166 0.04756228944106999 0.061489292741336625
-0.06654246437555686 0.03888761464449995 0.0657658445538892
-0.05345155552190204 0.03021293984792991 0.07004239636644179
-0.04036064666824723 0.021538265051359872 0.07431894817899437
-0.027269737814592417 0.012863590254789833 0.07859549999154695
-0.014178828960937598 0.004188915458219789 0.08287205180409954
-0.0010879201072827886 -0.004485759338350243 0.08714860361665211
0.012002988746372022 -0.013160434134920282 0.0914251554292047
0.025093897600026848 -0.02183510893149032 0.09570170724175728
0.038184806453681656 -0.03050978372806036 0.09997825905430986
-0.06999105974286265 0.05870920998145422 0.054584024756404816
-0.05690015088920786 0.05003453518488418 0.05886057656895739
-0.04380924203555304 0.04135986038831414 0.06313712838150998
-0.030718333181898226 0.032685185591744104 0.06741368019406255
-0.017627424328243407 0.024010510795174064 0.07169023200661513
-0.004536515474588591 0.015335835998604025 0.07596678381916772
0.008554393379066218 0.006661161202033988 0.0802433356317203
0.021645302232721028 -0.0020135135945360543 0.08451988744427288
0.034736211086375854 -0.010688188391106093 0.08879643925682547
0.04782711994003066 -0.019362863187676133 0.09307299106937804
-0.060348746256513645 0.06985613052183845 0.047678756771473
-0.04725783740285885 0.06118145572526842 0.05195530858402558
-0.03416692854920403 0.05250678092869838 0.056231860396578154
-0.021076019695549213 0.043832106132128346 0.06050841220913074
-0.007985110841894398 0.0351574313355583 0.06478496402168332
0.00510579801176042 0.02648275653898826 0.0690615158342359
0.01819670686541523 0.017808081742418227 0.07333806764678848
0.031287615719070044 0.009133406945848188 0.07761461945934106
0.04437852457272486 0.0004587321492781413 0.08189117127189365
0.05746943342637967 -0.008215942647291898 0.08616772308444623
-0.050706432770164636 0.08100305106222269 0.04077348878654118
-0.03761552391650983 0.07232837626565265 0.04505004059909376
-0.024524615062855016 0.06365370146908261 0.04932659241164634
-0.011433706209200204 0.05497902667251258 0.05360314422419892
0.0016572026444546138 0.04630435187594254 0.057879696036751506
0.01474811149810943 0.037629677079372495 0.06215624784930408
0.02783902035176424 0.028955002282802463 0.06643279966185667
0.040929929205419054 0.020280327486232423 0.07070935147440925
0.05402083805907388 0.01160565268966238 0.07498590328696184
0.06711174691272868 0.002930977893092344 0.0792624550995144
-0.041064119283815634 0.09214997160260692 0.03386822080160937
-0.02797321043016083 0.08347529680603688 0.038144772614161944
-0.01488230157650601 0.07480062200946684 0.04242132442671453
-0.0017913927228511992 0.0661259472128968 0.04669787623926711
0.011299516130803617 0.05745127241632677 0.05097442805181969
0.024390424984458432 0.04877659761975673 0.055250979864372274
0.037481333838113244 0.04010192282318669 0.05952753167692485
0.050572242691768056 0.03142724802661665 0.06380408348947743
0.06366315154542289 0.022752573230046612 0.06808063530203001
0.07675406039907769 0.014077898433476572 0.0723571871145826
-0.031421805797466625 0.10329689214299116 0.02696295281667755
-0.018330896943811823 0.09462221734642112 0.031239504629230128
-0.0052399880901570035 0.08594754254985108 0.03551605644178271
0.007850920763497807 0.07727286775328104 0.039792608254335296
0.020941829617152623 0.068598192956711 0.04406916006688787
0.03403273847080744 0.059923518160140965 0.04834571187944046
0.047123647324462246 0.051248843363570926 0.052622263691993035
0.06021455617811706 0.042574168567000886 0.05689881550454562
0.07330546503177189 0.03389949377043085 0.0611753673170982
0.0863963738854267 0.025224818973860808 0.06545191912965079
-0.021779492311117615 0.1144438126833754 0.020057684831745734
-0.00868858345746281 0.10576913788680536 0.02433423664429831
0.004402325396192009 0.09709446309023533 0.028610788456850896
0.01749323424984682 0.08841978829366529 0.03288734026940348
0.030584143103501635 0.07974511349709525 0.03716389208195606
0.04367505195715645 0.07107043870052521 0.04144044389450864
0.05676596081081126 0.06239576390395517 0.04571699570706122
0.06985686966446608 0.05372108910738513 0.0499935475196138
0.08294777851812091 0.04504641431081509 0.05427009933216639
0.0960386873717757 0.03637173951424505 0.058546651144718964
-0.012137178824768613 0.12559073322375963 0.013152416846813918
0.0009537300288861928 0.11691605842718959 0.017428968659366502
0.01404463888254101 0.10824138363061955 0.02170552047191908
0.027135547736195822 0.09956670883404951 0.025982072284471663
0.04022645658985064 0.09089203403747947 0.030258624097024248
0.05331736544350545 0.08221735924090944 0.03453517590957683
0.06640827429716027 0.0735426844443394 0.03881172772212941
0.07949918315081508 0.06486800964776936 0.043088279534681986
0.09259009200446991 0.05619333485119932 0.04736483134723457
0.10568100085812471 0.04751866005462928 0.051641383159787155
