# .PCD v0.7 - Point Cloud Data file format
VERSION 0.7
FIELDS x y z
SIZE 4 4 4
TYPE F F F
COUNT 1 1 1
WIDTH 600
HEIGHT 1
VIEWPOINT 0 0 0 1 0 0 0
POINTS 600
DATA ascii
-0.18227617435455654 -0.1463564657331553 -0.04496145572784299
-0.17312794490857603 -0.12351256392045232 -0.06305138367820669
-0.16397971546259552 -0.10066866210774933 -0.08114131162857038
-0.15483148601661503 -0.07782476029504634 -0.09923123957893408
-0.1456832565706345 -0.054980858482343346 -0.11732116752929779
-0.136535027124654 -0.03213695666964035 -0.1354110954796615
-0.1273867976786735 -0.009293054856937362 -0.1535010234300252
-0.11823856823269299 0.013550846955765626 -0.1715909513803889
-0.10909033878671248 0.03639474876846861 -0.18968087933075262
-0.09994210934073197 0.0592386505811716 -0.2077708072811163
-0.17996600470965857 -0.1280242421517045 -0.020643311472049956
-0.17081777526367806 -0.10518034033900149 -0.038733239422413655
-0.16166954581769755 -0.0823364385262985 -0.05682316737277735
-0.15252131637171706 -0.05949253671359552 -0.07491309532314105
-0.14337308692573653 -0.03664863490089252 -0.09300302327350475
-0.13422485747975604 -0.013804733088189523 -0.11109295122386846
-0.12507662803377553 0.009039168724513465 -0.12918287917423216
-0.11592839858779502 0.03188307053721645 -0.14727280712459587
-0.10678016914181451 0.05472697234991944 -0.16536273507495958
-0.097631939695834 0.07757087416262243 -0.18345266302532326
-0.1776558350647606 -0.10969201857025367 0.0036748327837430816
-0.1685076056187801 -0.08684811675755066 -0.014415095166620614
-0.15935937617279958 -0.06400421494484768 -0.03250502311698431
-0.1502111467268191 -0.041160313132144695 -0.05059495106734801
-0.14106291728083856 -0.018316411319441697 -0.06868487901771171
-0.13191468783485807 0.004527490493261303 -0.08677480696807542
-0.12276645838887756 0.02737139230596429 -0.1048647349184391
-0.11361822894289705 0.05021529411866728 -0.12295466286880281
-0.10446999949691654 0.07305919593137027 -0.14104459081916654
-0.09532177005093603 0.09590309774407325 -0.15913451876953022
-0.17534566541986263 -0.09135979498880284 0.02799297703953612
-0.16619743597388212 -0.06851589317609985 0.009903049089172422
-0.1570492065279016 -0.045671991363396856 -0.008186878861191278
-0.14790097708192113 -0.02282808955069387 -0.026276806811554972
-0.1387527476359406 1.5812262009129887e-05 -0.04436673476191868
-0.1296045181899601 0.02285971407471213 -0.06245666271228238
-0.12045628874397958 0.04570361588741512 -0.08054659066264608
-0.11130805929799907 0.0685475177001181 -0.09863651861300979
-0.10215982985201856 0.09139141951282109 -0.1167264465633735
-0.09301160040603805 0.11423532132552408 -0.13481637451373718
-0.17303549577496466 -0.07302757140735201 0.052311121295329166
-0.16388726632898415 -0.05018366959464901 0.03422119334496547
-0.15473903688300364 -0.027339767781946023 0.01613126539460177
-0.14559080743702316 -0.0044958659692430365 -0.0019586625557619277
-0.13644257799104262 0.018348035843459964 -0.020048590506125633
-0.12729434854506214 0.04119193765616296 -0.038138518456489336
-0.11814611909908161 0.06403583946886594 -0.056228446406853025
-0.1089978896531011 0.08687974128156893 -0.07431837435721673
-0.09984966020712059 0.10972364309427192 -0.09240830230758044
-0.09070143076114008 0.13256754490697492 -0.11049823025794414
-0.17072532613006666 -0.05469534782590118 0.0766292655511222
-0.16157709668408615 -0.031851446013198184 0.05853933760075851
-0.15242886723810564 -0.009007544200495194 0.04044940965039481
-0.14328063779212516 0.013836357612207794 0.022359481700031113
-0.13413240834614462 0.036680259424910794 0.004269553749667409
-0.12498417890016415 0.05952416123761379 -0.013820374200696295
-0.11583594945418364 0.08236806305031678 -0.031910302151059985
-0.10668772000820313 0.10521196486301977 -0.050000230101423696
-0.09753949056222262 0.12805586667572275 -0.0680901580517874
-0.08839126111624211 0.15089976848842573 -0.0861800860021511
-0.1684151564851687 -0.03636312424445036 0.10094740980691523
-0.15926692703918818 -0.013519222431747363 0.08285748185655153
-0.15011869759320767 0.009324679380955625 0.06476755390618784
-0.1409704681472272 0.03216858119365861 0.04667762595582414
-0.13182223870124665 0.055012483006361614 0.028587698005460436
-0.12267400925526618 0.07785638481906461 0.010497770055096734
-0.11352577980928567 0.1007002866317676 -0.007592157895266955
-0.10437755036330516 0.12354418844447058 -0.025682085845630667
-0.09522932091732465 0.1463880902571736 -0.04377201379599437
-0.08608109147134414 0.16923199206987657 -0.06186194174635807
-0.16610498684027072 -0.01803090066299953 0.12526555406270828
-0.15695675739429021 0.004813001149703467 0.10717562611234459
-0.1478085279483097 0.027656902962406454 0.08908569816198088
-0.13866029850232922 0.050500804775109445 0.07099577021161718
-0.12951206905634868 0.07334470658781245 0.05290584226125348
-0.1203638396103682 0.09618860840051544 0.034815914310889776
-0.11121561016438769 0.11903251021321842 0.016725986360526086
-0.10206738071840718 0.1418764120259214 -0.001363941589837622
-0.09291915127242667 0.1647203138386244 -0.019453869540201334
-0.08377092182644616 0.1875642156513274 -0.03754379749056503
-0.16379481719537275 0.00030132291845130646 0.14958369831850132
-0.15464658774939224 0.023145224731154303 0.13149377036813764
-0.14549835830341173 0.04598912654385729 0.11340384241777393
-0.13635012885743125 0.06883302835656027 0.09531391446741024
-0.12720189941145071 0.09167693016926327 0.07722398651704653
-0.11805366996547023 0.11452083198196628 0.05913405856668283
-0.10890544051948972 0.13736473379466926 0.04104413061631914
-0.09975721107350921 0.16020863560737225 0.022954202665955426
-0.0906089816275287 0.18305253742007524 0.004864274715591716
-0.08146075218154819 0.20589643923277823 -0.01322565323477198
-0.16148464755047479 0.01863354649990213 0.17390184257429436
-0.15233641810449428 0.04147744831260513 0.15581191462393068
-0.14318818865851377 0.06432135012530811 0.13772198667356697
-0.13403995921253328 0.0871652519380111 0.11963205872320327
-0.12489172976655274 0.1100091537507141 0.10154213077283956
-0.11574350032057226 0.1328530555634171 0.08345220282247587
-0.10659527087459175 0.15569695737612008 0.06536227487211217
-0.09744704142861124 0.17854085918882306 0.04727234692174846
-0.08829881198263073 0.20138476100152605 0.029182418971384752
-0.07915058253665022 0.22422866281422904 0.011092491021021058
0.07915058253665022 -0.22422866281422904 -0.011092491021021058
0.08829881198263073 -0.20138476100152605 -0.029182418971384752
0.09744704142861123 -0.17854085918882306 -0.04727234692174846
0.10659527087459174 -0.15569695737612008 -0.06536227487211216
0.11574350032057226 -0.1328530555634171 -0.08345220282247587
0.12489172976655274 -0.1100091537507141 -0.10154213077283956
0.13403995921253326 -0.08716525193801111 -0.11963205872320326
0.14318818865851377 -0.06432135012530812 -0.13772198667356697
0.15233641810449428 -0.04147744831260513 -0.15581191462393068
0.16148464755047479 -0.01863354649990213 -0.17390184257429436
0.08146075218154819 -0.20589643923277823 0.01322565323477198
0.0906089816275287 -0.18305253742007524 -0.004864274715591716
0.0997572110735092 -0.16020863560737225 -0.022954202665955426
0.10890544051948971 -0.13736473379466926 -0.041044130616319126
0.11805366996547023 -0.11452083198196628 -0.05913405856668283
0.12720189941145071 -0.09167693016926327 -0.07722398651704653
0.13635012885743122 -0.06883302835656029 -0.09531391446741022
0.14549835830341173 -0.0459891265438573 -0.11340384241777393
0.15464658774939224 -0.023145224731154303 -0.13149377036813764
0.16379481719537275 -0.00030132291845130646 -0.14958369831850132
0.08377092182644616 -0.1875642156513274 0.037543797490565016
0.09291915127242667 -0.1647203138386244 0.01945386954020132
0.10206738071840717 -0.1418764120259214 0.0013639415898376109
0.11121561016438768 -0.11903251021321844 -0.016725986360526086
0.1203638396103682 -0.09618860840051545 -0.03481591431088979
0.12951206905634868 -0.07334470658781245 -0.05290584226125349
0.1386602985023292 -0.050500804775109466 -0.07099577021161718
0.1478085279483097 -0.02765690296240647 -0.08908569816198089
0.15695675739429021 -0.004813001149703475 -0.10717562611234459
0.16610498684027072 0.01803090066299952 -0.12526555406270828
0.08608109147134414 -0.16923199206987657 0.061861941746358055
0.09522932091732465 -0.1463880902571736 0.04377201379599436
0.10437755036330515 -0.1235441884444706 0.02568208584563065
0.11352577980928566 -0.10070028663176761 0.007592157895266952
0.12267400925526618 -0.07785638481906462 -0.010497770055096752
0.13182223870124665 -0.05501248300636163 -0.028587698005460453
0.14097046814722716 -0.03216858119365864 -0.04667762595582415
0.15011869759320767 -0.009324679380955644 -0.06476755390618785
0.15926692703918818 0.01351922243174735 -0.08285748185655156
0.1684151564851687 0.036363124244450346 -0.10094740980691526
0.08839126111624211 -0.15089976848842573 0.0861800860021511
0.09753949056222262 -0.12805586667572275 0.0680901580517874
0.10668772000820312 -0.10521196486301977 0.050000230101423696
0.11583594945418363 -0.08236806305031678 0.03191030215106
0.12498417890016415 -0.05952416123761379 0.013820374200696295
0.13413240834614462 -0.036680259424910794 -0.004269553749667409
0.14328063779212513 -0.013836357612207808 -0.0223594817000311
0.15242886723810564 0.009007544200495187 -0.040449409650394806
0.16157709668408615 0.031851446013198184 -0.05853933760075851
0.17072532613006666 0.05469534782590118 -0.0766292655511222
0.09070143076114008 -0.13256754490697492 0.11049823025794414
0.09984966020712059 -0.10972364309427192 0.09240830230758044
0.10899788965310109 -0.08687974128156893 0.07431837435721673
0.1181461190990816 -0.06403583946886594 0.05622844640685304
0.12729434854506214 -0.04119193765616296 0.038138518456489336
0.13644257799104262 -0.018348035843459964 0.020048590506125633
0.14559080743702313 0.004495865969243023 0.0019586625557619416
0.15473903688300364 0.027339767781946016 -0.016131265394601763
0.16388726632898415 0.05018366959464901 -0.03422119334496547
0.17303549577496466 0.07302757140735201 -0.052311121295329166
0.09301160040603805 -0.1142353213255241 0.13481637451373718
0.10215982985201856 -0.0913914195128211 0.11672644656337347
0.11130805929799906 -0.06854751770011812 0.09863651861300976
0.12045628874397957 -0.04570361588741513 0.08054659066264606
0.1296045181899601 -0.022859714074712142 0.06245666271228237
0.1387527476359406 -1.5812262009142383e-05 0.044366734761918665
0.1479009770819211 0.02282808955069384 0.02627680681155497
0.1570492065279016 0.045671991363396836 0.008186878861191267
0.16619743597388212 0.06851589317609984 -0.009903049089172439
0.17534566541986263 0.09135979498880283 -0.027992977039536137
0.09532177005093603 -0.09590309774407327 0.15913451876953022
0.10446999949691654 -0.07305919593137028 0.1410445908191665
0.11361822894289704 -0.050215294118667285 0.12295466286880281
0.12276645838887755 -0.0273713923059643 0.10486473491843912
0.13191468783485807 -0.004527490493261311 0.08677480696807541
0.14106291728083856 0.018316411319441686 0.06868487901771171
0.15021114672681907 0.041160313132144674 0.050594951067348015
0.15935937617279958 0.06400421494484766 0.03250502311698431
0.1685076056187801 0.08684811675755066 0.014415095166620604
0.1776558350647606 0.10969201857025365 -0.0036748327837430924
0.097631939695834 -0.07757087416262243 0.18345266302532326
0.10678016914181451 -0.05472697234991944 0.16536273507495958
0.11592839858779501 -0.03188307053721645 0.14727280712459587
0.1250766280337755 -0.009039168724513465 0.12918287917423216
0.13422485747975604 0.013804733088189523 0.11109295122386846
0.14337308692573653 0.03664863490089252 0.09300302327350475
0.15252131637171704 0.05949253671359551 0.07491309532314107
0.16166954581769755 0.0823364385262985 0.05682316737277736
0.17081777526367806 0.10518034033900149 0.038733239422413655
0.17996600470965857 0.1280242421517045 0.020643311472049956
0.09994210934073197 -0.0592386505811716 0.2077708072811163
0.10909033878671248 -0.03639474876846861 0.18968087933075262
0.11823856823269298 -0.013550846955765626 0.1715909513803889
0.1273867976786735 0.009293054856937362 0.1535010234300252
0.136535027124654 0.03213695666964035 0.1354110954796615
0.1456832565706345 0.054980858482343346 0.11732116752929779
0.154831486016615 0.07782476029504633 0.0992312395789341
0.16397971546259552 0.10066866210774933 0.0811413116285704
0.17312794490857603 0.12351256392045232 0.06305138367820669
0.18227617435455654 0.1463564657331553 0.04496145572784299
-0.18227617435455654 -0.1463564657331553 -0.04496145572784299
-0.15322875692220023 -0.15500893207549682 -0.04119823742708499
-0.12418133948984394 -0.16366139841783836 -0.037435019126327004
-0.09513392205748764 -0.17231386476017987 -0.03367180082556902
-0.06608650462513133 -0.18096633110252142 -0.029908582524811017
-0.03703908719277501 -0.18961879744486296 -0.02614536422405303
-0.007991669760418714 -0.19827126378720447 -0.022382145923295044
0.021055747671937595 -0.20692373012954599 -0.018618927622537043
0.050103165104293905 -0.21557619647188753 -0.014855709321779058
0.07915058253665022 -0.22422866281422904 -0.011092491021021058
-0.17996600470965857 -0.1280242421517045 -0.020643311472049956
-0.15091858727730226 -0.136676708494046 -0.016880093171291955
-0.12187116984494598 -0.14532917483638755 -0.013116874870533968
-0.09282375241258967 -0.15398164117872906 -0.009353656569775982
-0.06377633498023334 -0.16263410752107058 -0.005590438269017981
-0.03472891754787704 -0.17128657386341212 -0.0018272199682599947
-0.005681500115520742 -0.17993904020575363 0.001935998332497992
0.023365917316835568 -0.18859150654809517 0.005699216633255993
0.052413334749191874 -0.19724397289043671 0.00946243493401398
0.08146075218154819 -0.20589643923277823 0.01322565323477198
-0.1776558350647606 -0.10969201857025367 0.0036748327837430816
-0.1486084176324043 -0.11834448491259518 0.007438051084501082
-0.119561000200048 -0.1269969512549367 0.01120126938525907
-0.0905135827676917 -0.13564941759727822 0.014964487686017056
-0.061466165335335374 -0.14430188393961976 0.018727705986775055
-0.032418747902979064 -0.1529543502819613 0.02249092428753304
-0.00337133047062277 -0.16160681662430282 0.026254142588291028
0.02567608696173354 -0.17025928296664433 0.03001736088904903
0.05472350439408985 -0.17891174930898587 0.033780579189807015
0.08377092182644616 -0.1875642156513274 0.037543797490565016
-0.17534566541986263 -0.09135979498880284 0.02799297703953612
-0.14629824798750632 -0.10001226133114435 0.03175619534029412
-0.11725083055515002 -0.1086647276734859 0.03551941364105211
-0.08820341312279371 -0.11731719401582741 0.039282631941810094
-0.059155995690437405 -0.12596966035816895 0.043045850242568094
-0.030108578258081095 -0.1346221267005105 0.04680906854332608
-0.001061160825724798 -0.143274593042852 0.05057228684408407
0.02798625660663151 -0.15192705938519352 0.05433550514484207
0.05703367403898782 -0.16057952572753506 0.058098723445600055
0.08608109147134414 -0.16923199206987657 0.061861941746358055
-0.17303549577496466 -0.07302757140735201 0.052311121295329166
-0.14398807834260835 -0.08168003774969353 0.05607433959608717
-0.11494066091025205 -0.09033250409203507 0.05983755789684515
-0.08589324347789574 -0.09898497043437658 0.06360077619760314
-0.05684582604553943 -0.10763743677671811 0.06736399449836114
-0.02779840861318312 -0.11628990311905965 0.07112721279911913
0.0012490088191731748 -0.12494236946140116 0.07489043109987711
0.030296426251529486 -0.13359483580374268 0.07865364940063511
0.059343843683885796 -0.14224730214608422 0.0824168677013931
0.08839126111624211 -0.15089976848842573 0.0861800860021511
-0.17072532613006666 -0.05469534782590118 0.0766292655511222
-0.14167790869771035 -0.06334781416824269 0.0803924838518802
-0.11263049126535409 -0.07200028051058423 0.08415570215263819
-0.08358307383299778 -0.08065274685292574 0.08791892045339618
-0.05453565640064146 -0.08930521319526727 0.09168213875415418
-0.02548823896828515 -0.09795767953760881 0.09544535705491217
0.0035591784640711475 -0.10661014587995032 0.09920857535567015
0.032606595896427455 -0.11526261222229185 0.10297179365642815
0.061654013328783765 -0.1239150785646334 0.10673501195718614
0.09070143076114008 -0.13256754490697492 0.11049823025794414
-0.1684151564851687 -0.03636312424445036 0.10094740980691523
-0.13936773905281238 -0.04501559058679187 0.10471062810767323
-0.11032032162045612 -0.053668056929133415 0.10847384640843122
-0.0812729041880998 -0.06232052327147493 0.1122370647091892
-0.05222548675574348 -0.07097298961381646 0.1160002830099472
-0.023178069323387177 -0.079625455956158 0.11976350131070519
0.005869348108969118 -0.08827792229849951 0.12352671961146318
0.03491676554132543 -0.09693038864084104 0.12728993791222118
0.06396418297368174 -0.10558285498318258 0.13105315621297917
0.09301160040603805 -0.1142353213255241 0.13481637451373718
-0.16610498684027072 -0.01803090066299953 0.12526555406270828
-0.13705756940791441 -0.026683367005341043 0.12902877236346627
-0.10801015197555813 -0.03533583334768258 0.13279199066422426
-0.07896273454320182 -0.043988299690024095 0.13655520896498224
-0.049915317110845514 -0.05264076603236562 0.14031842726574026
-0.020867899678489205 -0.061293232374707164 0.14408164556649825
0.008179517753867091 -0.06994569871704868 0.14784486386725623
0.0372269351862234 -0.07859816505939021 0.15160808216801422
0.06627435261857971 -0.08725063140173175 0.1553713004687722
0.09532177005093603 -0.09590309774407327 0.15913451876953022
-0.16379481719537275 0.00030132291845130646 0.14958369831850132
-0.13474739976301645 -0.008351143423890208 0.15334691661925934
-0.10569998233066016 -0.017003609766231748 0.15711013492001732
-0.07665256489830385 -0.02565607610857326 0.1608733532207753
-0.04760514746594754 -0.03430854245091479 0.1646365715215333
-0.018557730033591232 -0.04296100879325633 0.16839978982229128
0.010489687398765064 -0.051613475135597844 0.17216300812304927
0.03953710483112138 -0.06026594147793937 0.17592622642380729
0.06858452226347768 -0.06891840782028091 0.17968944472456527
0.097631939695834 -0.07757087416262243 0.18345266302532326
-0.16148464755047479 0.01863354649990213 0.17390184257429436
-0.13243723011811848 0.009981080157560619 0.17766506087505238
-0.1033898126857622 0.0013286138152190771 0.18142827917581036
-0.07434239525340589 -0.0073238525271224365 0.18519149747656835
-0.04529497782104957 -0.015976318869463966 0.18895471577732634
-0.01624756038869326 -0.024628785211805507 0.19271793407808432
0.012799857043663036 -0.03328125155414702 0.1964811523788423
0.041847274476019346 -0.041933717896488545 0.20024437067960033
0.07089469190837566 -0.05058618423883009 0.2040075889803583
0.09994210934073197 -0.0592386505811716 0.2077708072811163
-0.09994210934073197 0.0592386505811716 -0.2077708072811163
-0.07089469190837566 0.05058618423883009 -0.2040075889803583
-0.04184727447601936 0.041933717896488545 -0.20024437067960033
-0.01279985704366305 0.03328125155414703 -0.19648115237884234
0.01624756038869326 0.024628785211805507 -0.19271793407808432
0.04529497782104957 0.015976318869463966 -0.18895471577732634
0.07434239525340586 0.00732385252712245 -0.18519149747656835
0.10338981268576217 -0.0013286138152190771 -0.18142827917581036
0.13243723011811848 -0.009981080157560619 -0.17766506087505238
0.16148464755047479 -0.01863354649990213 -0.17390184257429436
-0.097631939695834 0.07757087416262243 -0.18345266302532326
-0.06858452226347768 0.06891840782028091 -0.17968944472456527
-0.03953710483112139 0.06026594147793937 -0.17592622642380729
-0.010489687398765078 0.05161347513559786 -0.1721630081230493
0.018557730033591232 0.04296100879325633 -0.16839978982229128
0.04760514746594754 0.03430854245091479 -0.1646365715215333
0.07665256489830383 0.025656076108573275 -0.1608733532207753
0.10569998233066014 0.017003609766231748 -0.15711013492001732
0.13474739976301645 0.008351143423890208 -0.15334691661925934
0.16379481719537275 -0.00030132291845130646 -0.14958369831850132
-0.09532177005093603 0.09590309774407325 -0.15913451876953022
-0.06627435261857971 0.08725063140173174 -0.15537130046877223
-0.037226935186223414 0.0785981650593902 -0.15160808216801425
-0.008179517753867107 0.06994569871704868 -0.14784486386725626
0.020867899678489205 0.06129323237470716 -0.14408164556649825
0.049915317110845514 0.052640766032365616 -0.14031842726574026
0.0789627345432018 0.0439882996900241 -0.13655520896498227
0.1080101519755581 0.035335833347682574 -0.13279199066422429
0.13705756940791441 0.026683367005341033 -0.1290287723634663
0.16610498684027072 0.01803090066299952 -0.12526555406270828
-0.09301160040603805 0.11423532132552408 -0.13481637451373718
-0.06396418297368174 0.10558285498318257 -0.1310531562129792
-0.034916765541325445 0.09693038864084103 -0.1272899379122212
-0.005869348108969134 0.08827792229849951 -0.12352671961146322
0.023178069323387174 0.07962545595615798 -0.11976350131070522
0.05222548675574348 0.07097298961381644 -0.11600028300994723
0.08127290418809978 0.06232052327147493 -0.11223706470918925
0.11032032162045609 0.0536680569291334 -0.10847384640843125
0.13936773905281238 0.04501559058679186 -0.10471062810767326
0.1684151564851687 0.036363124244450346 -0.10094740980691526
-0.09070143076114008 0.13256754490697492 -0.11049823025794414
-0.061654013328783765 0.1239150785646334 -0.10673501195718614
-0.03260659589642747 0.11526261222229185 -0.10297179365642815
-0.0035591784640711614 0.10661014587995034 -0.09920857535567017
0.02548823896828515 0.09795767953760881 -0.09544535705491217
0.05453565640064146 0.08930521319526727 -0.09168213875415418
0.08358307383299775 0.08065274685292576 -0.0879189204533962
0.11263049126535406 0.07200028051058423 -0.08415570215263819
0.14167790869771035 0.06334781416824269 -0.0803924838518802
0.17072532613006666 0.05469534782590118 -0.0766292655511222
-0.08839126111624211 0.15089976848842573 -0.0861800860021511
-0.059343843683885796 0.14224730214608422 -0.0824168677013931
-0.0302964262515295 0.13359483580374268 -0.07865364940063511
-0.0012490088191731887 0.12494236946140118 -0.07489043109987713
0.02779840861318312 0.11628990311905965 -0.07112721279911913
0.05684582604553943 0.10763743677671811 -0.06736399449836114
0.08589324347789572 0.0989849704343766 -0.06360077619760315
0.11494066091025203 0.09033250409203507 -0.05983755789684515
0.14398807834260835 0.08168003774969353 -0.05607433959608717
0.17303549577496466 0.07302757140735201 -0.052311121295329166
-0.08608109147134414 0.16923199206987657 -0.06186194174635807
-0.05703367403898782 0.16057952572753506 -0.05809872344560007
-0.027986256606631527 0.15192705938519352 -0.05433550514484208
0.0010611608257247824 0.143274593042852 -0.050572286844084095
0.03010857825808109 0.13462212670051046 -0.046809068543326095
0.059155995690437405 0.12596966035816892 -0.04304585024256811
0.08820341312279369 0.11731719401582741 -0.03928263194181012
0.11725083055515 0.10866472767348588 -0.03551941364105212
0.14629824798750632 0.10001226133114434 -0.031756195340294134
0.17534566541986263 0.09135979498880283 -0.027992977039536137
-0.08377092182644616 0.1875642156513274 -0.03754379749056503
-0.05472350439408985 0.17891174930898587 -0.03378057918980703
-0.025676086961733555 0.17025928296664433 -0.030017360889049043
0.0033713304706227552 0.16160681662430282 -0.026254142588291056
0.032418747902979064 0.1529543502819613 -0.022490924287533055
0.061466165335335374 0.14430188393961976 -0.01872770598677507
0.09051358276769167 0.13564941759727825 -0.01496448768601708
0.11956100020004798 0.1269969512549367 -0.01120126938525908
0.1486084176324043 0.11834448491259517 -0.007438051084501093
0.1776558350647606 0.10969201857025365 -0.0036748327837430924
-0.08146075218154819 0.20589643923277823 -0.01322565323477198
-0.052413334749191874 0.19724397289043671 -0.00946243493401398
-0.023365917316835582 0.18859150654809517 -0.005699216633255993
0.005681500115520728 0.17993904020575366 -0.0019359983324980059
0.03472891754787704 0.17128657386341212 0.0018272199682599947
0.06377633498023334 0.16263410752107058 0.005590438269017981
0.09282375241258964 0.15398164117872906 0.009353656569775968
0.12187116984494595 0.14532917483638755 0.013116874870533968
0.15091858727730226 0.136676708494046 0.016880093171291955
0.17996600470965857 0.1280242421517045 0.020643311472049956
-0.07915058253665022 0.22422866281422904 0.011092491021021058
-0.050103165104293905 0.21557619647188753 0.014855709321779058
-0.02105574767193761 0.20692373012954599 0.018618927622537043
0.0079916697604187 0.19827126378720447 0.02238214592329503
0.03703908719277501 0.18961879744486296 0.02614536422405303
0.06608650462513133 0.18096633110252142 0.029908582524811017
0.09513392205748761 0.1723138647601799 0.033671800825569004
0.12418133948984392 0.16366139841783836 0.037435019126327004
0.15322875692220023 0.15500893207549682 0.04119823742708499
0.18227617435455654 0.1463564657331553 0.04496145572784299
-0.18227617435455654 -0.1463564657331553 -0.04496145572784299
-0.15322875692220023 -0.15500893207549682 -0.04119823742708499
-0.12418133948984394 -0.16366139841783836 -0.037435019126327004
-0.09513392205748764 -0.17231386476017987 -0.03367180082556902
-0.06608650462513133 -0.18096633110252142 -0.029908582524811017
-0.03703908719277501 -0.18961879744486296 -0.02614536422405303
-0.007991669760418714 -0.19827126378720447 -0.022382145923295044
0.021055747671937595 -0.20692373012954599 -0.018618927622537043
0.050103165104293905 -0.21557619647188753 -0.014855709321779058
0.07915058253665022 -0.22422866281422904 -0.011092491021021058
-0.17312794490857603 -0.12351256392045232 -0.06305138367820669
-0.14408052747621972 -0.13216503026279386 -0.05928816537744869
-0.11503311004386343 -0.14081749660513537 -0.0555249470766907
-0.08598569261150713 -0.1494699629474769 -0.05176172877593271
-0.05693827517915081 -0.15812242928981843 -0.04799851047517471
-0.0278908577467945 -0.16677489563215997 -0.04423529217441673
0.0011565596855617963 -0.17542736197450148 -0.04047207387365874
0.030203977117918106 -0.184079828316843 -0.03670885557290074
0.05925139455027442 -0.19273229465918454 -0.03294563727214275
0.08829881198263073 -0.20138476100152605 -0.029182418971384752
-0.16397971546259552 -0.10066866210774933 -0.08114131162857038
-0.13493229803023923 -0.10932112845009086 -0.0773780933278124
-0.10588488059788292 -0.11797359479243238 -0.07361487502705441
-0.07683746316552661 -0.12662606113477393 -0.06985165672629641
-0.047790045733170305 -0.13527852747711544 -0.06608843842553842
-0.018742628300813993 -0.14393099381945698 -0.06232522012478043
0.010304789131542303 -0.1525834601617985 -0.058562001824022436
0.03935220656389861 -0.16123592650414 -0.05479878352326444
0.06839962399625492 -0.16988839284648155 -0.05103556522250645
0.09744704142861123 -0.17854085918882306 -0.04727234692174846
-0.15483148601661503 -0.07782476029504634 -0.09923123957893408
-0.12578406858425872 -0.08647722663738787 -0.0954680212781761
-0.09673665115190241 -0.0951296929797294 -0.0917048029774181
-0.0676892337195461 -0.10378215932207092 -0.0879415846766601
-0.038641816287189795 -0.11243462566441245 -0.08417836637590212
-0.009594398854833486 -0.12108709200675398 -0.08041514807514412
0.01945301857752281 -0.1297395583490955 -0.07665192977438613
0.04850043600987912 -0.13839202469143702 -0.07288871147362815
0.07754785344223543 -0.14704449103377856 -0.06912549317287014
0.10659527087459174 -0.15569695737612008 -0.06536227487211216
-0.1456832565706345 -0.054980858482343346 -0.11732116752929779
-0.1166358391382782 -0.06363332482468488 -0.1135579492285398
-0.0875884217059219 -0.07228579116702641 -0.1097947309277818
-0.058541004273565594 -0.08093825750936792 -0.10603151262702382
-0.029493586841209285 -0.08959072385170946 -0.10226829432626583
-0.0004461694088529756 -0.09824319019405099 -0.09850507602550783
0.02860124802350332 -0.1068956565363925 -0.09474185772474984
0.05764866545585963 -0.11554812287873403 -0.09097863942399186
0.08669608288821594 -0.12420058922107557 -0.08721542112323385
0.11574350032057226 -0.1328530555634171 -0.08345220282247587
-0.136535027124654 -0.03213695666964035 -0.1354110954796615
-0.10748760969229769 -0.04078942301198188 -0.1316478771789035
-0.0784401922599414 -0.04944188935432341 -0.1278846588781455
-0.049392774827585084 -0.058094355696664934 -0.12412144057738751
-0.020345357395228775 -0.06674682203900646 -0.12035822227662953
0.008702060037127535 -0.07539928838134799 -0.11659500397587154
0.03774947746948383 -0.08405175472368952 -0.11283178567511354
0.06679689490184014 -0.09270422106603105 -0.10906856737435555
0.09584431233419645 -0.10135668740837257 -0.10530534907359757
0.12489172976655274 -0.1100091537507141 -0.10154213077283956
-0.1273867976786735 -0.009293054856937362 -0.1535010234300252
-0.09833938024631719 -0.0179455211992789 -0.1497378051292672
-0.0692919628139609 -0.026597987541620422 -0.1459745868285092
-0.04024454538160458 -0.03525045388396195 -0.1422113685277512
-0.011197127949248271 -0.04390292022630348 -0.13844815022699322
0.017850289483108038 -0.05255538656864501 -0.13468493192623524
0.046897706915464334 -0.06120785291098653 -0.13092171362547725
0.07594512434782064 -0.06986031925332806 -0.12715849532471923
0.10499254178017695 -0.07851278559566958 -0.12339527702396125
0.13403995921253326 -0.08716525193801111 -0.11963205872320326
-0.11823856823269299 0.013550846955765626 -0.1715909513803889
-0.08919115080033668 0.004898380613424099 -0.1678277330796309
-0.06014373336798038 -0.0037540857289174285 -0.1640645147788729
-0.03109631593562407 -0.012406552071258957 -0.16030129647811492
-0.002048898503267761 -0.021059018413600483 -0.15653807817735693
0.02699851892908855 -0.02971148475594201 -0.15277485987659895
0.05604593636144484 -0.03836395109828354 -0.14901164157584093
0.08509335379380115 -0.04701641744062507 -0.14524842327508294
0.11414077122615746 -0.0556688837829666 -0.14148520497432496
0.14318818865851377 -0.06432135012530812 -0.13772198667356697
-0.10909033878671248 0.03639474876846861 -0.18968087933075262
-0.08004292135435617 0.027742282426127102 -0.1859176610299946
-0.05099550392199987 0.01908981608378556 -0.18215444272923662
-0.02194808648964356 0.010437349741444045 -0.17839122442847863
0.007099330942712749 0.0017848833991025179 -0.17462800612772064
0.03614674837506906 -0.006867582943239024 -0.17086478782696266
0.06519416580742535 -0.015520049285580538 -0.16710156952620464
0.09424158323978166 -0.024172515627922064 -0.16333835122544665
0.12328900067213797 -0.0328249819702636 -0.15957513292468867
0.15233641810449428 -0.04147744831260513 -0.15581191462393068
-0.09994210934073197 0.0592386505811716 -0.2077708072811163
-0.07089469190837566 0.05058618423883009 -0.2040075889803583
-0.04184727447601936 0.041933717896488545 -0.20024437067960033
-0.01279985704366305 0.03328125155414703 -0.19648115237884234
0.01624756038869326 0.024628785211805507 -0.19271793407808432
0.04529497782104957 0.015976318869463966 -0.18895471577732634
0.07434239525340586 0.00732385252712245 -0.18519149747656835
0.10338981268576217 -0.0013286138152190771 -0.18142827917581036
0.13243723011811848 -0.009981080157560619 -0.17766506087505238
0.16148464755047479 -0.01863354649990213 -0.17390184257429436
-0.16148464755047479 0.01863354649990213 0.17390184257429436
-0.13243723011811848 0.009981080157560619 0.17766506087505238
-0.1033898126857622 0.0013286138152190771 0.18142827917581036
-0.07434239525340589 -0.0073238525271224365 0.18519149747656835
-0.04529497782104957 -0.015976318869463966 0.18895471577732634
-0.01624756038869326 -0.024628785211805507 0.19271793407808432
0.012799857043663036 -0.03328125155414702 0.1964811523788423
0.041847274476019346 -0.041933717896488545 0.20024437067960033
0.07089469190837566 -0.05058618423883009 0.2040075889803583
0.09994210934073197 -0.0592386505811716 0.2077708072811163
-0.15233641810449428 0.04147744831260513 0.15581191462393068
-0.12328900067213797 0.0328249819702636 0.15957513292468867
-0.09424158323978168 0.02417251562792207 0.16333835122544665
-0.06519416580742537 0.015520049285580552 0.16710156952620464
-0.03614674837506906 0.006867582943239024 0.17086478782696266
-0.007099330942712749 -0.0017848833991025179 0.17462800612772064
0.021948086489643547 -0.010437349741444031 0.17839122442847863
0.050995503921999856 -0.01908981608378556 0.18215444272923662
0.08004292135435617 -0.027742282426127102 0.1859176610299946
0.10909033878671248 -0.03639474876846861 0.18968087933075262
-0.14318818865851377 0.06432135012530811 0.13772198667356697
-0.11414077122615747 0.05566888378296659 0.14148520497432496
-0.08509335379380117 0.04701641744062506 0.14524842327508294
-0.056045936361444865 0.038363951098283534 0.14901164157584096
-0.026998518929088555 0.029711484755942003 0.15277485987659895
0.0020488985032677577 0.021059018413600476 0.15653807817735693
0.031096315935624053 0.012406552071258957 0.16030129647811492
0.06014373336798036 0.0037540857289174285 0.1640645147788729
0.08919115080033667 -0.004898380613424113 0.16782773307963092
0.11823856823269298 -0.013550846955765626 0.1715909513803889
-0.13403995921253328 0.0871652519380111 0.11963205872320327
-0.10499254178017696 0.07851278559566957 0.12339527702396126
-0.07594512434782066 0.06986031925332804 0.12715849532471926
-0.046897706915464354 0.06120785291098652 0.13092171362547725
-0.017850289483108045 0.052555386568644995 0.13468493192623524
0.011197127949248264 0.04390292022630347 0.13844815022699322
0.04024454538160456 0.035250453883961946 0.14221136852775124
0.06929196281396087 0.026597987541620415 0.14597458682850922
0.09833938024631718 0.017945521199278874 0.1497378051292672
0.1273867976786735 0.009293054856937362 0.1535010234300252
-0.12489172976655274 0.1100091537507141 0.10154213077283956
-0.09584431233419645 0.10135668740837257 0.10530534907359757
-0.06679689490184015 0.09270422106603105 0.10906856737435555
-0.037749477469483844 0.08405175472368952 0.11283178567511354
-0.008702060037127535 0.07539928838134799 0.11659500397587154
0.020345357395228775 0.06674682203900646 0.12035822227662953
0.04939277482758507 0.05809435569666494 0.12412144057738751
0.07844019225994138 0.049441889354323414 0.1278846588781455
0.10748760969229769 0.04078942301198188 0.1316478771789035
0.136535027124654 0.03213695666964035 0.1354110954796615
-0.11574350032057226 0.1328530555634171 0.08345220282247587
-0.08669608288821594 0.12420058922107557 0.08721542112323385
-0.05764866545585964 0.11554812287873405 0.09097863942399184
-0.028601248023503334 0.10689565653639252 0.09474185772474984
0.0004461694088529756 0.09824319019405099 0.09850507602550783
0.029493586841209285 0.08959072385170946 0.10226829432626583
0.05854100427356558 0.08093825750936794 0.10603151262702382
0.08758842170592189 0.07228579116702641 0.1097947309277818
0.1166358391382782 0.06363332482468488 0.1135579492285398
0.1456832565706345 0.054980858482343346 0.11732116752929779
-0.10659527087459175 0.15569695737612008 0.06536227487211217
-0.07754785344223544 0.14704449103377853 0.06912549317287016
-0.04850043600987914 0.13839202469143702 0.07288871147362816
-0.01945301857752283 0.1297395583490955 0.07665192977438615
0.009594398854833479 0.12108709200675397 0.08041514807514413
0.03864181628718979 0.11243462566441244 0.08417836637590213
0.06768923371954609 0.10378215932207092 0.08794158467666012
0.09673665115190239 0.0951296929797294 0.09170480297741812
0.1257840685842587 0.08647722663738786 0.09546802127817611
0.154831486016615 0.07782476029504633 0.0992312395789341
-0.09744704142861124 0.17854085918882306 0.04727234692174846
-0.06839962399625493 0.16988839284648155 0.05103556522250646
-0.03935220656389863 0.16123592650414 0.05479878352326445
-0.01030478913154232 0.1525834601617985 0.05856200182402244
0.01874262830081399 0.14393099381945695 0.06232522012478044
0.0477900457331703 0.13527852747711544 0.06608843842553842
0.07683746316552659 0.1266260611347739 0.06985165672629642
0.1058848805978829 0.11797359479243238 0.07361487502705441
0.1349322980302392 0.10932112845009086 0.0773780933278124
0.16397971546259552 0.10066866210774933 0.0811413116285704
-0.08829881198263073 0.20138476100152605 0.029182418971384752
-0.05925139455027442 0.19273229465918454 0.03294563727214275
-0.03020397711791812 0.184079828316843 0.03670885557290074
-0.0011565596855618102 0.17542736197450148 0.040472073873658726
0.0278908577467945 0.16677489563215997 0.04423529217441673
0.05693827517915081 0.15812242928981843 0.04799851047517471
0.0859856926115071 0.14946996294747691 0.05176172877593271
0.1150331100438634 0.14081749660513537 0.0555249470766907
0.14408052747621972 0.13216503026279386 0.05928816537744869
0.17312794490857603 0.12351256392045232 0.06305138367820669
-0.07915058253665022 0.22422866281422904 0.011092491021021058
-0.050103165104293905 0.21557619647188753 0.014855709321779058
-0.02105574767193761 0.20692373012954599 0.018618927622537043
0.0079916697604187 0.19827126378720447 0.02238214592329503
0.03703908719277501 0.18961879744486296 0.02614536422405303
0.06608650462513133 0.18096633110252142 0.029908582524811017
0.09513392205748761 0.1723138647601799 0.033671800825569004
0.12418133948984392 0.16366139841783836 0.037435019126327004
0.15322875692220023 0.15500893207549682 0.04119823742708499
0.18227617435455654 0.1463564657331553 0.04496145572784299
