# .PCD v0.7 - Point Cloud Data file format
VERSION 0.7
FIELDS x y z
SIZE 4 4 4
TYPE F F F
COUNT 1 1 1
WIDTH 600
HEIGHT 1
VIEWPOINT 0 0 0 1 0 0 0
POINTS 600
DATA ascii
-0.0919609584677376 -0.03358128532170801 -0.09948517851178855
-0.09202012453098239 -0.018351038883792237 -0.09006580963186432
-0.09207929059422719 -0.003120792445876453 -0.08064644075194008
-0.09213845665747199 0.012109453992039323 -0.07122707187201585
-0.09219762272071678 0.0273397004299551 -0.061807702992091616
-0.09225678878396158 0.04256994686787088 -0.05238833411216738
-0.09231595484720638 0.05780019330578665 -0.042968965232243146
-0.09237512091045118 0.07303043974370244 -0.03354959635231891
-0.09243428697369598 0.08826068618161821 -0.024130227472394676
-0.09249345303694077 0.10349093261953399 -0.014710858592470443
-0.08915203081323197 -0.04287621409308165 -0.08443849642417815
-0.08921119687647677 -0.027645967655165873 -0.07501912754425392
-0.08927036293972157 -0.01241572121725009 -0.06559975866432968
-0.08932952900296637 0.0028145252206656854 -0.056180389784405455
-0.08938869506621117 0.018044771658581465 -0.04676102090448122
-0.08944786112945596 0.033275018096497244 -0.037341652024556984
-0.08950702719270076 0.04850526453441301 -0.02792228314463275
-0.08956619325594556 0.0637355109723288 -0.018502914264708514
-0.08962535931919036 0.07896575741024457 -0.009083545384784281
-0.08968452538243515 0.09419600384816035 0.00033582349513995444
-0.08634310315872636 -0.05217114286445529 -0.06939181433656776
-0.08640226922197115 -0.03694089642653951 -0.05997244545664352
-0.08646143528521595 -0.021710649988623727 -0.050553076576719286
-0.08652060134846075 -0.006480403550707952 -0.04113370769679506
-0.08657976741170555 0.008749842887207825 -0.03171433881687082
-0.08663893347495034 0.023980089325123605 -0.022294969936946584
-0.08669809953819514 0.039210335763039374 -0.012875601057022354
-0.08675726560143994 0.05444058220095516 -0.003456232177098119
-0.08681643166468474 0.06967082863887093 0.005963136702826116
-0.08687559772792953 0.08490107507678671 0.015382505582750351
-0.08353417550422074 -0.06146607163582892 -0.05434513224895737
-0.08359334156746553 -0.046235825197913145 -0.04492576336903314
-0.08365250763071033 -0.03100557875999736 -0.0355063944891089
-0.08371167369395513 -0.015775332322081583 -0.026087025609184668
-0.08377083975719993 -0.0005450858841658067 -0.016667656729260433
-0.08383000582044473 0.01468516055374997 -0.007248287849336198
-0.08388917188368952 0.029915406991665745 0.002171081030588034
-0.08394833794693432 0.045145653429581524 0.011590449910512269
-0.08400750401017912 0.0603758998674973 0.021009818790436504
-0.08406667007342392 0.07560614630541308 0.03042918767036074
-0.08072524784971512 -0.07076100040720255 -0.039298450161346976
-0.08078441391295992 -0.05553075396928678 -0.02987908128142274
-0.08084357997620471 -0.040300507531370995 -0.020459712401498506
-0.08090274603944951 -0.025070261093455223 -0.011040343521574273
-0.08096191210269431 -0.009840014655539443 -0.0016209746416500379
-0.0810210781659391 0.005390231782376334 0.007798394238274197
-0.0810802442291839 0.020620478220292105 0.017217763118198427
-0.0811394102924287 0.035850724658207885 0.026637131998122662
-0.0811985763556735 0.05108097109612367 0.0360565008780469
-0.0812577424189183 0.06631121753403944 0.04547586975797113
-0.07791632019520951 -0.0800559291785762 -0.02425176807373658
-0.07797548625845431 -0.06482568274066042 -0.014832399193812346
-0.07803465232169911 -0.049595436302744635 -0.005413030313888111
-0.0780938183849439 -0.03436518986482886 0.004006338566036121
-0.0781529844481887 -0.01913494342691308 0.013425707445960356
-0.0782121505114335 -0.0039046969889973016 0.022845076325884592
-0.0782713165746783 0.01132554944891847 0.032264445205808824
-0.0783304826379231 0.026555795886834252 0.04168381408573306
-0.0783896487011679 0.04178604232475003 0.051103182965657294
-0.07844881476441269 0.057016288762665804 0.06052255184558153
-0.0751073925407039 -0.08935085794994982 -0.009205085986126195
-0.07516655860394869 -0.07412061151203404 0.0002142828937980406
-0.07522572466719349 -0.05889036507411827 0.009633651773722276
-0.07528489073043829 -0.04366011863620249 0.01905302065364651
-0.07534405679368308 -0.028429872198286712 0.028472389533570744
-0.07540322285692788 -0.013199625760370932 0.03789175841349498
-0.07546238892017268 0.0020306206775448396 0.04731112729341921
-0.07552155498341748 0.01726086711546062 0.05673049617334344
-0.07558072104666227 0.032491113553376395 0.06614986505326768
-0.07563988710990707 0.04772135999129217 0.07556923393319191
-0.07229846488619827 -0.09864578672132346 0.005841596101484202
-0.07235763094944307 -0.08341554028340768 0.015260964981408437
-0.07241679701268787 -0.0681852938454919 0.02468033386133267
-0.07247596307593267 -0.052955047407576124 0.034099702741256906
-0.07253512913917746 -0.03772480096966035 0.04351907162118114
-0.07259429520242226 -0.022494554531744572 0.052938440501105376
-0.07265346126566706 -0.007264308093828798 0.062357809381029604
-0.07271262732891186 0.007965938344086982 0.07177717826095384
-0.07277179339215666 0.02319618478200276 0.08119654714087808
-0.07283095945540145 0.03842643121991854 0.09061591602080231
-0.06948953723169266 -0.1079407154926971 0.020888278189094597
-0.06954870329493745 -0.09271046905478132 0.030307647069018832
-0.06960786935818225 -0.07748022261686555 0.03972701594894307
-0.06966703542142705 -0.06224997617894976 0.0491463848288673
-0.06972620148467185 -0.04701972974103399 0.05856575370879154
-0.06978536754791664 -0.03178948330311821 0.06798512258871577
-0.06984453361116144 -0.016559236865202435 0.07740449146864001
-0.06990369967440624 -0.001328990427286656 0.08682386034856424
-0.06996286573765104 0.013901256010629123 0.09624322922848848
-0.07002203180089583 0.0291315024485449 0.1056625981084127
-0.06668060957718704 -0.11723564426407074 0.035934960276704994
-0.06673977564043183 -0.10200539782615496 0.04535432915662923
-0.06679894170367663 -0.08677515138823917 0.054773698036553464
-0.06685810776692143 -0.0715449049503234 0.06419306691647769
-0.06691727383016623 -0.05631465851240762 0.07361243579640193
-0.06697643989341102 -0.041084412074491844 0.08303180467632616
-0.06703560595665582 -0.02585416563657607 0.0924511735562504
-0.06709477201990062 -0.010623919198660294 0.10187054243617463
-0.06715393808314542 0.0046063272392554856 0.11128991131609887
-0.06721310414639022 0.019836573677171263 0.1207092801960231
0.06721310414639022 -0.019836573677171263 -0.1207092801960231
0.06715393808314542 -0.0046063272392554856 -0.11128991131609887
0.06709477201990062 0.010623919198660294 -0.10187054243617463
0.06703560595665582 0.025854165636576065 -0.0924511735562504
0.06697643989341102 0.041084412074491844 -0.08303180467632616
0.06691727383016623 0.05631465851240762 -0.07361243579640193
0.06685810776692143 0.0715449049503234 -0.0641930669164777
0.06679894170367663 0.08677515138823917 -0.054773698036553464
0.06673977564043183 0.10200539782615496 -0.04535432915662923
0.06668060957718704 0.11723564426407074 -0.035934960276704994
0.07002203180089583 -0.0291315024485449 -0.1056625981084127
0.06996286573765104 -0.013901256010629123 -0.09624322922848848
0.06990369967440624 0.001328990427286656 -0.08682386034856424
0.06984453361116144 0.01655923686520243 -0.07740449146864001
0.06978536754791664 0.03178948330311821 -0.06798512258871577
0.06972620148467185 0.04701972974103399 -0.05856575370879154
0.06966703542142705 0.062249976178949756 -0.0491463848288673
0.06960786935818225 0.07748022261686555 -0.03972701594894307
0.06954870329493745 0.09271046905478132 -0.030307647069018832
0.06948953723169266 0.1079407154926971 -0.020888278189094597
0.07283095945540145 -0.03842643121991854 -0.09061591602080231
0.07277179339215666 -0.02319618478200276 -0.08119654714087808
0.07271262732891186 -0.007965938344086982 -0.07177717826095384
0.07265346126566706 0.007264308093828791 -0.06235780938102961
0.07259429520242226 0.022494554531744572 -0.052938440501105376
0.07253512913917746 0.03772480096966035 -0.04351907162118114
0.07247596307593267 0.05295504740757612 -0.034099702741256906
0.07241679701268787 0.0681852938454919 -0.02468033386133267
0.07235763094944307 0.08341554028340768 -0.015260964981408437
0.07229846488619827 0.09864578672132346 -0.005841596101484202
0.07563988710990707 -0.04772135999129217 -0.07556923393319193
0.07558072104666227 -0.032491113553376395 -0.06614986505326768
0.07552155498341748 -0.017260867115460612 -0.056730496173343456
0.07546238892017268 -0.0020306206775448413 -0.04731112729341922
0.07540322285692788 0.013199625760370938 -0.037891758413494986
0.07534405679368308 0.028429872198286715 -0.02847238953357075
0.07528489073043829 0.043660118636202484 -0.019053020653646523
0.07522572466719349 0.05889036507411827 -0.009633651773722284
0.07516655860394869 0.07412061151203406 -0.00021428289379804932
0.0751073925407039 0.08935085794994983 0.009205085986126186
0.07844881476441269 -0.057016288762665804 -0.06052255184558153
0.0783896487011679 -0.04178604232475003 -0.051103182965657294
0.0783304826379231 -0.026555795886834252 -0.04168381408573306
0.0782713165746783 -0.011325549448918478 -0.032264445205808824
0.0782121505114335 0.0039046969889973016 -0.022845076325884592
0.0781529844481887 0.01913494342691308 -0.013425707445960356
0.0780938183849439 0.03436518986482885 -0.004006338566036126
0.07803465232169911 0.049595436302744635 0.005413030313888111
0.07797548625845431 0.06482568274066042 0.014832399193812346
0.07791632019520951 0.0800559291785762 0.02425176807373658
0.0812577424189183 -0.06631121753403944 -0.04547586975797113
0.0811985763556735 -0.05108097109612367 -0.0360565008780469
0.0811394102924287 -0.035850724658207885 -0.026637131998122662
0.0810802442291839 -0.020620478220292112 -0.01721776311819843
0.0810210781659391 -0.005390231782376334 -0.007798394238274197
0.08096191210269431 0.009840014655539443 0.0016209746416500379
0.08090274603944951 0.025070261093455216 0.011040343521574267
0.08084357997620471 0.040300507531370995 0.020459712401498506
0.08078441391295992 0.05553075396928678 0.02987908128142274
0.08072524784971512 0.07076100040720255 0.039298450161346976
0.08406667007342392 -0.07560614630541307 -0.030429187670360746
0.08400750401017912 -0.0603758998674973 -0.02100981879043651
0.08394833794693432 -0.04514565342958152 -0.011590449910512278
0.08388917188368952 -0.029915406991665745 -0.002171081030588046
0.08383000582044473 -0.014685160553749965 0.007248287849336189
0.08377083975719993 0.0005450858841658121 0.016667656729260426
0.08371167369395513 0.015775332322081583 0.026087025609184654
0.08365250763071033 0.031005578759997366 0.03550639448910889
0.08359334156746553 0.046235825197913145 0.044925763369033124
0.08353417550422074 0.06146607163582892 0.05434513224895736
0.08687559772792953 -0.08490107507678671 -0.015382505582750351
0.08681643166468474 -0.06967082863887093 -0.005963136702826116
0.08675726560143994 -0.05444058220095516 0.003456232177098119
0.08669809953819514 -0.03921033576303938 0.01287560105702235
0.08663893347495034 -0.023980089325123605 0.022294969936946584
0.08657976741170555 -0.008749842887207825 0.03171433881687082
0.08652060134846075 0.006480403550707945 0.04113370769679505
0.08646143528521595 0.021710649988623727 0.050553076576719286
0.08640226922197115 0.03694089642653951 0.05997244545664352
0.08634310315872636 0.05217114286445529 0.06939181433656776
0.08968452538243515 -0.09419600384816035 -0.00033582349513995444
0.08962535931919036 -0.07896575741024457 0.009083545384784281
0.08956619325594556 -0.0637355109723288 0.018502914264708514
0.08950702719270076 -0.04850526453441302 0.027922283144632746
0.08944786112945596 -0.033275018096497244 0.037341652024556984
0.08938869506621117 -0.018044771658581465 0.04676102090448122
0.08932952900296637 -0.0028145252206656923 0.05618038978440545
0.08927036293972157 0.01241572121725009 0.06559975866432968
0.08921119687647677 0.027645967655165873 0.07501912754425392
0.08915203081323197 0.04287621409308165 0.08443849642417815
0.09249345303694077 -0.10349093261953399 0.014710858592470443
0.09243428697369598 -0.08826068618161821 0.024130227472394676
0.09237512091045118 -0.07303043974370244 0.03354959635231891
0.09231595484720638 -0.05780019330578666 0.042968965232243146
0.09225678878396158 -0.04256994686787088 0.05238833411216738
0.09219762272071678 -0.0273397004299551 0.061807702992091616
0.09213845665747199 -0.01210945399203933 0.07122707187201584
0.09207929059422719 0.003120792445876453 0.08064644075194008
0.09202012453098239 0.018351038883792237 0.09006580963186432
0.0919609584677376 0.03358128532170801 0.09948517851178855
-0.0919609584677376 -0.03358128532170801 -0.09948517851178855
-0.0742749515106123 -0.032054095138981706 -0.10184341203225906
-0.05658894455348697 -0.030526904956255405 -0.10420164555272957
-0.03890293759636167 -0.0289997147735291 -0.10655987907320007
-0.02121693063923635 -0.027472524590802797 -0.10891811259367058
-0.0035309236821110374 -0.02594533440807648 -0.11127634611414108
0.014155083275014264 -0.024418144225350175 -0.11363457963461158
0.03184109023213959 -0.02289095404262387 -0.11599281315508209
0.04952709718926491 -0.021363763859897567 -0.1183510466755526
0.06721310414639022 -0.019836573677171263 -0.1207092801960231
-0.08915203081323197 -0.04287621409308165 -0.08443849642417815
-0.07146602385610668 -0.041349023910355345 -0.08679672994464867
-0.05378001689898135 -0.03982183372762904 -0.08915496346511917
-0.03609400994185605 -0.03829464354490274 -0.09151319698558967
-0.01840800298473073 -0.03676745336217643 -0.09387143050606019
-0.0007219960276054187 -0.035240263179450115 -0.09622966402653069
0.016964010929519883 -0.03371307299672381 -0.09858789754700119
0.03465001788664521 -0.03218588281399751 -0.10094613106747169
0.05233602484377053 -0.030658692631271203 -0.1033043645879422
0.07002203180089583 -0.0291315024485449 -0.1056625981084127
-0.08634310315872636 -0.05217114286445529 -0.06939181433656776
-0.06865709620160106 -0.050643952681728985 -0.07175004785703827
-0.050971089244475735 -0.04911676249900268 -0.07410828137750877
-0.03328508228735043 -0.04758957231627638 -0.07646651489797927
-0.015599075330225113 -0.04606238213355007 -0.07882474841844979
0.0020869316269002 -0.044535191950823755 -0.08118298193892029
0.019772938584025502 -0.04300800176809745 -0.08354121545939079
0.03745894554115082 -0.04148081158537115 -0.08589944897986129
0.05514495249827614 -0.03995362140264484 -0.08825768250033181
0.07283095945540145 -0.03842643121991854 -0.09061591602080231
-0.08353417550422074 -0.06146607163582892 -0.05434513224895737
-0.06584816854709544 -0.05993888145310262 -0.05670336576942788
-0.048162161589970116 -0.05841169127037631 -0.05906159928989839
-0.030476154632844813 -0.05688450108765001 -0.06141983281036889
-0.012790147675719496 -0.055357310904923705 -0.06377806633083939
0.004895859281405817 -0.05383012072219739 -0.0661362998513099
0.022581866238531118 -0.05230293053947108 -0.06849453337178041
0.04026787319565644 -0.05077574035674478 -0.07085276689225091
0.05795388015278176 -0.049248550174018475 -0.07321100041272141
0.07563988710990707 -0.04772135999129217 -0.07556923393319193
-0.08072524784971512 -0.07076100040720255 -0.039298450161346976
-0.06303924089258982 -0.06923381022447625 -0.041656683681817484
-0.0453532339354645 -0.06770662004174995 -0.04401491720228799
-0.027667226978339194 -0.06617942985902364 -0.046373150722758494
-0.009981220021213879 -0.06465223967629734 -0.048731384243229
0.007704786935911436 -0.06312504949357102 -0.0510896177636995
0.025390793893036737 -0.061597859310844716 -0.05344785128417001
0.04307680085016206 -0.06007066912811841 -0.05580608480464051
0.06076280780728738 -0.05854347894539211 -0.05816431832511102
0.07844881476441269 -0.057016288762665804 -0.06052255184558153
-0.07791632019520951 -0.0800559291785762 -0.02425176807373658
-0.0602303132380842 -0.07852873899584989 -0.026610001594207087
-0.04254430628095888 -0.07700154881312359 -0.028968235114677596
-0.024858299323833575 -0.07547435863039728 -0.0313264686351481
-0.00717229236670826 -0.07394716844767098 -0.033684702155618605
0.010513714590417054 -0.07241997826494466 -0.036042935676089106
0.028199721547542356 -0.07089278808221836 -0.038401169196559615
0.045885728504667676 -0.06936559789949205 -0.040759402717030116
0.063571735461793 -0.06783840771676575 -0.043117636237500624
0.0812577424189183 -0.06631121753403944 -0.04547586975797113
-0.0751073925407039 -0.08935085794994982 -0.009205085986126195
-0.05742138558357858 -0.08782366776722351 -0.011563319506596703
-0.03973537862645326 -0.08629647758449721 -0.013921553027067211
-0.02204937166932796 -0.0847692874017709 -0.01627978654753771
-0.004363364712202643 -0.0832420972190446 -0.01863802006800822
0.01332264224492267 -0.08171490703631829 -0.02099625358847872
0.03100864920204797 -0.08018771685359198 -0.02335448710894923
0.048694656159173295 -0.07866052667086568 -0.02571272062941973
0.06638066311629862 -0.07713333648813937 -0.028070954149890238
0.08406667007342392 -0.07560614630541307 -0.030429187670360746
-0.07229846488619827 -0.09864578672132346 0.005841596101484202
-0.05461245792907296 -0.09711859653859715 0.003483362581013694
-0.03692645097194764 -0.09559140635587085 0.0011251290605431856
-0.01924044401482234 -0.09406421617314455 -0.0012331044599273157
-0.0015544370576970243 -0.09253702599041824 -0.0035913379803978237
0.01613156989942829 -0.09100983580769192 -0.005949571500868325
0.033817576856553594 -0.08948264562496562 -0.008307805021338833
0.051503583813678915 -0.08795545544223932 -0.010666038541809334
0.06918959077080424 -0.08642826525951301 -0.013024272062279843
0.08687559772792953 -0.08490107507678671 -0.015382505582750351
-0.06948953723169266 -0.1079407154926971 0.020888278189094597
-0.05180353027456735 -0.1064135253099708 0.01853004466862409
-0.03411752331744203 -0.10488633512724449 0.01617181114815358
-0.01643151636031672 -0.10335914494451819 0.013813577627683081
0.0012544905968085943 -0.10183195476179188 0.011455344107212573
0.018940497553933906 -0.10030476457906556 0.009097110586742072
0.036626504511059206 -0.09877757439633926 0.006738877066271564
0.05431251146818453 -0.09725038421361296 0.004380643545801062
0.07199851842530985 -0.09572319403088665 0.0020224100253305537
0.08968452538243515 -0.09419600384816035 -0.00033582349513995444
-0.06668060957718704 -0.11723564426407074 0.035934960276704994
-0.04899460262006173 -0.11570845408134443 0.033576726756234486
-0.03130859566293641 -0.11418126389861813 0.031218493235763978
-0.013622588705811102 -0.11265407371589183 0.028860259715293476
0.004063418251314213 -0.11112688353316552 0.026502026194822968
0.021749425208439525 -0.1095996933504392 0.024143792674352467
0.039435432165564825 -0.1080725031677129 0.02178555915388196
0.057121439122690146 -0.1065453129849866 0.019427325633411457
0.07480744607981547 -0.10501812280226029 0.01706909211294095
0.09249345303694077 -0.10349093261953399 0.014710858592470443
-0.09249345303694077 0.10349093261953399 -0.014710858592470443
-0.07480744607981547 0.10501812280226029 -0.01706909211294095
-0.057121439122690146 0.1065453129849866 -0.019427325633411457
-0.03943543216556484 0.1080725031677129 -0.02178555915388196
-0.021749425208439525 0.1095996933504392 -0.024143792674352467
-0.004063418251314213 0.11112688353316552 -0.026502026194822968
0.013622588705811092 0.11265407371589183 -0.028860259715293476
0.03130859566293641 0.11418126389861813 -0.031218493235763978
0.04899460262006173 0.11570845408134443 -0.033576726756234486
0.06668060957718704 0.11723564426407074 -0.035934960276704994
-0.08968452538243515 0.09419600384816035 0.00033582349513995444
-0.07199851842530985 0.09572319403088665 -0.0020224100253305537
-0.05431251146818453 0.09725038421361296 -0.004380643545801062
-0.03662650451105922 0.09877757439633926 -0.006738877066271564
-0.018940497553933906 0.10030476457906556 -0.009097110586742072
-0.0012544905968085943 0.10183195476179188 -0.011455344107212573
0.01643151636031671 0.10335914494451819 -0.013813577627683081
0.03411752331744203 0.10488633512724449 -0.01617181114815358
0.05180353027456735 0.1064135253099708 -0.01853004466862409
0.06948953723169266 0.1079407154926971 -0.020888278189094597
-0.08687559772792953 0.08490107507678671 0.015382505582750351
-0.06918959077080424 0.08642826525951301 0.013024272062279843
-0.051503583813678915 0.08795545544223932 0.010666038541809334
-0.0338175768565536 0.08948264562496562 0.008307805021338833
-0.01613156989942829 0.09100983580769192 0.005949571500868325
0.0015544370576970243 0.09253702599041824 0.0035913379803978237
0.01924044401482233 0.09406421617314455 0.0012331044599273157
0.03692645097194764 0.09559140635587085 -0.0011251290605431856
0.05461245792907296 0.09711859653859715 -0.003483362581013694
0.07229846488619827 0.09864578672132346 -0.005841596101484202
-0.08406667007342392 0.07560614630541308 0.03042918767036074
-0.06638066311629862 0.07713333648813939 0.02807095414989023
-0.048694656159173295 0.07866052667086569 0.025712720629419723
-0.031008649202047985 0.080187716853592 0.02335448710894922
-0.013322642244922672 0.0817149070363183 0.020996253588478713
0.004363364712202641 0.08324209721904462 0.018638020068008212
0.022049371669327945 0.08476928740177092 0.016279786547537704
0.03973537862645326 0.08629647758449722 0.013921553027067202
0.05742138558357858 0.08782366776722353 0.011563319506596694
0.0751073925407039 0.08935085794994983 0.009205085986126186
-0.0812577424189183 0.06631121753403944 0.04547586975797113
-0.063571735461793 0.06783840771676575 0.043117636237500624
-0.045885728504667676 0.06936559789949205 0.040759402717030116
-0.028199721547542366 0.07089278808221836 0.038401169196559615
-0.010513714590417054 0.07241997826494466 0.036042935676089106
0.00717229236670826 0.07394716844767098 0.033684702155618605
0.024858299323833564 0.07547435863039728 0.0313264686351481
0.04254430628095888 0.07700154881312359 0.028968235114677596
0.0602303132380842 0.07852873899584989 0.026610001594207087
0.07791632019520951 0.0800559291785762 0.02425176807373658
-0.07844881476441269 0.057016288762665804 0.06052255184558153
-0.06076280780728738 0.05854347894539211 0.05816431832511102
-0.04307680085016206 0.06007066912811841 0.05580608480464051
-0.025390793893036747 0.061597859310844716 0.05344785128417001
-0.007704786935911436 0.06312504949357102 0.0510896177636995
0.009981220021213879 0.06465223967629734 0.048731384243229
0.027667226978339184 0.06617942985902364 0.046373150722758494
0.0453532339354645 0.06770662004174995 0.04401491720228799
0.06303924089258982 0.06923381022447625 0.041656683681817484
0.08072524784971512 0.07076100040720255 0.039298450161346976
-0.07563988710990707 0.04772135999129217 0.07556923393319191
-0.05795388015278176 0.049248550174018475 0.07321100041272141
-0.04026787319565644 0.05077574035674478 0.0708527668922509
-0.02258186623853113 0.05230293053947108 0.0684945333717804
-0.004895859281405819 0.05383012072219739 0.0661362998513099
0.012790147675719494 0.055357310904923705 0.06377806633083939
0.0304761546328448 0.05688450108765001 0.06141983281036888
0.048162161589970116 0.05841169127037631 0.059061599289898375
0.06584816854709544 0.05993888145310262 0.05670336576942787
0.08353417550422074 0.06146607163582892 0.05434513224895736
-0.07283095945540145 0.03842643121991854 0.09061591602080231
-0.05514495249827614 0.03995362140264484 0.08825768250033181
-0.03745894554115082 0.04148081158537115 0.08589944897986129
-0.019772938584025512 0.04300800176809745 0.08354121545939079
-0.0020869316269002 0.044535191950823755 0.08118298193892029
0.015599075330225113 0.04606238213355007 0.07882474841844979
0.03328508228735042 0.04758957231627638 0.07646651489797927
0.050971089244475735 0.04911676249900268 0.07410828137750877
0.06865709620160106 0.050643952681728985 0.07175004785703827
0.08634310315872636 0.05217114286445529 0.06939181433656776
-0.07002203180089583 0.0291315024485449 0.1056625981084127
-0.05233602484377053 0.030658692631271203 0.1033043645879422
-0.03465001788664521 0.03218588281399751 0.10094613106747169
-0.016964010929519893 0.03371307299672381 0.09858789754700119
0.0007219960276054187 0.035240263179450115 0.09622966402653069
0.01840800298473073 0.03676745336217643 0.09387143050606019
0.036094009941856034 0.03829464354490274 0.09151319698558967
0.05378001689898135 0.03982183372762904 0.08915496346511917
0.07146602385610668 0.041349023910355345 0.08679672994464867
0.08915203081323197 0.04287621409308165 0.08443849642417815
-0.06721310414639022 0.019836573677171263 0.1207092801960231
-0.04952709718926491 0.021363763859897567 0.1183510466755526
-0.03184109023213959 0.02289095404262387 0.11599281315508209
-0.014155083275014274 0.024418144225350175 0.11363457963461158
0.0035309236821110374 0.02594533440807648 0.11127634611414108
0.02121693063923635 0.027472524590802797 0.10891811259367058
0.03890293759636165 0.0289997147735291 0.10655987907320007
0.05658894455348697 0.030526904956255405 0.10420164555272957
0.0742749515106123 0.032054095138981706 0.10184341203225906
0.0919609584677376 0.03358128532170801 0.09948517851178855
-0.0919609584677376 -0.03358128532170801 -0.09948517851178855
-0.0742749515106123 -0.032054095138981706 -0.10184341203225906
-0.05658894455348697 -0.030526904956255405 -0.10420164555272957
-0.03890293759636167 -0.0289997147735291 -0.10655987907320007
-0.02121693063923635 -0.027472524590802797 -0.10891811259367058
-0.0035309236821110374 -0.02594533440807648 -0.11127634611414108
0.014155083275014264 -0.024418144225350175 -0.11363457963461158
0.03184109023213959 -0.02289095404262387 -0.11599281315508209
0.04952709718926491 -0.021363763859897567 -0.1183510466755526
0.06721310414639022 -0.019836573677171263 -0.1207092801960231
-0.09202012453098239 -0.018351038883792237 -0.09006580963186432
-0.07433411757385709 -0.016823848701065926 -0.09242404315233482
-0.056648110616731764 -0.01529665851833962 -0.09478227667280532
-0.03896210365960646 -0.013769468335613317 -0.09714051019327584
-0.021276096702481147 -0.012242278152887013 -0.09949874371374634
-0.003590089745355835 -0.010715087970160709 -0.10185697723421684
0.01409591721176947 -0.009187897787434405 -0.10421521075468736
0.03178192416889479 -0.0076607076047081005 -0.10657344427515786
0.04946793112602011 -0.0061335174219817965 -0.10893167779562836
0.06715393808314542 -0.0046063272392554856 -0.11128991131609887
-0.09207929059422719 -0.003120792445876453 -0.08064644075194008
-0.07439328363710189 -0.0015936022631501418 -0.08300467427241058
-0.05670727667997656 -6.641208042383788e-05 -0.0853629077928811
-0.039021269722851255 0.0014607781023024662 -0.0877211413133516
-0.021335262765725945 0.0029879682850287703 -0.0900793748338221
-0.0036492558086006328 0.004515158467755074 -0.09243760835429261
0.014036751148524672 0.006042348650481378 -0.09479584187476311
0.03172275810564999 0.007569538833207682 -0.09715407539523362
0.04940876506277531 0.009096729015933986 -0.09951230891570413
0.06709477201990062 0.010623919198660294 -0.10187054243617463
-0.09213845665747199 0.012109453992039323 -0.07122707187201585
-0.07445244970034669 0.013636644174765627 -0.07358530539248635
-0.05676644274322136 0.015163834357491931 -0.07594353891295687
-0.03908043578609605 0.016691024540218237 -0.07830177243342737
-0.021394428828970743 0.01821821472294454 -0.08066000595389787
-0.0037084218718454287 0.019745404905670845 -0.08301823947436837
0.013977585085279874 0.02127259508839715 -0.08537647299483889
0.031663592042405195 0.022799785271123457 -0.08773470651530939
0.049349598999530515 0.02432697545384976 -0.0900929400357799
0.06703560595665582 0.025854165636576065 -0.0924511735562504
-0.09219762272071678 0.0273397004299551 -0.061807702992091616
-0.07451161576359148 0.028866890612681405 -0.06416593651256212
-0.05682560880646616 0.03039408079540771 -0.06652417003303263
-0.03913960184934085 0.03192127097813401 -0.06888240355350313
-0.02145359489221554 0.03344846116086032 -0.07124063707397364
-0.0037675879350902264 0.03497565134358663 -0.07359887059444414
0.013918419022035076 0.03650284152631293 -0.07595710411491464
0.0316044259791604 0.038030031709039236 -0.07831533763538516
0.04929043293628572 0.03955722189176554 -0.08067357115585566
0.06697643989341102 0.041084412074491844 -0.08303180467632616
-0.09225678878396158 0.04256994686787088 -0.05238833411216738
-0.07457078182683628 0.04409713705059718 -0.05474656763263788
-0.056884774869710955 0.04562432723332349 -0.05710480115310839
-0.03919876791258565 0.047151517416049796 -0.0594630346735789
-0.021512760955460338 0.0486787075987761 -0.0618212681940494
-0.003826753998335024 0.050205897781502404 -0.0641795017145199
0.013859252958790279 0.05173308796422871 -0.06653773523499042
0.0315452599159156 0.05326027814695501 -0.06889596875546092
0.04923126687304092 0.054787468329681316 -0.07125420227593142
0.06691727383016623 0.05631465851240762 -0.07361243579640193
-0.09231595484720638 0.05780019330578665 -0.042968965232243146
-0.07462994789008108 0.05932738348851296 -0.045327198752713654
-0.05694394093295575 0.06085457367123926 -0.04768543227318416
-0.039257933975830446 0.062381763853965565 -0.050043665793654664
-0.021571927018705136 0.06390895403669188 -0.05240189931412517
-0.0038859200615798217 0.06543614421941818 -0.05476013283459568
0.013800086895545481 0.06696333440214448 -0.05711836635506618
0.0314860938526708 0.06849052458487079 -0.05947659987553669
0.04917210080979612 0.07001771476759709 -0.0618348333960072
0.06685810776692143 0.0715449049503234 -0.0641930669164777
-0.09237512091045118 0.07303043974370244 -0.03354959635231891
-0.07468911395332588 0.07455762992642874 -0.03590782987278942
-0.05700310699620055 0.07608482010915504 -0.03826606339325993
-0.039317100039075244 0.07761201029188135 -0.04062429691373043
-0.02163109308194993 0.07913920047460765 -0.04298253043420094
-0.003945086124824618 0.08066639065733396 -0.045340763954671445
0.013740920832300683 0.08219358084006026 -0.04769899747514195
0.031426927789426004 0.08372077102278656 -0.050057230995612455
0.049112934746551325 0.08524796120551287 -0.052415464516082956
0.06679894170367663 0.08677515138823917 -0.054773698036553464
-0.09243428697369598 0.08826068618161821 -0.024130227472394676
-0.07474828001657068 0.08978787636434452 -0.026488460992865184
-0.05706227305944535 0.09131506654707082 -0.028846694513335686
-0.03937626610232004 0.09284225672979712 -0.031204928033806194
-0.021690259145194728 0.09436944691252343 -0.0335631615542767
-0.004004252188069416 0.09589663709524973 -0.0359213950747472
0.013681754769055886 0.09742382727797604 -0.03827962859521771
0.031367761726181206 0.09895101746070234 -0.04063786211568822
0.04905376868330653 0.10047820764342864 -0.04299609563615872
0.06673977564043183 0.10200539782615496 -0.04535432915662923
-0.09249345303694077 0.10349093261953399 -0.014710858592470443
-0.07480744607981547 0.10501812280226029 -0.01706909211294095
-0.057121439122690146 0.1065453129849866 -0.019427325633411457
-0.03943543216556484 0.1080725031677129 -0.02178555915388196
-0.021749425208439525 0.1095996933504392 -0.024143792674352467
-0.004063418251314213 0.11112688353316552 -0.026502026194822968
0.013622588705811092 0.11265407371589183 -0.028860259715293476
0.03130859566293641 0.11418126389861813 -0.031218493235763978
0.04899460262006173 0.11570845408134443 -0.033576726756234486
0.06668060957718704 0.11723564426407074 -0.035934960276704994
-0.06668060957718704 -0.11723564426407074 0.035934960276704994
-0.04899460262006173 -0.11570845408134443 0.033576726756234486
-0.03130859566293641 -0.11418126389861813 0.031218493235763978
-0.013622588705811102 -0.11265407371589183 0.028860259715293476
0.004063418251314213 -0.11112688353316552 0.026502026194822968
0.021749425208439525 -0.1095996933504392 0.024143792674352467
0.039435432165564825 -0.1080725031677129 0.02178555915388196
0.057121439122690146 -0.1065453129849866 0.019427325633411457
0.07480744607981547 -0.10501812280226029 0.01706909211294095
0.09249345303694077 -0.10349093261953399 0.014710858592470443
-0.06673977564043183 -0.10200539782615496 0.04535432915662923
-0.04905376868330653 -0.10047820764342864 0.04299609563615872
-0.031367761726181206 -0.09895101746070234 0.04063786211568822
-0.013681754769055896 -0.09742382727797604 0.03827962859521771
0.004004252188069416 -0.09589663709524973 0.0359213950747472
0.021690259145194728 -0.09436944691252343 0.0335631615542767
0.039376266102320034 -0.09284225672979712 0.031204928033806194
0.05706227305944535 -0.09131506654707082 0.028846694513335686
0.07474828001657068 -0.08978787636434452 0.026488460992865184
0.09243428697369598 -0.08826068618161821 0.024130227472394676
-0.06679894170367663 -0.08677515138823917 0.054773698036553464
-0.049112934746551325 -0.08524796120551287 0.052415464516082956
-0.031426927789426004 -0.08372077102278656 0.050057230995612455
-0.013740920832300694 -0.08219358084006026 0.04769899747514195
0.003945086124824618 -0.08066639065733396 0.045340763954671445
0.02163109308194993 -0.07913920047460765 0.04298253043420094
0.03931710003907524 -0.07761201029188135 0.04062429691373043
0.05700310699620055 -0.07608482010915504 0.03826606339325993
0.07468911395332588 -0.07455762992642874 0.03590782987278942
0.09237512091045118 -0.07303043974370244 0.03354959635231891
-0.06685810776692143 -0.0715449049503234 0.06419306691647769
-0.04917210080979612 -0.07001771476759709 0.06183483339600719
-0.0314860938526708 -0.06849052458487079 0.05947659987553668
-0.013800086895545492 -0.06696333440214448 0.05711836635506618
0.0038859200615798217 -0.06543614421941818 0.05476013283459567
0.021571927018705136 -0.06390895403669188 0.052401899314125165
0.03925793397583044 -0.06238176385396557 0.050043665793654664
0.05694394093295575 -0.06085457367123927 0.047685432273184156
0.07462994789008108 -0.059327383488512964 0.04532719875271365
0.09231595484720638 -0.05780019330578666 0.042968965232243146
-0.06691727383016623 -0.05631465851240762 0.07361243579640193
-0.04923126687304092 -0.054787468329681316 0.07125420227593142
-0.0315452599159156 -0.05326027814695501 0.06889596875546092
-0.01385925295879029 -0.05173308796422871 0.06653773523499042
0.003826753998335024 -0.050205897781502404 0.0641795017145199
0.021512760955460338 -0.0486787075987761 0.0618212681940494
0.03919876791258564 -0.047151517416049796 0.0594630346735789
0.056884774869710955 -0.04562432723332349 0.05710480115310839
0.07457078182683628 -0.04409713705059718 0.05474656763263788
0.09225678878396158 -0.04256994686787088 0.05238833411216738
-0.06697643989341102 -0.041084412074491844 0.08303180467632616
-0.04929043293628572 -0.03955722189176554 0.08067357115585566
-0.0316044259791604 -0.038030031709039236 0.07831533763538516
-0.013918419022035087 -0.03650284152631293 0.07595710411491464
0.0037675879350902264 -0.03497565134358663 0.07359887059444414
0.02145359489221554 -0.03344846116086032 0.07124063707397364
0.039139601849340844 -0.03192127097813401 0.06888240355350313
0.05682560880646616 -0.03039408079540771 0.06652417003303263
0.07451161576359148 -0.028866890612681405 0.06416593651256212
0.09219762272071678 -0.0273397004299551 0.061807702992091616
-0.06703560595665582 -0.02585416563657607 0.0924511735562504
-0.049349598999530515 -0.024326975453849767 0.09009294003577989
-0.031663592042405195 -0.022799785271123463 0.08773470651530939
-0.013977585085279885 -0.021272595088397156 0.08537647299483889
0.0037084218718454287 -0.019745404905670852 0.08301823947436837
0.021394428828970743 -0.018218214722944548 0.08066000595389787
0.039080435786096046 -0.016691024540218244 0.07830177243342737
0.05676644274322136 -0.015163834357491938 0.07594353891295685
0.07445244970034669 -0.013636644174765634 0.07358530539248635
0.09213845665747199 -0.01210945399203933 0.07122707187201584
-0.06709477201990062 -0.010623919198660294 0.10187054243617463
-0.04940876506277531 -0.009096729015933986 0.09951230891570413
-0.03172275810564999 -0.007569538833207682 0.09715407539523362
-0.014036751148524682 -0.006042348650481378 0.09479584187476311
0.0036492558086006328 -0.004515158467755074 0.09243760835429261
0.021335262765725945 -0.0029879682850287703 0.0900793748338221
0.03902126972285125 -0.0014607781023024662 0.0877211413133516
0.05670727667997656 6.641208042383788e-05 0.0853629077928811
0.07439328363710189 0.0015936022631501418 0.08300467427241058
0.09207929059422719 0.003120792445876453 0.08064644075194008
-0.06715393808314542 0.0046063272392554856 0.11128991131609887
-0.04946793112602011 0.0061335174219817965 0.10893167779562836
-0.03178192416889479 0.0076607076047081005 0.10657344427515786
-0.01409591721176948 0.009187897787434405 0.10421521075468736
0.003590089745355835 0.010715087970160709 0.10185697723421684
0.021276096702481147 0.012242278152887013 0.09949874371374634
0.03896210365960645 0.013769468335613317 0.09714051019327584
0.056648110616731764 0.01529665851833962 0.09478227667280532
0.07433411757385709 0.016823848701065926 0.09242404315233482
0.09202012453098239 0.018351038883792237 0.09006580963186432
-0.06721310414639022 0.019836573677171263 0.1207092801960231
-0.04952709718926491 0.021363763859897567 0.1183510466755526
-0.03184109023213959 0.02289095404262387 0.11599281315508209
-0.014155083275014274 0.024418144225350175 0.11363457963461158
0.0035309236821110374 0.02594533440807648 0.11127634611414108
0.02121693063923635 0.027472524590802797 0.10891811259367058
0.03890293759636165 0.0289997147735291 0.10655987907320007
0.05658894455348697 0.030526904956255405 0.10420164555272957
0.0742749515106123 0.032054095138981706 0.10184341203225906
0.0919609584677376 0.03358128532170801 0.09948517851178855
