# .PCD v0.7 - Point Cloud Data file format
VERSION 0.7
FIELDS x y z
SIZE 4 4 4
TYPE F F F
COUNT 1 1 1
WIDTH 600
HEIGHT 1
VIEWPOINT 0 0 0 1 0 0 0
POINTS 600
DATA ascii
-0.0769489075404812 -0.11048370768371749 -0.05951802717538686
-0.08402102051245684 -0.09367214104275513 -0.05461219183377196
-0.09109313348443247 -0.07686057440179277 -0.04970635649215706
-0.0981652464564081 -0.0600490077608304 -0.04480052115054216
-0.10523735942838373 -0.04323744111986804 -0.03989468580892725
-0.11230947240035936 -0.026425874478905678 -0.03498885046731235
-0.119381585372335 -0.00961430783794332 -0.030083015125697454
-0.1264536983443106 0.0071972588030190425 -0.025177179784082553
-0.13352581131628624 0.024008825443981415 -0.020271344442467653
-0.14059792428826187 0.04082039208494378 -0.015365509100852746
-0.06756078069398101 -0.11131061571220839 -0.04315067941720129
-0.07463289366595666 -0.09449904907124604 -0.03824484407558639
-0.08170500663793229 -0.07768748243028367 -0.03333900873397149
-0.08877711960990792 -0.0608759157893213 -0.028433173392356587
-0.09584923258188355 -0.04406434914835894 -0.023527338050741683
-0.10292134555385918 -0.027252782507396572 -0.018621502709126783
-0.10999345852583481 -0.010441215866434218 -0.013715667367511883
-0.11706557149781044 0.006370350774528146 -0.008809832025896983
-0.12413768446978607 0.02318191741549052 -0.003903996684282083
-0.1312097974417617 0.03999348405645288 0.0010018386573328244
-0.058172653847480826 -0.11213752374069928 -0.026783331659015728
-0.06524476681945646 -0.09532595709973693 -0.021877496317400824
-0.07231687979143209 -0.07851439045877456 -0.016971660975785924
-0.07938899276340772 -0.0617028238178122 -0.012065825634171023
-0.08646110573538335 -0.04489125717684984 -0.007159990292556121
-0.09353321870735898 -0.02807969053588747 -0.00225415495094122
-0.10060533167933461 -0.011268123894925115 0.0026516803906736805
-0.10767744465131024 0.0055434427460372485 0.00755751573228858
-0.11474955762328587 0.022355009386999622 0.012463351073903482
-0.1218216705952615 0.03916657602796198 0.01736918641551839
-0.04878452700098063 -0.11296443176919017 -0.010415983900830162
-0.05585663997295627 -0.09615286512822782 -0.005510148559215258
-0.0629287529449319 -0.07934129848726545 -0.0006043132176003575
-0.07000086591690753 -0.06252973184630309 0.004301522124014543
-0.07707297888888316 -0.045718165205340736 0.009207357465629446
-0.08414509186085879 -0.02890659856437837 0.014113192807244346
-0.09121720483283442 -0.012095031923416011 0.019019028148859248
-0.09828931780481005 0.004716534717546352 0.02392486349047415
-0.10536143077678568 0.021528101358508724 0.02883069883208905
-0.11243354374876131 0.03833966799947108 0.03373653417370395
-0.03939640015448044 -0.11379133979768108 0.005951363857355405
-0.04646851312645608 -0.09697977315671873 0.010857199198970309
-0.05354062609843171 -0.08016820651575636 0.01576303454058521
-0.06061273907040734 -0.063356639874794 0.02066886988220011
-0.06768485204238298 -0.046545073233831634 0.025574705223815015
-0.0747569650143586 -0.029733506592869264 0.030480540565429915
-0.08182907798633424 -0.012921939951906908 0.03538637590704481
-0.08890119095830987 0.003889626689055455 0.04029221124865971
-0.0959733039302855 0.02070119333001783 0.04519804659027461
-0.10304541690226113 0.037512759970980185 0.05010388193188952
-0.03000827330798025 -0.11461824782617197 0.022318711615540974
-0.03708038627995589 -0.09780668118520962 0.027224546957155878
-0.04415249925193152 -0.08099511454424725 0.03213038229877078
-0.05122461222390715 -0.06418354790328488 0.03703621764038568
-0.05829672519588278 -0.047371981262322525 0.041942052982000586
-0.0653688381678584 -0.030560414621360162 0.046847888323615486
-0.07244095113983404 -0.013748847980397806 0.051753723665230386
-0.07951306411180967 0.0030627186605645573 0.056659559006845286
-0.0865851770837853 0.01987428530152693 0.06156539434846019
-0.09365729005576093 0.03668585194248929 0.06647122969007509
-0.020620146461480065 -0.11544515585466288 0.03868605937372653
-0.027692259433455702 -0.09863358921370052 0.04359189471534144
-0.034764372405431336 -0.08182202257273816 0.04849773005695634
-0.041836485377406966 -0.06501045593177579 0.05340356539857124
-0.0489085983493826 -0.048198889290813424 0.05830940074018614
-0.05598071132135823 -0.03138732264985106 0.06321523608180105
-0.06305282429333385 -0.014575756008888703 0.06812107142341595
-0.07012493726530948 0.0022358106320736607 0.07302690676503085
-0.07719705023728511 0.019047377273036036 0.07793274210664575
-0.08426916320926074 0.035858943913998395 0.08283857744826065
-0.011232019614979874 -0.11627206388315377 0.055053407131912105
-0.018304132586955513 -0.09946049724219141 0.059959242473527005
-0.025376245558931143 -0.08264893060122905 0.0648650778151419
-0.03244835853090677 -0.06583736396026668 0.0697709131567568
-0.039520471502882404 -0.04902579731930432 0.0746767484983717
-0.046592584474858034 -0.032214230678341955 0.0795825838399866
-0.053664697446833665 -0.0154026640373796 0.0844884191816015
-0.060736810418809295 0.0014089026035827637 0.08939425452321641
-0.06780892339078493 0.018220469244545137 0.09430008986483131
-0.07488103636276056 0.0350320358855075 0.09920592520644622
-0.0018438927684796818 -0.11709897191164466 0.07142075489009768
-0.00891600574045532 -0.1002874052706823 0.07632659023171258
-0.01598811871243095 -0.08347583862971994 0.08123242557332748
-0.02306023168440658 -0.06666427198875757 0.08613826091494238
-0.03013234465638221 -0.04985270534779522 0.09104409625655728
-0.03720445762835784 -0.033041138706832854 0.09594993159817218
-0.04427657060033347 -0.016229572065870498 0.10085576693978708
-0.0513486835723091 0.0005819945750918666 0.10576160228140198
-0.05842079654428473 0.01739356121605424 0.11066743762301688
-0.06549290951626036 0.0342051278570166 0.1155732729646318
0.0075442340780205105 -0.11792587994013556 0.08778810264828324
0.0004721211060448731 -0.10111431329917321 0.09269393798989814
-0.006599991865930757 -0.08430274665821084 0.09759977333151304
-0.013672104837906388 -0.06749118001724848 0.10250560867312794
-0.020744217809882018 -0.05067961337628612 0.10741144401474285
-0.02781633078185765 -0.03386804673532375 0.11231727935635775
-0.03488844375383328 -0.017056480094361393 0.11722311469797266
-0.04196055672580891 -0.00024491345339903065 0.12212895003958756
-0.04903266969778454 0.016566653187563344 0.12703478538120244
-0.05610478266976017 0.0333782198285257 0.13194062072281737
0.05610478266976017 -0.0333782198285257 -0.13194062072281737
0.04903266969778454 -0.016566653187563344 -0.12703478538120244
0.04196055672580891 0.0002449134533990237 -0.12212895003958756
0.03488844375383328 0.017056480094361386 -0.11722311469797266
0.02781633078185765 0.03386804673532375 -0.11231727935635775
0.020744217809882018 0.05067961337628612 -0.10741144401474285
0.013672104837906388 0.06749118001724848 -0.10250560867312795
0.006599991865930757 0.08430274665821083 -0.09759977333151305
-0.0004721211060448731 0.10111431329917321 -0.09269393798989814
-0.0075442340780205105 0.11792587994013556 -0.08778810264828324
0.06549290951626036 -0.0342051278570166 -0.1155732729646318
0.05842079654428473 -0.01739356121605424 -0.11066743762301688
0.0513486835723091 -0.0005819945750918735 -0.10576160228140198
0.04427657060033347 0.01622957206587049 -0.10085576693978708
0.03720445762835784 0.033041138706832854 -0.09594993159817218
0.03013234465638221 0.04985270534779522 -0.09104409625655728
0.02306023168440658 0.06666427198875757 -0.08613826091494238
0.01598811871243095 0.08347583862971993 -0.08123242557332748
0.00891600574045532 0.1002874052706823 -0.07632659023171258
0.0018438927684796818 0.11709897191164466 -0.07142075489009768
0.07488103636276056 -0.0350320358855075 -0.09920592520644622
0.06780892339078493 -0.018220469244545137 -0.09430008986483132
0.06073681041880929 -0.0014089026035827704 -0.08939425452321642
0.05366469744683366 0.015402664037379592 -0.08448841918160152
0.04659258447485803 0.032214230678341955 -0.07958258383998662
0.0395204715028824 0.04902579731930432 -0.07467674849837172
0.032448358530906767 0.06583736396026668 -0.06977091315675682
0.02537624555893114 0.08264893060122903 -0.06486507781514192
0.01830413258695551 0.09946049724219141 -0.05995924247352701
0.01123201961497987 0.11627206388315377 -0.05505340713191211
0.08426916320926074 -0.035858943913998395 -0.08283857744826066
0.07719705023728511 -0.019047377273036036 -0.07793274210664575
0.07012493726530948 -0.0022358106320736672 -0.07302690676503085
0.06305282429333385 0.014575756008888696 -0.06812107142341595
0.05598071132135822 0.03138732264985106 -0.06321523608180105
0.04890859834938259 0.048198889290813424 -0.05830940074018615
0.04183648537740696 0.06501045593177579 -0.05340356539857125
0.03476437240543133 0.08182202257273814 -0.04849773005695635
0.0276922594334557 0.09863358921370052 -0.043591894715341445
0.02062014646148006 0.11544515585466288 -0.038686059373726545
0.09365729005576093 -0.03668585194248929 -0.06647122969007509
0.0865851770837853 -0.01987428530152693 -0.06156539434846019
0.07951306411180967 -0.0030627186605645643 -0.056659559006845286
0.07244095113983404 0.0137488479803978 -0.051753723665230386
0.0653688381678584 0.030560414621360162 -0.046847888323615486
0.05829672519588278 0.047371981262322525 -0.041942052982000586
0.05122461222390715 0.06418354790328488 -0.037036217640385685
0.04415249925193152 0.08099511454424724 -0.032130382298770785
0.03708038627995589 0.09780668118520962 -0.027224546957155878
0.03000827330798025 0.11461824782617197 -0.022318711615540974
0.10304541690226113 -0.037512759970980185 -0.05010388193188952
0.0959733039302855 -0.02070119333001783 -0.04519804659027461
0.08890119095830987 -0.0038896266890554618 -0.04029221124865971
0.08182907798633424 0.012921939951906901 -0.03538637590704481
0.0747569650143586 0.029733506592869264 -0.030480540565429915
0.06768485204238298 0.046545073233831634 -0.025574705223815015
0.06061273907040734 0.063356639874794 -0.020668869882200114
0.05354062609843171 0.08016820651575635 -0.015763034540585214
0.04646851312645608 0.09697977315671873 -0.010857199198970309
0.03939640015448044 0.11379133979768108 -0.005951363857355405
0.11243354374876131 -0.03833966799947108 -0.033736534173703966
0.10536143077678568 -0.021528101358508724 -0.028830698832089056
0.09828931780481005 -0.004716534717546358 -0.023924863490474155
0.09121720483283442 0.012095031923416004 -0.019019028148859255
0.08414509186085879 0.02890659856437837 -0.014113192807244357
0.07707297888888316 0.045718165205340736 -0.009207357465629456
0.07000086591690753 0.06252973184630309 -0.004301522124014555
0.0629287529449319 0.07934129848726544 0.0006043132176003451
0.055856639972956264 0.09615286512822782 0.005510148559215249
0.048784527000980626 0.11296443176919017 0.010415983900830152
0.1218216705952615 -0.03916657602796198 -0.017369186415518396
0.11474955762328587 -0.022355009386999622 -0.012463351073903487
0.10767744465131024 -0.005543442746037255 -0.007557515732288586
0.10060533167933461 0.011268123894925108 -0.002651680390673686
0.09353321870735898 0.02807969053588747 0.002254154950941214
0.08646110573538335 0.04489125717684984 0.0071599902925561145
0.07938899276340772 0.0617028238178122 0.012065825634171015
0.07231687979143209 0.07851439045877455 0.016971660975785913
0.06524476681945646 0.09532595709973693 0.021877496317400817
0.05817265384748082 0.11213752374069928 0.02678333165901572
0.1312097974417617 -0.03999348405645288 -0.0010018386573328244
0.12413768446978607 -0.02318191741549052 0.003903996684282083
0.11706557149781044 -0.006370350774528153 0.008809832025896983
0.10999345852583481 0.010441215866434211 0.013715667367511883
0.10292134555385918 0.027252782507396572 0.018621502709126783
0.09584923258188355 0.04406434914835894 0.023527338050741683
0.08877711960990792 0.0608759157893213 0.028433173392356584
0.08170500663793229 0.07768748243028366 0.033339008733971484
0.07463289366595666 0.09449904907124604 0.03824484407558639
0.06756078069398101 0.11131061571220839 0.04315067941720129
0.14059792428826187 -0.04082039208494378 0.015365509100852746
0.13352581131628624 -0.024008825443981415 0.020271344442467653
0.1264536983443106 -0.0071972588030190495 0.025177179784082553
0.119381585372335 0.009614307837943313 0.030083015125697454
0.11230947240035936 0.026425874478905678 0.03498885046731235
0.10523735942838373 0.04323744111986804 0.03989468580892725
0.0981652464564081 0.0600490077608304 0.04480052115054215
0.09109313348443247 0.07686057440179275 0.04970635649215705
0.08402102051245684 0.09367214104275513 0.05461219183377196
0.0769489075404812 0.11048370768371749 0.05951802717538686
-0.0769489075404812 -0.11048370768371749 -0.05951802717538686
-0.062165164183787716 -0.10191643125536284 -0.06756498201399025
-0.047381420827094234 -0.0933491548270082 -0.07561193685259364
-0.032597677470400745 -0.08478187839865356 -0.08365889169119703
-0.01781393411370726 -0.07621460197029892 -0.09170584652980042
-0.0030301907570137662 -0.06764732554194428 -0.09975280136840381
0.011753552599679709 -0.05908004911358963 -0.10779975620700719
0.026537295956373205 -0.05051277268523499 -0.11584671104561058
0.04132103931306669 -0.04194549625688034 -0.12389366588421397
0.05610478266976017 -0.0333782198285257 -0.13194062072281737
-0.06756078069398101 -0.11131061571220839 -0.04315067941720129
-0.05277703733728752 -0.10274333928385375 -0.05119763425580468
-0.03799329398059404 -0.09417606285549911 -0.05924458909440807
-0.023209550623900555 -0.08560878642714446 -0.06729154393301146
-0.008425807267207066 -0.07704150999878982 -0.07533849877161485
0.006357936089486426 -0.06847423357043518 -0.08338545361021824
0.021141679446179902 -0.05990695714208053 -0.09143240844882163
0.0359254228028734 -0.05133968071372589 -0.09947936328742502
0.05070916615956688 -0.04277240428537124 -0.1075263181260284
0.06549290951626036 -0.0342051278570166 -0.1155732729646318
-0.058172653847480826 -0.11213752374069928 -0.026783331659015728
-0.04338891049078734 -0.10357024731234464 -0.03483028649761912
-0.02860516713409385 -0.09500297088399 -0.042877241336222505
-0.013821423777400367 -0.08643569445563536 -0.050924196174825895
0.000962319579293122 -0.07786841802728071 -0.058971151013429285
0.015746062935986616 -0.06930114159892607 -0.06701810585203268
0.03052980629268009 -0.06073386517057143 -0.07506506069063605
0.045313549649373584 -0.05216658874221679 -0.08311201552923944
0.06009729300606707 -0.04359931231386214 -0.09115897036784283
0.07488103636276056 -0.0350320358855075 -0.09920592520644622
-0.04878452700098063 -0.11296443176919017 -0.010415983900830162
-0.034000783644287144 -0.10439715534083553 -0.01846293873943355
-0.019217040287593662 -0.09582987891248089 -0.026509893578036937
-0.004433296930900177 -0.08726260248412625 -0.03455684841664033
0.010350446425793313 -0.0786953260557716 -0.04260380325524372
0.025134189782486806 -0.07012804962741696 -0.05065075809384711
0.03991793313918028 -0.06156077319906233 -0.05869771293245049
0.05470167649587378 -0.052993496770707686 -0.06674466777105388
0.06948541985256726 -0.04442622034235304 -0.07479162260965727
0.08426916320926074 -0.035858943913998395 -0.08283857744826066
-0.03939640015448044 -0.11379133979768108 0.005951363857355405
-0.024612656797786955 -0.10522406336932644 -0.002095590981247985
-0.009828913441093472 -0.0966567869409718 -0.010142545819851372
0.004954829915600013 -0.08808951051261715 -0.01818950065845476
0.019738573272293503 -0.07952223408426251 -0.026236455497058147
0.034522316628987 -0.07095495765590787 -0.03428341033566154
0.049306059985680474 -0.06238768122755323 -0.042330365174264924
0.06408980334237396 -0.053820404799198585 -0.050377320012868314
0.07887354669906745 -0.045253128370843936 -0.058424274851471704
0.09365729005576093 -0.03668585194248929 -0.06647122969007509
-0.03000827330798025 -0.11461824782617197 0.022318711615540974
-0.015224529951286762 -0.10605097139781733 0.014271756776937585
-0.0004407865945932798 -0.09748369496946269 0.006224801938334199
0.014342956762100206 -0.08891641854110804 -0.00182215290026919
0.029126700118793696 -0.0803491421127534 -0.009869107738872578
0.043910443475487185 -0.07178186568439876 -0.01791606257747597
0.05869418683218066 -0.06321458925604412 -0.025963017416079353
0.07347793018887416 -0.054647312827689476 -0.03400997225468274
0.08826167354556765 -0.04608003639933483 -0.04205692709328613
0.10304541690226113 -0.037512759970980185 -0.05010388193188952
-0.020620146461480065 -0.11544515585466288 0.03868605937372653
-0.0058364031047865765 -0.10687787942630823 0.030639104535123144
0.008947340251906905 -0.09831060299795359 0.022592149696519757
0.023731083608600392 -0.08974332656959895 0.014545194857916367
0.03851482696529388 -0.08117605014124431 0.00649824001931298
0.05329857032198737 -0.07260877371288967 -0.0015487148192904106
0.06808231367868085 -0.06404149728453502 -0.009595669657893794
0.08286605703537435 -0.055474220856180374 -0.017642624496497183
0.09764980039206783 -0.046906944427825725 -0.025689579335100573
0.11243354374876131 -0.03833966799947108 -0.033736534173703966
-0.011232019614979874 -0.11627206388315377 0.055053407131912105
0.003551723741713615 -0.10770478745479913 0.047006452293308715
0.018335467098407096 -0.09913751102644448 0.038959497454705325
0.033119210455100585 -0.09057023459808984 0.030912542616101938
0.047902953811794075 -0.0820029581697352 0.022865587777498548
0.06268669716848757 -0.07343568174138056 0.01481863293889516
0.07747044052518104 -0.06486840531302591 0.006771678100291776
0.09225418388187454 -0.05630112888467127 -0.001275276738311614
0.10703792723856802 -0.047733852456316624 -0.009322231576915004
0.1218216705952615 -0.03916657602796198 -0.017369186415518396
-0.0018438927684796818 -0.11709897191164466 0.07142075489009768
0.012939850588213807 -0.10853169548329002 0.06337380005149429
0.02772359394490729 -0.09996441905493537 0.0553268452128909
0.04250733730160078 -0.09139714262658073 0.04727989037428751
0.05729108065829427 -0.08282986619822609 0.03923293553568412
0.07207482401498776 -0.07426258976987145 0.03118598069708073
0.08685856737168124 -0.0656953133415168 0.023139025858477345
0.10164231072837474 -0.05712803691316217 0.015092071019873955
0.11642605408506822 -0.04856076048480752 0.007045116181270566
0.1312097974417617 -0.03999348405645288 -0.0010018386573328244
0.0075442340780205105 -0.11792587994013556 0.08778810264828324
0.022327977434714 -0.10935860351178092 0.07974114780967985
0.03711172079140748 -0.10079132708342628 0.07169419297107646
0.051895464148100964 -0.09222405065507164 0.06364723813247308
0.06667920750479446 -0.083656774226717 0.055600283293869686
0.08146295086148794 -0.07508949779836235 0.047553328455266296
0.09624669421818143 -0.06652222137000771 0.03950637361666291
0.11103043757487492 -0.05795494494165307 0.03145941877805952
0.1258141809315684 -0.04938766851329842 0.023412463939456136
0.14059792428826187 -0.04082039208494378 0.015365509100852746
-0.14059792428826187 0.04082039208494378 -0.015365509100852746
-0.1258141809315684 0.04938766851329842 -0.023412463939456136
-0.11103043757487492 0.05795494494165306 -0.031459418778059516
-0.09624669421818144 0.06652222137000771 -0.039506373616662906
-0.08146295086148794 0.07508949779836235 -0.047553328455266296
-0.06667920750479446 0.083656774226717 -0.055600283293869686
-0.05189546414810098 0.09222405065507164 -0.06364723813247307
-0.03711172079140749 0.10079132708342628 -0.07169419297107646
-0.022327977434714 0.10935860351178092 -0.07974114780967985
-0.0075442340780205105 0.11792587994013556 -0.08778810264828324
-0.1312097974417617 0.03999348405645288 0.0010018386573328244
-0.11642605408506822 0.04856076048480752 -0.007045116181270566
-0.10164231072837474 0.057128036913162164 -0.015092071019873948
-0.08685856737168125 0.0656953133415168 -0.02313902585847734
-0.07207482401498776 0.07426258976987145 -0.03118598069708073
-0.05729108065829427 0.08282986619822609 -0.03923293553568412
-0.042507337301600785 0.09139714262658073 -0.0472798903742875
-0.027723593944907296 0.09996441905493537 -0.05532684521289089
-0.012939850588213807 0.10853169548329002 -0.06337380005149429
0.0018438927684796818 0.11709897191164466 -0.07142075489009768
-0.1218216705952615 0.03916657602796198 0.01736918641551839
-0.10703792723856802 0.047733852456316624 0.009322231576914999
-0.09225418388187454 0.056301128884671266 0.0012752767383116149
-0.07747044052518105 0.06486840531302591 -0.0067716781002917755
-0.06268669716848757 0.07343568174138056 -0.014818632938895165
-0.047902953811794075 0.0820029581697352 -0.022865587777498555
-0.0331192104551006 0.09057023459808984 -0.03091254261610194
-0.018335467098407107 0.09913751102644448 -0.03895949745470533
-0.0035517237417136186 0.10770478745479913 -0.04700645229330872
0.01123201961497987 0.11627206388315377 -0.05505340713191211
-0.11243354374876131 0.03833966799947108 0.03373653417370395
-0.09764980039206783 0.046906944427825725 0.025689579335100566
-0.08286605703537435 0.05547422085618037 0.017642624496497183
-0.06808231367868087 0.06404149728453502 0.009595669657893791
-0.05329857032198738 0.07260877371288967 0.0015487148192904017
-0.03851482696529389 0.08117605014124431 -0.0064982400193129885
-0.023731083608600406 0.08974332656959895 -0.014545194857916374
-0.008947340251906917 0.09831060299795359 -0.02259214969651976
0.005836403104786571 0.10687787942630823 -0.03063910453512315
0.02062014646148006 0.11544515585466288 -0.038686059373726545
-0.10304541690226113 0.037512759970980185 0.05010388193188952
-0.08826167354556765 0.04608003639933483 0.04205692709328613
-0.07347793018887416 0.05464731282768947 0.03400997225468275
-0.058694186832180674 0.06321458925604412 0.02596301741607936
-0.043910443475487185 0.07178186568439876 0.01791606257747597
-0.029126700118793696 0.0803491421127534 0.009869107738872578
-0.014342956762100217 0.08891641854110804 0.0018221529002691935
0.00044078659459327287 0.09748369496946269 -0.006224801938334195
0.015224529951286762 0.10605097139781733 -0.014271756776937585
0.03000827330798025 0.11461824782617197 -0.022318711615540974
-0.09365729005576093 0.03668585194248929 0.06647122969007509
-0.07887354669906745 0.045253128370843936 0.058424274851471704
-0.06408980334237396 0.05382040479919858 0.05037732001286832
-0.04930605998568049 0.06238768122755323 0.04233036517426493
-0.034522316628987 0.07095495765590787 0.03428341033566154
-0.019738573272293503 0.07952223408426251 0.026236455497058147
-0.004954829915600024 0.08808951051261715 0.018189500658454764
0.009828913441093465 0.0966567869409718 0.010142545819851375
0.024612656797786955 0.10522406336932644 0.002095590981247985
0.03939640015448044 0.11379133979768108 -0.005951363857355405
-0.08426916320926074 0.035858943913998395 0.08283857744826065
-0.06948541985256726 0.04442622034235304 0.07479162260965726
-0.054701676495873784 0.05299349677070768 0.06674466777105388
-0.0399179331391803 0.06156077319906233 0.058697712932450484
-0.02513418978248681 0.07012804962741696 0.050650758093847094
-0.010350446425793318 0.0786953260557716 0.042603803255243704
0.004433296930900161 0.08726260248412625 0.03455684841664032
0.01921704028759365 0.09582987891248089 0.026509893578036934
0.03400078364428714 0.10439715534083553 0.018462938739433544
0.048784527000980626 0.11296443176919017 0.010415983900830152
-0.07488103636276056 0.0350320358855075 0.09920592520644622
-0.060097293006067073 0.04359931231386214 0.09115897036784283
-0.04531354964937359 0.05216658874221678 0.08311201552923944
-0.03052980629268011 0.06073386517057143 0.07506506069063605
-0.01574606293598662 0.06930114159892607 0.06701810585203266
-0.0009623195792931255 0.07786841802728071 0.05897115101342928
0.013821423777400354 0.08643569445563536 0.05092419617482589
0.02860516713409384 0.09500297088399 0.042877241336222505
0.04338891049078733 0.10357024731234464 0.034830286497619115
0.05817265384748082 0.11213752374069928 0.02678333165901572
-0.06549290951626036 0.0342051278570166 0.1155732729646318
-0.05070916615956688 0.04277240428537124 0.1075263181260284
-0.0359254228028734 0.05133968071372588 0.09947936328742502
-0.021141679446179916 0.05990695714208053 0.09143240844882163
-0.006357936089486426 0.06847423357043518 0.08338545361021824
0.008425807267207066 0.07704150999878982 0.07533849877161485
0.023209550623900545 0.08560878642714446 0.06729154393301146
0.037993293980594034 0.09417606285549911 0.05924458909440807
0.05277703733728752 0.10274333928385375 0.05119763425580468
0.06756078069398101 0.11131061571220839 0.04315067941720129
-0.05610478266976017 0.0333782198285257 0.13194062072281737
-0.04132103931306669 0.04194549625688034 0.12389366588421397
-0.026537295956373205 0.050512772685234984 0.11584671104561059
-0.011753552599679723 0.05908004911358963 0.1077997562070072
0.0030301907570137662 0.06764732554194428 0.09975280136840381
0.01781393411370726 0.07621460197029892 0.09170584652980042
0.03259767747040074 0.08478187839865356 0.08365889169119703
0.04738142082709423 0.0933491548270082 0.07561193685259364
0.062165164183787716 0.10191643125536284 0.06756498201399025
0.0769489075404812 0.11048370768371749 0.05951802717538686
-0.0769489075404812 -0.11048370768371749 -0.05951802717538686
-0.062165164183787716 -0.10191643125536284 -0.06756498201399025
-0.047381420827094234 -0.0933491548270082 -0.07561193685259364
-0.032597677470400745 -0.08478187839865356 -0.08365889169119703
-0.01781393411370726 -0.07621460197029892 -0.09170584652980042
-0.0030301907570137662 -0.06764732554194428 -0.09975280136840381
0.011753552599679709 -0.05908004911358963 -0.10779975620700719
0.026537295956373205 -0.05051277268523499 -0.11584671104561058
0.04132103931306669 -0.04194549625688034 -0.12389366588421397
0.05610478266976017 -0.0333782198285257 -0.13194062072281737
-0.08402102051245684 -0.09367214104275513 -0.05461219183377196
-0.06923727715576335 -0.08510486461440049 -0.06265914667237535
-0.054453533799069864 -0.07653758818604585 -0.07070610151097874
-0.03966979044237638 -0.0679703117576912 -0.07875305634958213
-0.024886047085682893 -0.059403035329336565 -0.0868000111881855
-0.010102303728989404 -0.050835758900981916 -0.0948469660267889
0.004681439627704079 -0.042268482472627274 -0.10289392086539229
0.01946518298439756 -0.033701206044272625 -0.11094087570399568
0.03424892634109106 -0.025133929615917986 -0.11898783054259907
0.04903266969778454 -0.016566653187563344 -0.12703478538120244
-0.09109313348443247 -0.07686057440179277 -0.04970635649215706
-0.07630939012773898 -0.06829329797343812 -0.05775331133076045
-0.061525646771045495 -0.05972602154508348 -0.06580026616936384
-0.04674190341435201 -0.05115874511672884 -0.07384722100796723
-0.03195816005765852 -0.04259146868837419 -0.0818941758465706
-0.017174416700965034 -0.03402419226001955 -0.089941130685174
-0.0023906733442715516 -0.02545691583166491 -0.09798808552377739
0.01239307001242193 -0.016889639403310265 -0.10603504036238078
0.027176813369115427 -0.008322362974955618 -0.11408199520098417
0.04196055672580891 0.0002449134533990237 -0.12212895003958756
-0.0981652464564081 -0.0600490077608304 -0.04480052115054216
-0.08338150309971461 -0.05148173133247576 -0.05284747598914555
-0.06859775974302113 -0.042914454904121116 -0.06089443082774893
-0.05381401638632764 -0.034347178475766474 -0.06894138566635233
-0.039030273029634154 -0.025779902047411835 -0.0769883405049557
-0.024246529672940664 -0.017212625619057186 -0.0850352953435591
-0.009462786316247182 -0.008645349190702548 -0.09308225018216248
0.0053209570404463 -7.807276234790089e-05 -0.10112920502076587
0.020104700397139796 0.008489203666006745 -0.10917615985936927
0.03488844375383328 0.017056480094361386 -0.11722311469797266
-0.10523735942838373 -0.04323744111986804 -0.03989468580892725
-0.09045361607169024 -0.0346701646915134 -0.04794164064753064
-0.07566987271499676 -0.02610288826315876 -0.05598859548613403
-0.06088612935830327 -0.017535611834804114 -0.06403555032473741
-0.046102386001609784 -0.008968335406449469 -0.0720825051633408
-0.031318642644916295 -0.00040105897809482376 -0.0801294600019442
-0.01653489928822282 0.008166217450259815 -0.08817641484054758
-0.00175115593152933 0.01673349387861446 -0.09622336967915097
0.013032587425164159 0.025300770306969107 -0.10427032451775436
0.02781633078185765 0.03386804673532375 -0.11231727935635775
-0.11230947240035936 -0.026425874478905678 -0.03498885046731235
-0.09752572904366587 -0.017858598050551035 -0.04303580530591574
-0.08274198568697239 -0.009291321622196392 -0.05108276014451913
-0.0679582423302789 -0.0007240451938417466 -0.059129714983122514
-0.05317449897358542 0.007843231234512898 -0.0671766698217259
-0.03839075561689193 0.016410507662867543 -0.0752236246603293
-0.02360701226019845 0.024977784091222182 -0.08327057949893268
-0.00882326890350496 0.03354506051957683 -0.09131753433753607
0.005960474453188529 0.04211233694793148 -0.09936448917613946
0.020744217809882018 0.05067961337628612 -0.10741144401474285
-0.119381585372335 -0.00961430783794332 -0.030083015125697454
-0.1045978420156415 -0.0010470314095886782 -0.03812996996430084
-0.08981409865894802 0.007520245018765964 -0.04617692480290423
-0.07503035530225453 0.01608752144712061 -0.054223879641507614
-0.060246611945561045 0.02465479787547525 -0.062270834480111004
-0.045462868588867555 0.0332220743038299 -0.0703177893187144
-0.030679125232174077 0.04178935073218454 -0.07836474415731778
-0.01589538187548059 0.05035662716053919 -0.08641169899592117
-0.0011116385187871015 0.058923903588893836 -0.09445865383452456
0.013672104837906388 0.06749118001724848 -0.10250560867312795
-0.1264536983443106 0.0071972588030190425 -0.025177179784082553
-0.11166995498761713 0.015764535231373684 -0.03322413462268594
-0.09688621163092365 0.024331811659728326 -0.04127108946128932
-0.08210246827423016 0.03289908808808297 -0.04931804429989271
-0.06731872491753668 0.04146636451643762 -0.0573649991384961
-0.052534981560843186 0.05003364094479226 -0.0654119539770995
-0.03775123820414971 0.058600917373146905 -0.07345890881570288
-0.02296749484745622 0.06716819380150155 -0.08150586365430627
-0.008183751490762732 0.07573547022985619 -0.08955281849290966
0.006599991865930757 0.08430274665821083 -0.09759977333151305
-0.13352581131628624 0.024008825443981415 -0.020271344442467653
-0.11874206795959277 0.03257610187233606 -0.028318299281071043
-0.10395832460289929 0.0411433783006907 -0.03636525411967442
-0.0891745812462058 0.049710654729045345 -0.04441220895827781
-0.07439083788951231 0.058277931157399994 -0.0524591637968812
-0.05960709453281882 0.06684520758575464 -0.06050611863548459
-0.04482335117612534 0.07541248401410927 -0.06855307347408798
-0.030039607819431855 0.08397976044246393 -0.07660002831269136
-0.015255864462738366 0.09254703687081857 -0.08464698315129475
-0.0004721211060448731 0.10111431329917321 -0.09269393798989814
-0.14059792428826187 0.04082039208494378 -0.015365509100852746
-0.1258141809315684 0.04938766851329842 -0.023412463939456136
-0.11103043757487492 0.05795494494165306 -0.031459418778059516
-0.09624669421818144 0.06652222137000771 -0.039506373616662906
-0.08146295086148794 0.07508949779836235 -0.047553328455266296
-0.06667920750479446 0.083656774226717 -0.055600283293869686
-0.05189546414810098 0.09222405065507164 -0.06364723813247307
-0.03711172079140749 0.10079132708342628 -0.07169419297107646
-0.022327977434714 0.10935860351178092 -0.07974114780967985
-0.0075442340780205105 0.11792587994013556 -0.08778810264828324
0.0075442340780205105 -0.11792587994013556 0.08778810264828324
0.022327977434714 -0.10935860351178092 0.07974114780967985
0.03711172079140748 -0.10079132708342628 0.07169419297107646
0.051895464148100964 -0.09222405065507164 0.06364723813247308
0.06667920750479446 -0.083656774226717 0.055600283293869686
0.08146295086148794 -0.07508949779836235 0.047553328455266296
0.09624669421818143 -0.06652222137000771 0.03950637361666291
0.11103043757487492 -0.05795494494165307 0.03145941877805952
0.1258141809315684 -0.04938766851329842 0.023412463939456136
0.14059792428826187 -0.04082039208494378 0.015365509100852746
0.0004721211060448731 -0.10111431329917321 0.09269393798989814
0.015255864462738366 -0.09254703687081857 0.08464698315129475
0.030039607819431848 -0.08397976044246393 0.07660002831269137
0.044823351176125334 -0.07541248401410929 0.06855307347408798
0.05960709453281882 -0.06684520758575464 0.06050611863548459
0.07439083788951231 -0.058277931157399994 0.0524591637968812
0.0891745812462058 -0.04971065472904535 0.04441220895827781
0.10395832460289928 -0.0411433783006907 0.03636525411967443
0.11874206795959277 -0.03257610187233606 0.028318299281071043
0.13352581131628624 -0.024008825443981415 0.020271344442467653
-0.006599991865930757 -0.08430274665821084 0.09759977333151304
0.008183751490762739 -0.0757354702298562 0.08955281849290965
0.022967494847456218 -0.06716819380150156 0.08150586365430627
0.037751238204149704 -0.05860091737314692 0.07345890881570288
0.05253498156084319 -0.05003364094479227 0.0654119539770995
0.06731872491753668 -0.04146636451643763 0.0573649991384961
0.08210246827423016 -0.032899088088082985 0.04931804429989271
0.09688621163092365 -0.024331811659728336 0.04127108946128933
0.11166995498761714 -0.01576453523137369 0.03322413462268594
0.1264536983443106 -0.0071972588030190495 0.025177179784082553
-0.013672104837906388 -0.06749118001724848 0.10250560867312794
0.0011116385187871084 -0.058923903588893836 0.09445865383452455
0.015895381875480587 -0.050356627160539194 0.08641169899592117
0.030679125232174073 -0.04178935073218455 0.07836474415731778
0.04546286858886756 -0.03322207430382991 0.0703177893187144
0.06024661194556105 -0.024654797875475257 0.062270834480111004
0.07503035530225453 -0.016087521447120622 0.05422387964150762
0.08981409865894802 -0.007520245018765974 0.04617692480290423
0.10459784201564151 0.0010470314095886713 0.03812996996430084
0.119381585372335 0.009614307837943313 0.030083015125697454
-0.020744217809882018 -0.05067961337628612 0.10741144401474285
-0.005960474453188529 -0.04211233694793148 0.09936448917613946
0.008823268903504954 -0.033545060519576834 0.09131753433753607
0.02360701226019844 -0.024977784091222185 0.08327057949893268
0.03839075561689193 -0.016410507662867543 0.0752236246603293
0.05317449897358542 -0.007843231234512898 0.0671766698217259
0.06795824233027889 0.0007240451938417414 0.05912971498312252
0.08274198568697239 0.009291321622196388 0.05108276014451913
0.09752572904366587 0.017858598050551035 0.04303580530591574
0.11230947240035936 0.026425874478905678 0.03498885046731235
-0.02781633078185765 -0.03386804673532375 0.11231727935635775
-0.013032587425164159 -0.025300770306969107 0.10427032451775436
0.001751155931529323 -0.016733493878614464 0.09622336967915097
0.01653489928822281 -0.00816621745025982 0.08817641484054758
0.031318642644916295 0.00040105897809482376 0.0801294600019442
0.046102386001609784 0.008968335406449469 0.0720825051633408
0.060886129358303266 0.01753561183480411 0.06403555032473743
0.07566987271499676 0.026102888263158756 0.05598859548613403
0.09045361607169024 0.0346701646915134 0.04794164064753064
0.10523735942838373 0.04323744111986804 0.03989468580892725
-0.03488844375383328 -0.017056480094361393 0.11722311469797266
-0.02010470039713979 -0.008489203666006752 0.10917615985936927
-0.005320957040446307 7.807276234789048e-05 0.10112920502076587
0.009462786316247182 0.008645349190702535 0.09308225018216248
0.024246529672940668 0.01721262561905718 0.0850352953435591
0.03903027302963416 0.02577990204741183 0.0769883405049557
0.053814016386327636 0.03434717847576646 0.06894138566635233
0.06859775974302113 0.04291445490412111 0.06089443082774893
0.08338150309971461 0.05148173133247576 0.05284747598914554
0.0981652464564081 0.0600490077608304 0.04480052115054215
-0.04196055672580891 -0.00024491345339903065 0.12212895003958756
-0.027176813369115413 0.00832236297495561 0.11408199520098417
-0.012393070012421938 0.016889639403310255 0.10603504036238078
0.0023906733442715516 0.0254569158316649 0.09798808552377739
0.017174416700965037 0.03402419226001954 0.089941130685174
0.03195816005765852 0.042591468688374184 0.0818941758465706
0.046741903414352005 0.051158745116728827 0.07384722100796723
0.061525646771045495 0.05972602154508347 0.06580026616936384
0.07630939012773898 0.06829329797343811 0.05775331133076044
0.09109313348443247 0.07686057440179275 0.04970635649215705
-0.04903266969778454 0.016566653187563344 0.12703478538120244
-0.03424892634109106 0.025133929615917986 0.11898783054259907
-0.019465182984397575 0.033701206044272625 0.11094087570399568
-0.004681439627704086 0.04226848247262727 0.10289392086539229
0.010102303728989404 0.050835758900981916 0.0948469660267889
0.024886047085682893 0.059403035329336565 0.0868000111881855
0.03966979044237637 0.06797031175769119 0.07875305634958213
0.05445353379906986 0.07653758818604585 0.07070610151097874
0.06923727715576335 0.08510486461440049 0.06265914667237535
0.08402102051245684 0.09367214104275513 0.05461219183377196
-0.05610478266976017 0.0333782198285257 0.13194062072281737
-0.04132103931306669 0.04194549625688034 0.12389366588421397
-0.026537295956373205 0.050512772685234984 0.11584671104561059
-0.011753552599679723 0.05908004911358963 0.1077997562070072
0.0030301907570137662 0.06764732554194428 0.09975280136840381
0.01781393411370726 0.07621460197029892 0.09170584652980042
0.03259767747040074 0.08478187839865356 0.08365889169119703
0.04738142082709423 0.0933491548270082 0.07561193685259364
0.062165164183787716 0.10191643125536284 0.06756498201399025
0.0769489075404812 0.11048370768371749 0.05951802717538686
