# .PCD v0.7 - Point Cloud Data file format
VERSION 0.7
FIELDS x y z
SIZE 4 4 4
TYPE F F F
COUNT 1 1 1
WIDTH 600
HEIGHT 1
VIEWPOINT 0 0 0 1 0 0 0
POINTS 600
DATA ascii
-0.07108054329527529 -0.10388022676524601 -0.01057998948596234
-0.07674293718634193 -0.08884447862198262 -0.008457434161879657
-0.08240533107740858 -0.07380873047871923 -0.006334878837796968
-0.08806772496847522 -0.05877298233545586 -0.004212323513714285
-0.09373011885954186 -0.04373723419219247 -0.002089768189631602
-0.09939251275060851 -0.02870148604892908 3.27871344510871e-05
-0.10505490664167515 -0.013665737905665703 0.0021553424585337697
-0.1107173005327418 0.0013700102375976833 0.004277897782616452
-0.11637969442380844 0.01640575838086107 0.006400453106699141
-0.12204208831487509 0.03144150652412446 0.008523008430781824
-0.05993045272846749 -0.10130098040491918 0.000894531701161496
-0.06559284661953414 -0.08626523226165579 0.0030170870252441786
-0.07125524051060078 -0.0712294841183924 0.005139642349326868
-0.07691763440166742 -0.05619373597512903 0.00726219767340955
-0.08258002829273407 -0.04115798783186564 0.009384752997492233
-0.08824242218380073 -0.02612223968860225 0.011507308321574922
-0.09390481607486736 -0.01108649154533887 0.013629863645657605
-0.099567209965934 0.0039492565979245145 0.01575241896974029
-0.10522960385700066 0.018985004741187902 0.017874974293822978
-0.11089199774806731 0.03402075288445129 0.01999752961790566
-0.0487803621616597 -0.09872173404459235 0.012369052888285331
-0.054442756052726346 -0.08368598590132896 0.014491608212368013
-0.060105149943793 -0.06865023775806557 0.016614163536450705
-0.06576754383485964 -0.0536144896148022 0.018736718860533387
-0.07142993772592628 -0.03857874147153881 0.02085927418461607
-0.07709233161699293 -0.02354299332827542 0.02298182950869876
-0.08275472550805957 -0.008507245185012039 0.02510438483278144
-0.08841711939912622 0.006528502958251346 0.027226940156864124
-0.09407951329019286 0.021564251101514734 0.029349495480946813
-0.09974190718125951 0.03659999924477812 0.031472050805029496
-0.03763027159485192 -0.09614248768426552 0.023843574075409157
-0.04329266548591856 -0.08110673954100213 0.02596612939949184
-0.048955059376985216 -0.06607099139773874 0.02808868472357453
-0.054617453268051855 -0.051035243254475365 0.030211240047657212
-0.0602798471591185 -0.03599949511121198 0.032333795371739894
-0.06594224105018515 -0.020963746967948588 0.034456350695822584
-0.07160463494125179 -0.005927998824685209 0.036578906019905266
-0.07726702883231844 0.009107749318578176 0.03870146134398795
-0.08292942272338508 0.024143497461841565 0.04082401666807064
-0.08859181661445173 0.039179245605104954 0.04294657199215332
-0.026480181028044128 -0.09356324132393869 0.035318095262532996
-0.032142574919110774 -0.0785274931806753 0.03744065058661568
-0.037804968810177426 -0.06349174503741191 0.03956320591069837
-0.043467362701244065 -0.048455996894148534 0.04168576123478105
-0.04912975659231071 -0.033420248750885145 0.04380831655886373
-0.054792150483377364 -0.018384500607621757 0.04593087188294642
-0.060454544374444 -0.003348752464358378 0.048053427207029105
-0.06611693826551064 0.011686995678905007 0.05017598253111179
-0.0717793321565773 0.026722743822168396 0.05229853785519448
-0.07744172604764395 0.041758491965431785 0.05442109317927716
-0.015330090461236338 -0.09098399496361186 0.04679261644965683
-0.020992484352302984 -0.07594824682034847 0.04891517177373951
-0.026654878243369633 -0.06091249867708508 0.0510377270978222
-0.03231727213443627 -0.0458767505338217 0.05316028242190488
-0.037979666025502914 -0.030841002390558314 0.055282837745987565
-0.04364205991656957 -0.015805254247294925 0.057405393070070254
-0.049304453807636206 -0.0007695061040315468 0.05952794839415294
-0.05496684769870285 0.014266242039231838 0.06165050371823562
-0.0606292415897695 0.029301990182495227 0.06377305904231831
-0.06629163548083615 0.044337738325758616 0.065895614366401
-0.004179999894428555 -0.08840474860328502 0.05826713763678066
-0.0098423937854952 -0.07336900046002164 0.06038969296086334
-0.015504787676561849 -0.05833325231675825 0.06251224828494603
-0.02116718156762849 -0.04329750417349487 0.06463480360902871
-0.026829575458695135 -0.028261756030231483 0.0667573589331114
-0.032491969349761785 -0.013226007886968096 0.06887991425719409
-0.03815436324082842 0.001809740256295283 0.07100246958127676
-0.04381675713189507 0.01684548839955867 0.07312502490535945
-0.049479151022961715 0.03188123654282206 0.07524758022944214
-0.05514154491402837 0.04691698468608545 0.07737013555352482
0.006970090672379236 -0.0858255022429582 0.0697416588239045
0.0013076967813125898 -0.0707897540996948 0.07186421414798717
-0.004354697109754059 -0.055754005956431416 0.07398676947206986
-0.010017091000820698 -0.04071825781316804 0.07610932479615255
-0.015679484891887346 -0.025682509669904652 0.07823188012023523
-0.021341878782954 -0.010646761526641265 0.08035443544431792
-0.027004272674020637 0.004388986616622115 0.08247699076840061
-0.03266666656508728 0.0194247347598855 0.08459954609248328
-0.038329060456153925 0.03446048290314889 0.08672210141656597
-0.04399145434722058 0.04949623104641228 0.08884465674064866
0.018120181239187027 -0.08324625588263136 0.08121618001102833
0.01245778734812038 -0.06821050773936797 0.083338735335111
0.006795393457053731 -0.053174759596104584 0.0854612906591937
0.001132999565987092 -0.03813901145284121 0.08758384598327638
-0.0045293943250795535 -0.02310326330957782 0.08970640130735906
-0.010191788216146207 -0.008067515166314434 0.09182895663144175
-0.015854182107212844 0.006968232976948946 0.09395151195552444
-0.02151657599827949 0.022003981120212332 0.09607406727960711
-0.027178969889346136 0.03703972926347572 0.0981966226036898
-0.03284136378041279 0.05207547740673911 0.1003191779277725
0.029270271805994817 -0.08066700952230453 0.09269070119815216
0.02360787791492817 -0.06563126137904114 0.09481325652223485
0.01794548402386152 -0.05059551323577775 0.09693581184631754
0.012283090132794883 -0.03555976509251438 0.09905836717040022
0.006620696241728237 -0.02052401694925099 0.1011809224944829
0.0009583023506615839 -0.0054882688059876015 0.1033034778185656
-0.0047040915404050546 0.009547479337275778 0.10542603314264827
-0.0103664854314717 0.024583227480539163 0.10754858846673096
-0.016028879322538346 0.03961897562380255 0.10967114379081365
-0.021691273213605 0.05465472376706594 0.11179369911489632
0.021691273213605 -0.05465472376706594 -0.11179369911489632
0.016028879322538346 -0.03961897562380255 -0.10967114379081365
0.0103664854314717 -0.024583227480539163 -0.10754858846673096
0.0047040915404050615 -0.009547479337275785 -0.10542603314264827
-0.0009583023506615839 0.0054882688059876015 -0.1033034778185656
-0.006620696241728237 0.02052401694925099 -0.1011809224944829
-0.012283090132794876 0.035559765092514364 -0.09905836717040022
-0.01794548402386152 0.05059551323577775 -0.09693581184631754
-0.02360787791492817 0.06563126137904114 -0.09481325652223485
-0.029270271805994817 0.08066700952230453 -0.09269070119815216
0.03284136378041279 -0.05207547740673911 -0.1003191779277725
0.027178969889346136 -0.03703972926347572 -0.0981966226036898
0.02151657599827949 -0.022003981120212332 -0.09607406727960711
0.01585418210721285 -0.006968232976948953 -0.09395151195552444
0.010191788216146207 0.008067515166314434 -0.09182895663144175
0.0045293943250795535 0.02310326330957782 -0.08970640130735906
-0.001132999565987085 0.038139011452841196 -0.08758384598327638
-0.006795393457053731 0.053174759596104584 -0.0854612906591937
-0.01245778734812038 0.06821050773936797 -0.083338735335111
-0.018120181239187027 0.08324625588263136 -0.08121618001102833
0.04399145434722058 -0.04949623104641228 -0.08884465674064866
0.038329060456153925 -0.03446048290314889 -0.08672210141656597
0.03266666656508728 -0.0194247347598855 -0.08459954609248328
0.027004272674020644 -0.0043889866166221215 -0.08247699076840061
0.021341878782954 0.010646761526641265 -0.08035443544431792
0.015679484891887346 0.025682509669904652 -0.07823188012023523
0.010017091000820705 0.04071825781316803 -0.07610932479615255
0.004354697109754059 0.055754005956431416 -0.07398676947206986
-0.0013076967813125898 0.0707897540996948 -0.07186421414798717
-0.006970090672379236 0.0858255022429582 -0.0697416588239045
0.05514154491402836 -0.04691698468608545 -0.07737013555352483
0.04947915102296171 -0.03188123654282206 -0.07524758022944214
0.04381675713189506 -0.01684548839955867 -0.07312502490535945
0.03815436324082842 -0.0018097402562952914 -0.07100246958127678
0.03249196934976178 0.013226007886968094 -0.06887991425719409
0.02682957545869513 0.028261756030231483 -0.0667573589331114
0.02116718156762849 0.04329750417349486 -0.06463480360902872
0.015504787676561842 0.05833325231675825 -0.06251224828494603
0.009842393785495193 0.07336900046002164 -0.06038969296086335
0.004179999894428548 0.08840474860328502 -0.058267137636780666
0.06629163548083615 -0.044337738325758616 -0.065895614366401
0.0606292415897695 -0.029301990182495227 -0.06377305904231831
0.05496684769870285 -0.014266242039231838 -0.06165050371823562
0.04930445380763621 0.0007695061040315399 -0.05952794839415294
0.04364205991656957 0.015805254247294925 -0.057405393070070254
0.037979666025502914 0.030841002390558314 -0.055282837745987565
0.032317272134436276 0.04587675053382169 -0.05316028242190488
0.026654878243369633 0.06091249867708508 -0.0510377270978222
0.020992484352302984 0.07594824682034847 -0.04891517177373951
0.015330090461236338 0.09098399496361186 -0.04679261644965683
0.07744172604764395 -0.041758491965431785 -0.05442109317927716
0.0717793321565773 -0.026722743822168396 -0.05229853785519448
0.06611693826551064 -0.011686995678905007 -0.05017598253111179
0.06045454437444401 0.003348752464358371 -0.048053427207029105
0.054792150483377364 0.018384500607621757 -0.04593087188294642
0.04912975659231071 0.033420248750885145 -0.04380831655886373
0.04346736270124407 0.04845599689414852 -0.04168576123478105
0.037804968810177426 0.06349174503741191 -0.03956320591069837
0.032142574919110774 0.0785274931806753 -0.03744065058661568
0.026480181028044128 0.09356324132393869 -0.035318095262532996
0.08859181661445173 -0.039179245605104954 -0.04294657199215333
0.08292942272338508 -0.024143497461841565 -0.040824016668070645
0.07726702883231842 -0.009107749318578178 -0.038701461343987956
0.07160463494125179 0.005927998824685201 -0.03657890601990527
0.06594224105018515 0.020963746967948588 -0.03445635069582259
0.060279847159118494 0.03599949511121198 -0.0323337953717399
0.054617453268051855 0.05103524325447535 -0.030211240047657222
0.04895505937698521 0.06607099139773874 -0.02808868472357454
0.043292665485918556 0.08110673954100213 -0.02596612939949185
0.03763027159485191 0.09614248768426552 -0.023843574075409168
0.09974190718125951 -0.03659999924477812 -0.031472050805029496
0.09407951329019286 -0.021564251101514734 -0.029349495480946813
0.08841711939912622 -0.006528502958251346 -0.027226940156864124
0.08275472550805958 0.008507245185012032 -0.02510438483278144
0.07709233161699293 0.02354299332827542 -0.02298182950869876
0.07142993772592628 0.03857874147153881 -0.02085927418461607
0.06576754383485964 0.05361448961480218 -0.018736718860533387
0.060105149943793 0.06865023775806557 -0.016614163536450705
0.054442756052726346 0.08368598590132896 -0.014491608212368013
0.0487803621616597 0.09872173404459235 -0.012369052888285331
0.11089199774806731 -0.03402075288445129 -0.01999752961790566
0.10522960385700066 -0.018985004741187902 -0.017874974293822978
0.099567209965934 -0.0039492565979245145 -0.01575241896974029
0.09390481607486736 0.011086491545338863 -0.013629863645657605
0.08824242218380073 0.02612223968860225 -0.011507308321574922
0.08258002829273407 0.04115798783186564 -0.009384752997492233
0.07691763440166743 0.056193735975129014 -0.00726219767340955
0.07125524051060078 0.0712294841183924 -0.005139642349326868
0.06559284661953414 0.08626523226165579 -0.0030170870252441786
0.05993045272846749 0.10130098040491918 -0.000894531701161496
0.12204208831487509 -0.03144150652412446 -0.008523008430781824
0.11637969442380844 -0.01640575838086107 -0.006400453106699141
0.1107173005327418 -0.0013700102375976833 -0.004277897782616452
0.10505490664167516 0.013665737905665696 -0.0021553424585337697
0.09939251275060851 0.02870148604892908 -3.27871344510871e-05
0.09373011885954186 0.04373723419219247 0.002089768189631602
0.08806772496847522 0.058772982335455845 0.004212323513714285
0.08240533107740858 0.07380873047871923 0.006334878837796968
0.07674293718634193 0.08884447862198262 0.008457434161879657
0.07108054329527529 0.10388022676524601 0.01057998948596234
-0.07108054329527529 -0.10388022676524601 -0.01057998948596234
-0.06077256368317747 -0.09841072643211489 -0.02182595722251056
-0.05046458407107966 -0.09294122609898377 -0.033071924959058786
-0.04015660445898186 -0.08747172576585266 -0.044317892695607
-0.02984862484688405 -0.08200222543272154 -0.05556386043215522
-0.019540645234786238 -0.07653272509959042 -0.06680982816870344
-0.009232665622688437 -0.0710632247664593 -0.07805579590525166
0.0010753139894093757 -0.06559372443332817 -0.08930176364179988
0.011383293601507187 -0.06012422410019706 -0.1005477313783481
0.021691273213605 -0.05465472376706594 -0.11179369911489632
-0.05993045272846749 -0.10130098040491918 0.000894531701161496
-0.04962247311636968 -0.09583148007178806 -0.010351436035386725
-0.03931449350427187 -0.09036197973865694 -0.02159740377193495
-0.02900651389217407 -0.08489247940552583 -0.03284337150848316
-0.01869853428007626 -0.0794229790723947 -0.04408933924503139
-0.008390554667978447 -0.07395347873926358 -0.05533530698157961
0.0019174249441193541 -0.06848397840613246 -0.06658127471812783
0.012225404556217167 -0.06301447807300134 -0.07782724245467605
0.022533384168314977 -0.05754497773987023 -0.08907321019122427
0.03284136378041279 -0.05207547740673911 -0.1003191779277725
-0.0487803621616597 -0.09872173404459235 0.012369052888285331
-0.03847238254956189 -0.09325223371146123 0.0011230851517371105
-0.02816440293746408 -0.0877827333783301 -0.010122882584811118
-0.017856423325366275 -0.082313233045199 -0.02136885032135933
-0.007548443713268469 -0.07684373271206787 -0.03261481805790755
0.002759535898829343 -0.07137423237893675 -0.04386078579445578
0.013067515510927144 -0.06590473204580563 -0.05510675353100399
0.023375495123024958 -0.060435231712674516 -0.06635272126755222
0.033683474735122766 -0.0549657313795434 -0.07759868900410044
0.04399145434722058 -0.04949623104641228 -0.08884465674064866
-0.03763027159485192 -0.09614248768426552 0.023843574075409157
-0.027322291982754106 -0.0906729873511344 0.012597606338860938
-0.017014312370656298 -0.08520348701800327 0.0013516386023127106
-0.0067063327585584935 -0.07973398668487217 -0.009894329134235502
0.0036016468535393143 -0.07426448635174104 -0.021140296870783726
0.013909626465637126 -0.06879498601860992 -0.03238626460733195
0.02421760607773493 -0.06332548568547881 -0.04363223234388017
0.03452558568983274 -0.057855985352347684 -0.05487820008042839
0.04483356530193055 -0.05238648501921657 -0.06612416781697661
0.05514154491402836 -0.04691698468608545 -0.07737013555352483
-0.026480181028044128 -0.09356324132393869 0.035318095262532996
-0.016172201415946316 -0.08809374099080756 0.024072127525984772
-0.005864221803848508 -0.08262424065767644 0.012826159789436546
0.004443757808249297 -0.07715474032454533 0.0015801920528883337
0.014751737420347105 -0.07168523999141421 -0.00966577568365989
0.025059717032444917 -0.06621573965828309 -0.020911743420208115
0.035367696644542715 -0.060746239325151975 -0.03215771115675633
0.04567567625664053 -0.05527673899202085 -0.04340367889330455
0.05598365586873834 -0.04980723865888974 -0.05464964662985277
0.06629163548083615 -0.044337738325758616 -0.065895614366401
-0.015330090461236338 -0.09098399496361186 0.04679261644965683
-0.005022110849138527 -0.08551449463048073 0.03554664871310861
0.005285868762959282 -0.08004499429734961 0.024300680976560383
0.015593848375057087 -0.0745754939642185 0.013054713240012169
0.025901827987154895 -0.06910599363108738 0.0018087455034639455
0.03620980759925271 -0.06363649329795626 -0.009437222233084278
0.04651778721135051 -0.058166992964825144 -0.020683189969632493
0.05682576682344832 -0.05269749263169402 -0.03192915770618072
0.06713374643554613 -0.04722799229856291 -0.04317512544272894
0.07744172604764395 -0.041758491965431785 -0.05442109317927716
-0.004179999894428555 -0.08840474860328502 0.05826713763678066
0.006127979717669257 -0.0829352482701539 0.04702116990023244
0.016435959329767064 -0.07746574793702278 0.03577520216368421
0.02674393894186487 -0.07199624760389167 0.024529234427135997
0.03705191855396268 -0.06652674727076055 0.013283266690587773
0.04735989816606049 -0.06105724693762943 0.00203729895403955
0.057667877778158294 -0.05558774660449831 -0.009208668782508667
0.0679758573902561 -0.05011824627136719 -0.02045463651905689
0.07828383700235392 -0.044648745938236076 -0.03170060425560511
0.08859181661445173 -0.039179245605104954 -0.04294657199215333
0.006970090672379236 -0.0858255022429582 0.0697416588239045
0.017278070284477046 -0.08035600190982707 0.05849569108735627
0.027586049896574854 -0.07488650157669595 0.04724972335080804
0.03789402950867266 -0.06941700124356484 0.03600375561425983
0.04820200912077047 -0.06394750091043372 0.024757787877711608
0.05850998873286828 -0.0584780005773026 0.013511820141163386
0.06881796834496608 -0.05300850024417148 0.002265852404615168
0.07912594795706389 -0.04753899991104036 -0.008980115331933053
0.0894339275691617 -0.042069499577909245 -0.020226083068481275
0.09974190718125951 -0.03659999924477812 -0.031472050805029496
0.018120181239187027 -0.08324625588263136 0.08121618001102833
0.02842816085128484 -0.07777675554950024 0.06997021227448011
0.03873614046338265 -0.07230725521636912 0.05872424453793188
0.04904412007548045 -0.06683775488323801 0.04747827680138367
0.05935209968757826 -0.06136825455010689 0.03623230906483545
0.06966007929967608 -0.055898754216975766 0.02498634132828722
0.07996805891177387 -0.05042925388384465 0.013740373591739003
0.09027603852387169 -0.04495975355071353 0.0024944058551907822
0.1005840181359695 -0.03949025321758241 -0.008751561881357438
0.11089199774806731 -0.03402075288445129 -0.01999752961790566
0.029270271805994817 -0.08066700952230453 0.09269070119815216
0.039578251418092625 -0.07519750918917341 0.08144473346160394
0.04988623103019044 -0.06972800885604229 0.07019876572505572
0.06019421064228824 -0.06425850852291118 0.0589527979885075
0.07050219025438605 -0.058789008189780056 0.04770683025195928
0.08081016986648386 -0.053319507856648934 0.03646086251541106
0.09111814947858166 -0.04785000752351782 0.025214894778862837
0.10142612909067947 -0.0423805071903867 0.013968927042314618
0.11173410870277728 -0.03691100685725558 0.0027229593057663966
0.12204208831487509 -0.03144150652412446 -0.008523008430781824
-0.12204208831487509 0.03144150652412446 0.008523008430781824
-0.11173410870277728 0.03691100685725558 -0.0027229593057663966
-0.10142612909067947 0.0423805071903867 -0.013968927042314618
-0.09111814947858167 0.04785000752351781 -0.02521489477886283
-0.08081016986648386 0.053319507856648934 -0.03646086251541106
-0.07050219025438605 0.058789008189780056 -0.04770683025195928
-0.06019421064228825 0.06425850852291116 -0.05895279798850749
-0.04988623103019044 0.06972800885604229 -0.07019876572505572
-0.039578251418092625 0.07519750918917341 -0.08144473346160394
-0.029270271805994817 0.08066700952230453 -0.09269070119815216
-0.11089199774806731 0.03402075288445129 0.01999752961790566
-0.1005840181359695 0.03949025321758241 0.008751561881357438
-0.09027603852387169 0.04495975355071353 -0.0024944058551907822
-0.07996805891177387 0.050429253883844644 -0.013740373591738997
-0.06966007929967608 0.055898754216975766 -0.02498634132828722
-0.05935209968757826 0.06136825455010689 -0.03623230906483545
-0.04904412007548046 0.066837754883238 -0.04747827680138366
-0.03873614046338265 0.07230725521636912 -0.05872424453793188
-0.02842816085128484 0.07777675554950024 -0.06997021227448011
-0.018120181239187027 0.08324625588263136 -0.08121618001102833
-0.09974190718125951 0.03659999924477812 0.031472050805029496
-0.0894339275691617 0.042069499577909245 0.020226083068481275
-0.07912594795706389 0.04753899991104036 0.008980115331933053
-0.06881796834496609 0.053008500244171475 -0.002265852404615161
-0.05850998873286828 0.0584780005773026 -0.013511820141163386
-0.04820200912077047 0.06394750091043372 -0.024757787877711608
-0.03789402950867267 0.06941700124356483 -0.03600375561425982
-0.027586049896574854 0.07488650157669595 -0.04724972335080804
-0.017278070284477046 0.08035600190982707 -0.05849569108735627
-0.006970090672379236 0.0858255022429582 -0.0697416588239045
-0.08859181661445173 0.039179245605104954 0.04294657199215332
-0.07828383700235392 0.044648745938236076 0.0317006042556051
-0.0679758573902561 0.05011824627136719 0.02045463651905688
-0.05766787777815831 0.055587746604498306 0.009208668782508667
-0.047359898166060496 0.06105724693762943 -0.0020372989540395573
-0.037051918553962684 0.06652674727076055 -0.013283266690587782
-0.026743938941864883 0.07199624760389166 -0.024529234427135997
-0.01643595932976707 0.07746574793702278 -0.03577520216368422
-0.006127979717669264 0.0829352482701539 -0.047021169900232446
0.004179999894428548 0.08840474860328502 -0.058267137636780666
-0.07744172604764395 0.041758491965431785 0.05442109317927716
-0.06713374643554613 0.04722799229856291 0.04317512544272894
-0.05682576682344832 0.05269749263169402 0.03192915770618072
-0.04651778721135052 0.05816699296482514 0.0206831899696325
-0.03620980759925271 0.06363649329795626 0.009437222233084278
-0.025901827987154895 0.06910599363108738 -0.0018087455034639455
-0.015593848375057093 0.07457549396421849 -0.013054713240012162
-0.005285868762959282 0.08004499429734961 -0.024300680976560383
0.005022110849138527 0.08551449463048073 -0.03554664871310861
0.015330090461236338 0.09098399496361186 -0.04679261644965683
-0.06629163548083615 0.044337738325758616 0.065895614366401
-0.05598365586873834 0.04980723865888974 0.05464964662985277
-0.04567567625664053 0.05527673899202085 0.04340367889330455
-0.03536769664454272 0.06074623932515197 0.032157711156756336
-0.025059717032444917 0.06621573965828309 0.020911743420208115
-0.014751737420347105 0.07168523999141421 0.00966577568365989
-0.004443757808249304 0.07715474032454532 -0.0015801920528883268
0.005864221803848508 0.08262424065767644 -0.012826159789436546
0.016172201415946316 0.08809374099080756 -0.024072127525984772
0.026480181028044128 0.09356324132393869 -0.035318095262532996
-0.05514154491402837 0.04691698468608545 0.07737013555352482
-0.044833565301930556 0.05238648501921657 0.0661241678169766
-0.034525585689832744 0.057855985352347684 0.05487820008042838
-0.024217606077734943 0.0633254856854788 0.04363223234388017
-0.013909626465637133 0.06879498601860992 0.03238626460733194
-0.0036016468535393217 0.07426448635174104 0.02114029687078372
0.00670633275855848 0.07973398668487215 0.009894329134235502
0.01701431237065629 0.08520348701800327 -0.001351638602312718
0.0273222919827541 0.0906729873511344 -0.012597606338860945
0.03763027159485191 0.09614248768426552 -0.023843574075409168
-0.04399145434722058 0.04949623104641228 0.08884465674064866
-0.033683474735122766 0.0549657313795434 0.07759868900410044
-0.023375495123024958 0.060435231712674516 0.06635272126755222
-0.013067515510927151 0.06590473204580563 0.055106753531004
-0.002759535898829343 0.07137423237893675 0.04386078579445578
0.007548443713268469 0.07684373271206787 0.03261481805790755
0.01785642332536627 0.08231323304519898 0.021368850321359337
0.02816440293746408 0.0877827333783301 0.010122882584811118
0.03847238254956189 0.09325223371146123 -0.0011230851517371105
0.0487803621616597 0.09872173404459235 -0.012369052888285331
-0.03284136378041279 0.05207547740673911 0.1003191779277725
-0.022533384168314977 0.05754497773987023 0.08907321019122427
-0.012225404556217167 0.06301447807300134 0.07782724245467605
-0.001917424944119361 0.06848397840613246 0.06658127471812783
0.008390554667978447 0.07395347873926358 0.05533530698157961
0.01869853428007626 0.0794229790723947 0.04408933924503139
0.02900651389217406 0.08489247940552581 0.03284337150848317
0.03931449350427187 0.09036197973865694 0.02159740377193495
0.04962247311636968 0.09583148007178806 0.010351436035386725
0.05993045272846749 0.10130098040491918 -0.000894531701161496
-0.021691273213605 0.05465472376706594 0.11179369911489632
-0.011383293601507187 0.06012422410019706 0.1005477313783481
-0.0010753139894093757 0.06559372443332817 0.08930176364179988
0.00923266562268843 0.0710632247664593 0.07805579590525168
0.019540645234786238 0.07653272509959042 0.06680982816870344
0.02984862484688405 0.08200222543272154 0.05556386043215522
0.04015660445898185 0.08747172576585265 0.04431789269560701
0.05046458407107966 0.09294122609898377 0.033071924959058786
0.06077256368317747 0.09841072643211489 0.02182595722251056
0.07108054329527529 0.10388022676524601 0.01057998948596234
-0.07108054329527529 -0.10388022676524601 -0.01057998948596234
-0.06077256368317747 -0.09841072643211489 -0.02182595722251056
-0.05046458407107966 -0.09294122609898377 -0.033071924959058786
-0.04015660445898186 -0.08747172576585266 -0.044317892695607
-0.02984862484688405 -0.08200222543272154 -0.05556386043215522
-0.019540645234786238 -0.07653272509959042 -0.06680982816870344
-0.009232665622688437 -0.0710632247664593 -0.07805579590525166
0.0010753139894093757 -0.06559372443332817 -0.08930176364179988
0.011383293601507187 -0.06012422410019706 -0.1005477313783481
0.021691273213605 -0.05465472376706594 -0.11179369911489632
-0.07674293718634193 -0.08884447862198262 -0.008457434161879657
-0.06643495757424411 -0.0833749782888515 -0.019703401898427876
-0.05612697796214631 -0.07790547795572038 -0.0309493696349761
-0.045818998350048504 -0.07243597762258927 -0.04219533737152432
-0.03551101873795069 -0.06696647728945815 -0.05344130510807254
-0.025203039125852884 -0.061496976956327026 -0.06468727284462077
-0.014895059513755082 -0.05602747662319591 -0.07593324058116897
-0.0045870799016572705 -0.05055797629006479 -0.0871792083177172
0.005720899710440534 -0.045088475956933674 -0.09842517605426543
0.016028879322538346 -0.03961897562380255 -0.10967114379081365
-0.08240533107740858 -0.07380873047871923 -0.006334878837796968
-0.07209735146531077 -0.06833923014558811 -0.017580846574345187
-0.061789371853212954 -0.06286972981245699 -0.028826814310893414
-0.05148139224111515 -0.05740022947932588 -0.04007278204744163
-0.04117341262901734 -0.05193072914619476 -0.05131874978398985
-0.030865433016919533 -0.04646122881306364 -0.06256471752053808
-0.020557453404821728 -0.04099172847993252 -0.0738106852570863
-0.010249473792723916 -0.0355222281468014 -0.08505665299363452
5.850581937388889e-05 -0.030052727813670282 -0.09630262073018274
0.0103664854314717 -0.024583227480539163 -0.10754858846673096
-0.08806772496847522 -0.05877298233545586 -0.004212323513714285
-0.0777597453563774 -0.05330348200232474 -0.015458291250262506
-0.0674517657442796 -0.047833981669193615 -0.02670425898681073
-0.057143786132181795 -0.0423644813360625 -0.037950226723358946
-0.046835806520083983 -0.03689498100293138 -0.04919619445990717
-0.03652782690798617 -0.031425480669800256 -0.06044216219645539
-0.026219847295888374 -0.025955980336669144 -0.07168812993300361
-0.015911867683790562 -0.020486480003538022 -0.08293409766955183
-0.00560388807169275 -0.015016979670406903 -0.09418006540610005
0.0047040915404050615 -0.009547479337275785 -0.10542603314264827
-0.09373011885954186 -0.04373723419219247 -0.002089768189631602
-0.08342213924744404 -0.03826773385906135 -0.013335735926179823
-0.07311415963534625 -0.032798233525930226 -0.024581703662728042
-0.06280618002324843 -0.027328733192799114 -0.035827671399276256
-0.05249820041115063 -0.021859232859667992 -0.047073639135824484
-0.04219022079905282 -0.016389732526536874 -0.058319606872372705
-0.03188224118695502 -0.010920232193405757 -0.06956557460892092
-0.021574261574857208 -0.005450731860274637 -0.08081154234546914
-0.011266281962759396 1.8768472856482862e-05 -0.09205751008201737
-0.0009583023506615839 0.0054882688059876015 -0.1033034778185656
-0.09939251275060851 -0.02870148604892908 3.27871344510871e-05
-0.0890845331385107 -0.023231985715797963 -0.011213180602097134
-0.07877655352641288 -0.017762485382666844 -0.02245914833864536
-0.06846857391431509 -0.012292985049535726 -0.033705116075193574
-0.058160594302217275 -0.006823484716404606 -0.044951083811741795
-0.04785261469011947 -0.0013539843832734858 -0.05619705154829002
-0.037544635078021665 0.004115515949857631 -0.06744301928483824
-0.027236655465923854 0.009585016282988749 -0.07868898702138646
-0.01692867585382605 0.01505451661611987 -0.08993495475793468
-0.006620696241728237 0.02052401694925099 -0.1011809224944829
-0.10505490664167515 -0.013665737905665703 0.0021553424585337697
-0.09474692702957734 -0.008196237572534584 -0.009090625278014451
-0.08443894741747952 -0.002726737239403463 -0.020336593014562677
-0.07413096780538173 0.0027427630937276537 -0.03158256075111089
-0.06382298819328391 0.008212263426858771 -0.04282852848765911
-0.05351500858118611 0.013681763759989893 -0.05407449622420733
-0.043207028969088304 0.01915126409312101 -0.06532046396075555
-0.03289904935699049 0.024620764426252127 -0.07656643169730377
-0.022591069744892688 0.03009026475938325 -0.087812399433852
-0.012283090132794876 0.035559765092514364 -0.09905836717040022
-0.1107173005327418 0.0013700102375976833 0.004277897782616452
-0.10040932092064399 0.006839510570728802 -0.006968069953931769
-0.09010134130854618 0.01230901090385992 -0.018214037690479988
-0.07979336169644838 0.017778511236991038 -0.029460005427028202
-0.06948538208435057 0.023248011570122157 -0.04070597316357643
-0.059177402472252755 0.02871751190325328 -0.05195194090012465
-0.04886942286015496 0.034187012236384394 -0.06319790863667286
-0.038561443248057145 0.039656512569515516 -0.07444387637322109
-0.028253463635959333 0.04512601290264663 -0.08568984410976932
-0.01794548402386152 0.05059551323577775 -0.09693581184631754
-0.11637969442380844 0.01640575838086107 0.006400453106699141
-0.10607171481171063 0.021875258713992193 -0.0048455146298490796
-0.09576373519961283 0.02734475904712331 -0.016091482366397306
-0.08545575558751502 0.032814259380254424 -0.027337450102945516
-0.07514777597541722 0.038283759713385546 -0.03858341783949374
-0.06483979636331941 0.04375326004651667 -0.04982938557604196
-0.0545318167512216 0.04922276037964778 -0.06107535331259018
-0.04422383713912379 0.0546922607127789 -0.0723213210491384
-0.03391585752702598 0.06016176104591002 -0.08356728878568663
-0.02360787791492817 0.06563126137904114 -0.09481325652223485
-0.12204208831487509 0.03144150652412446 0.008523008430781824
-0.11173410870277728 0.03691100685725558 -0.0027229593057663966
-0.10142612909067947 0.0423805071903867 -0.013968927042314618
-0.09111814947858167 0.04785000752351781 -0.02521489477886283
-0.08081016986648386 0.053319507856648934 -0.03646086251541106
-0.07050219025438605 0.058789008189780056 -0.04770683025195928
-0.06019421064228825 0.06425850852291116 -0.05895279798850749
-0.04988623103019044 0.06972800885604229 -0.07019876572505572
-0.039578251418092625 0.07519750918917341 -0.08144473346160394
-0.029270271805994817 0.08066700952230453 -0.09269070119815216
0.029270271805994817 -0.08066700952230453 0.09269070119815216
0.039578251418092625 -0.07519750918917341 0.08144473346160394
0.04988623103019044 -0.06972800885604229 0.07019876572505572
0.06019421064228824 -0.06425850852291118 0.0589527979885075
0.07050219025438605 -0.058789008189780056 0.04770683025195928
0.08081016986648386 -0.053319507856648934 0.03646086251541106
0.09111814947858166 -0.04785000752351782 0.025214894778862837
0.10142612909067947 -0.0423805071903867 0.013968927042314618
0.11173410870277728 -0.03691100685725558 0.0027229593057663966
0.12204208831487509 -0.03144150652412446 -0.008523008430781824
0.02360787791492817 -0.06563126137904114 0.09481325652223485
0.03391585752702598 -0.06016176104591002 0.08356728878568663
0.04422383713912379 -0.0546922607127789 0.0723213210491384
0.054531816751221596 -0.04922276037964779 0.06107535331259019
0.06483979636331941 -0.04375326004651667 0.04982938557604196
0.07514777597541722 -0.038283759713385546 0.03858341783949374
0.08545575558751502 -0.03281425938025443 0.027337450102945523
0.09576373519961283 -0.02734475904712331 0.016091482366397306
0.10607171481171063 -0.021875258713992193 0.0048455146298490796
0.11637969442380844 -0.01640575838086107 -0.006400453106699141
0.01794548402386152 -0.05059551323577775 0.09693581184631754
0.028253463635959333 -0.04512601290264663 0.08568984410976932
0.038561443248057145 -0.039656512569515516 0.07444387637322109
0.04886942286015495 -0.0341870122363844 0.06319790863667288
0.059177402472252755 -0.02871751190325328 0.05195194090012465
0.06948538208435057 -0.023248011570122157 0.04070597316357643
0.07979336169644836 -0.01777851123699104 0.02946000542702821
0.09010134130854618 -0.01230901090385992 0.018214037690479988
0.10040932092064399 -0.006839510570728802 0.006968069953931769
0.1107173005327418 -0.0013700102375976833 -0.004277897782616452
0.012283090132794883 -0.03555976509251438 0.09905836717040022
0.022591069744892694 -0.030090264759383256 0.087812399433852
0.0328990493569905 -0.024620764426252134 0.07656643169730377
0.043207028969088304 -0.01915126409312102 0.06532046396075555
0.053515008581186116 -0.0136817637599899 0.05407449622420733
0.06382298819328393 -0.008212263426858778 0.04282852848765911
0.07413096780538173 -0.002742763093727664 0.0315825607511109
0.08443894741747954 0.002726737239403456 0.02033659301456267
0.09474692702957735 0.008196237572534577 0.009090625278014451
0.10505490664167516 0.013665737905665696 -0.0021553424585337697
0.006620696241728237 -0.02052401694925099 0.1011809224944829
0.01692867585382605 -0.01505451661611987 0.08993495475793468
0.027236655465923854 -0.009585016282988749 0.07868898702138646
0.03754463507802166 -0.0041155159498576345 0.06744301928483824
0.04785261469011947 0.0013539843832734858 0.05619705154829002
0.058160594302217275 0.006823484716404606 0.044951083811741795
0.06846857391431507 0.012292985049535722 0.03370511607519358
0.07877655352641288 0.017762485382666844 0.02245914833864536
0.0890845331385107 0.023231985715797963 0.011213180602097134
0.09939251275060851 0.02870148604892908 -3.27871344510871e-05
0.0009583023506615839 -0.0054882688059876015 0.1033034778185656
0.011266281962759396 -1.8768472856482862e-05 0.09205751008201737
0.021574261574857208 0.005450731860274637 0.08081154234546914
0.03188224118695501 0.010920232193405753 0.06956557460892093
0.04219022079905282 0.016389732526536874 0.058319606872372705
0.05249820041115063 0.021859232859667992 0.047073639135824484
0.06280618002324843 0.02732873319279911 0.03582767139927626
0.07311415963534625 0.032798233525930226 0.024581703662728042
0.08342213924744404 0.03826773385906135 0.013335735926179823
0.09373011885954186 0.04373723419219247 0.002089768189631602
-0.0047040915404050546 0.009547479337275778 0.10542603314264827
0.005603888071692757 0.015016979670406896 0.09418006540610005
0.01591186768379057 0.020486480003538015 0.08293409766955183
0.02621984729588837 0.025955980336669134 0.07168812993300361
0.03652782690798618 0.03142548066980025 0.06044216219645539
0.04683580652008399 0.03689498100293137 0.04919619445990717
0.05714378613218179 0.042364481336062486 0.03795022672335895
0.06745176574427961 0.04783398166919361 0.02670425898681073
0.0777597453563774 0.05330348200232473 0.015458291250262506
0.08806772496847522 0.058772982335455845 0.004212323513714285
-0.0103664854314717 0.024583227480539163 0.10754858846673096
-5.850581937388889e-05 0.030052727813670282 0.09630262073018274
0.010249473792723916 0.0355222281468014 0.08505665299363452
0.02055745340482172 0.040991728479932515 0.0738106852570863
0.030865433016919533 0.04646122881306364 0.06256471752053808
0.04117341262901734 0.05193072914619476 0.05131874978398985
0.05148139224111514 0.057400229479325875 0.040072782047441635
0.061789371853212954 0.06286972981245699 0.028826814310893414
0.07209735146531077 0.06833923014558811 0.017580846574345187
0.08240533107740858 0.07380873047871923 0.006334878837796968
-0.016028879322538346 0.03961897562380255 0.10967114379081365
-0.005720899710440534 0.045088475956933674 0.09842517605426543
0.0045870799016572705 0.05055797629006479 0.0871792083177172
0.014895059513755075 0.056027476623195904 0.07593324058116899
0.025203039125852884 0.061496976956327026 0.06468727284462077
0.03551101873795069 0.06696647728945815 0.05344130510807254
0.0458189983500485 0.07243597762258926 0.042195337371524325
0.05612697796214631 0.07790547795572038 0.0309493696349761
0.06643495757424411 0.0833749782888515 0.019703401898427876
0.07674293718634193 0.08884447862198262 0.008457434161879657
-0.021691273213605 0.05465472376706594 0.11179369911489632
-0.011383293601507187 0.06012422410019706 0.1005477313783481
-0.0010753139894093757 0.06559372443332817 0.08930176364179988
0.00923266562268843 0.0710632247664593 0.07805579590525168
0.019540645234786238 0.07653272509959042 0.06680982816870344
0.02984862484688405 0.08200222543272154 0.05556386043215522
0.04015660445898185 0.08747172576585265 0.04431789269560701
0.05046458407107966 0.09294122609898377 0.033071924959058786
0.06077256368317747 0.09841072643211489 0.02182595722251056
0.07108054329527529 0.10388022676524601 0.01057998948596234
