# .PCD v0.7 - Point Cloud Data file format
VERSION 0.7
FIELDS x y z
SIZE 4 4 4
TYPE F F F
COUNT 1 1 1
WIDTH 600
HEIGHT 1
VIEWPOINT 0 0 0 1 0 0 0
POINTS 600
DATA ascii
-0.0667222425931147 -0.12916157258923586 -0.15456770756781732
-0.0814466515527222 -0.10923552047272153 -0.14328458892409837
-0.0961710605123297 -0.0893094683562072 -0.1320014702803794
-0.1108954694719372 -0.06938341623969291 -0.12071835163666046
-0.12561987843154468 -0.04945736412317858 -0.10943523299294151
-0.14034428739115218 -0.029531312006664253 -0.09815211434922255
-0.15506869635075968 -0.009605259890149948 -0.08686899570550362
-0.16979310531036718 0.010320792226364377 -0.07558587706178466
-0.1845175142699747 0.030246844342878696 -0.06430275841806571
-0.19924192322958217 0.05017289645939302 -0.05301963977434676
-0.05856871189979154 -0.1371346100188751 -0.12984696425644698
-0.07329312085939904 -0.11720855790236077 -0.11856384561272804
-0.08801752981900654 -0.09728250578584645 -0.10728072696900907
-0.10274193877861404 -0.07735645366933215 -0.09599760832529013
-0.11746634773822154 -0.057430401552817825 -0.08471448968157118
-0.13219075669782904 -0.0375043494363035 -0.07343137103785223
-0.14691516565743654 -0.017578297319789195 -0.06214825239413329
-0.16163957461704404 0.0023477547967251304 -0.05086513375041433
-0.17636398357665156 0.02227380691323945 -0.03958201510669538
-0.19108839253625903 0.042199859029753775 -0.028298896462976432
-0.05041518120646839 -0.14510764744851434 -0.10512622094507663
-0.06513959016607589 -0.12518159533200002 -0.09384310230135769
-0.07986399912568339 -0.1052555432154857 -0.08255998365763874
-0.09458840808529088 -0.08532949109897141 -0.07127686501391979
-0.10931281704489838 -0.06540343898245708 -0.05999374637020084
-0.12403722600450588 -0.04547738686594275 -0.04871062772648189
-0.13876163496411337 -0.025551334749428445 -0.03742750908276295
-0.15348604392372087 -0.005625282632914119 -0.02614439043904399
-0.1682104528833284 0.0143007694836002 -0.014861271795325039
-0.18293486184293586 0.034226821600114525 -0.0035781531516060915
-0.04226165051314524 -0.1530806848781536 -0.08040547763370631
-0.05698605947275274 -0.13315463276163927 -0.06912235898998736
-0.07171046843236023 -0.11322858064512495 -0.05783924034626841
-0.08643487739196773 -0.09330252852861065 -0.04655612170254946
-0.10115928635157523 -0.07337647641209633 -0.035273003058830514
-0.11588369531118273 -0.05345042429558199 -0.02398988441511156
-0.13060810427079023 -0.03352437217906769 -0.012706765771392617
-0.14533251323039773 -0.013598320062553366 -0.0014236471276736584
-0.16005692219000525 0.006327732053960953 0.00985947151604529
-0.17478133114961272 0.02625378417047528 0.021142590159764236
-0.034108119819822084 -0.16105372230779286 -0.05568473432233596
-0.04883252877942958 -0.14112767019127853 -0.044401615678617015
-0.06355693773903708 -0.12120161807476419 -0.03311849703489807
-0.07828134669864457 -0.1012755659582499 -0.02183537839117912
-0.09300575565825207 -0.08134951384173557 -0.01055225974746017
-0.10773016461785957 -0.06142346172522124 0.0007308588962587822
-0.12245457357746706 -0.04149740960870694 0.012013977539977724
-0.13717898253707456 -0.021571357492192616 0.023297096183696683
-0.15190339149668208 -0.0016453053756782972 0.034580214827415634
-0.16662780045628955 0.01828074674083603 0.04586333347113458
-0.02595458912649893 -0.1690267597374321 -0.030963991010965624
-0.04067899808610643 -0.14910070762091776 -0.019680872367246676
-0.05540340704571393 -0.12917465550440344 -0.008397753723527725
-0.07012781600532143 -0.10924860338788915 0.0028853649201912228
-0.08485222496492893 -0.08932255127137483 0.014168483563910173
-0.09957663392453643 -0.0693964991548605 0.025451602207629122
-0.11430104288414392 -0.049470447038346195 0.03673472085134807
-0.12902545184375142 -0.029544394921831866 0.04801783949506702
-0.14374986080335894 -0.009618342805317547 0.05930095813878597
-0.1584742697629664 0.010307709311196778 0.07058407678250492
-0.01780105843317578 -0.17699979716707134 -0.006243247699595302
-0.03252546739278328 -0.15707374505055702 0.005039870944123646
-0.04724987635239078 -0.1371476929340427 0.016322989587842597
-0.06197428531199828 -0.1172216408175284 0.027606108231561545
-0.07669869427160578 -0.09729558870101407 0.03888922687528049
-0.09142310323121328 -0.07736953658449974 0.05017234551899945
-0.10614751219082076 -0.05744348446798544 0.06145546416271839
-0.12087192115042826 -0.03751743235147111 0.07273858280643734
-0.1355963301100358 -0.01759138023495679 0.08402170145015629
-0.15032073906964327 0.0023346718815575344 0.09530482009387524
-0.009647527739852625 -0.1849728345967106 0.018477495611775047
-0.024371936699460126 -0.16504678248019627 0.029760614255493995
-0.039096345659067624 -0.14512073036368195 0.04104373289921295
-0.05382075461867512 -0.12519467824716765 0.052326851542931895
-0.06854516357828262 -0.10526862613065331 0.06360997018665085
-0.08326957253789012 -0.08534257401413899 0.0748930888303698
-0.0979939814974976 -0.06541652189762469 0.08617620747408873
-0.1127183904571051 -0.04549046978111036 0.09745932611780769
-0.12744279941671263 -0.025564417664596044 0.10874244476152664
-0.1421672083763201 -0.005638365548081718 0.12002556340524559
-0.0014939970465294712 -0.19294587202634983 0.043198238923145386
-0.01621840600613697 -0.1730198199098355 0.054481357566864334
-0.03094281496574447 -0.15309376779332118 0.06576447621058329
-0.04566722392535197 -0.13316771567680688 0.07704759485430224
-0.06039163288495947 -0.11324166356029257 0.08833071349802118
-0.07511604184456697 -0.09331561144377824 0.09961383214174013
-0.08984045080417445 -0.07338955932726393 0.11089695078545908
-0.10456485976378195 -0.05346350721074961 0.12218006942917804
-0.11928926872338948 -0.033537455094235294 0.13346318807289698
-0.13401367768299693 -0.013611402977720968 0.14474630671661592
0.006659533646793679 -0.2009189094559891 0.06791898223451572
-0.00806487531281382 -0.18099285733947476 0.07920210087823466
-0.022789284272421318 -0.16106680522296044 0.09048521952195361
-0.03751369323202882 -0.14114075310644614 0.10176833816567256
-0.05223810219163632 -0.12121470098993181 0.1130514568093915
-0.06696251115124381 -0.10128864887341749 0.12433457545311047
-0.0816869201108513 -0.08136259675690319 0.13561769409682942
-0.0964113290704588 -0.061436544640388856 0.14690081274054836
-0.11113573803006632 -0.04151049252387454 0.1581839313842673
-0.1258601469896738 -0.021584440407360215 0.16946705002798626
0.1258601469896738 0.021584440407360215 -0.16946705002798626
0.11113573803006632 0.04151049252387454 -0.1581839313842673
0.0964113290704588 0.061436544640388856 -0.14690081274054836
0.08168692011085131 0.08136259675690316 -0.13561769409682942
0.06696251115124381 0.10128864887341749 -0.12433457545311047
0.05223810219163632 0.12121470098993181 -0.1130514568093915
0.037513693232028834 0.1411407531064461 -0.10176833816567257
0.022789284272421318 0.16106680522296044 -0.09048521952195361
0.00806487531281382 0.18099285733947476 -0.07920210087823466
-0.006659533646793679 0.2009189094559891 -0.06791898223451572
0.13401367768299693 0.013611402977720968 -0.14474630671661592
0.11928926872338948 0.033537455094235294 -0.13346318807289698
0.10456485976378195 0.05346350721074961 -0.12218006942917804
0.08984045080417447 0.07338955932726392 -0.11089695078545908
0.07511604184456697 0.09331561144377824 -0.09961383214174013
0.06039163288495947 0.11324166356029257 -0.08833071349802118
0.04566722392535198 0.13316771567680685 -0.07704759485430224
0.03094281496574447 0.15309376779332118 -0.06576447621058329
0.01621840600613697 0.1730198199098355 -0.054481357566864334
0.0014939970465294712 0.19294587202634983 -0.043198238923145386
0.1421672083763201 0.005638365548081718 -0.12002556340524559
0.12744279941671263 0.025564417664596044 -0.10874244476152664
0.1127183904571051 0.04549046978111036 -0.09745932611780769
0.09799398149749762 0.06541652189762466 -0.08617620747408875
0.08326957253789012 0.08534257401413899 -0.0748930888303698
0.06854516357828262 0.10526862613065331 -0.06360997018665085
0.05382075461867514 0.12519467824716762 -0.0523268515429319
0.039096345659067624 0.14512073036368195 -0.04104373289921295
0.024371936699460126 0.16504678248019627 -0.029760614255493995
0.009647527739852625 0.1849728345967106 -0.018477495611775047
0.15032073906964324 -0.0023346718815575283 -0.09530482009387527
0.13559633011003577 0.017591380234956797 -0.08402170145015632
0.12087192115042826 0.03751743235147112 -0.07273858280643737
0.10614751219082078 0.057443484467985424 -0.061455464162718416
0.09142310323121328 0.07736953658449974 -0.05017234551899947
0.07669869427160578 0.09729558870101407 -0.038889226875280514
0.061974285311998285 0.11722164081752837 -0.027606108231561573
0.04724987635239077 0.1371476929340427 -0.016322989587842618
0.032525467392783274 0.15707374505055702 -0.005039870944123665
0.017801058433175775 0.17699979716707134 0.006243247699595283
0.1584742697629664 -0.010307709311196778 -0.07058407678250492
0.14374986080335894 0.009618342805317547 -0.05930095813878597
0.12902545184375142 0.029544394921831866 -0.04801783949506702
0.11430104288414393 0.049470447038346174 -0.036734720851348074
0.09957663392453643 0.0693964991548605 -0.025451602207629122
0.08485222496492893 0.08932255127137483 -0.014168483563910173
0.07012781600532145 0.10924860338788912 -0.0028853649201912297
0.05540340704571393 0.12917465550440344 0.008397753723527725
0.04067899808610643 0.14910070762091776 0.019680872367246676
0.02595458912649893 0.1690267597374321 0.030963991010965624
0.16662780045628955 -0.01828074674083603 -0.04586333347113458
0.15190339149668208 0.0016453053756782972 -0.034580214827415634
0.13717898253707456 0.021571357492192616 -0.023297096183696683
0.12245457357746707 0.04149740960870692 -0.012013977539977731
0.10773016461785957 0.06142346172522124 -0.0007308588962587822
0.09300575565825207 0.08134951384173557 0.01055225974746017
0.07828134669864459 0.10127556595824987 0.021835378391179112
0.06355693773903708 0.12120161807476419 0.03311849703489807
0.04883252877942958 0.14112767019127853 0.044401615678617015
0.034108119819822084 0.16105372230779286 0.05568473432233596
0.1747813311496127 -0.02625378417047527 -0.021142590159764257
0.16005692219000522 -0.006327732053960947 -0.009859471516045309
0.1453325132303977 0.013598320062553371 0.0014236471276736396
0.13060810427079023 0.033524372179067674 0.01270676577139259
0.11588369531118273 0.053450424295582 0.023989884415111542
0.10115928635157523 0.07337647641209633 0.03527300305883049
0.08643487739196774 0.09330252852861062 0.046556121702549434
0.07171046843236023 0.11322858064512495 0.05783924034626839
0.05698605947275273 0.13315463276163927 0.06912235898998734
0.04226165051314523 0.1530806848781536 0.08040547763370628
0.18293486184293586 -0.034226821600114525 0.0035781531516060915
0.1682104528833284 -0.0143007694836002 0.014861271795325039
0.15348604392372087 0.005625282632914119 0.02614439043904399
0.1387616349641134 0.025551334749428424 0.03742750908276294
0.12403722600450588 0.04547738686594275 0.04871062772648189
0.10931281704489838 0.06540343898245708 0.05999374637020084
0.0945884080852909 0.08532949109897138 0.07127686501391978
0.07986399912568339 0.1052555432154857 0.08255998365763874
0.06513959016607589 0.12518159533200002 0.09384310230135769
0.05041518120646839 0.14510764744851434 0.10512622094507663
0.19108839253625903 -0.042199859029753775 0.028298896462976432
0.17636398357665156 -0.02227380691323945 0.03958201510669538
0.16163957461704404 -0.0023477547967251304 0.05086513375041433
0.14691516565743654 0.017578297319789174 0.06214825239413328
0.13219075669782904 0.0375043494363035 0.07343137103785223
0.11746634773822154 0.057430401552817825 0.08471448968157118
0.10274193877861405 0.07735645366933212 0.09599760832529013
0.08801752981900654 0.09728250578584645 0.10728072696900907
0.07329312085939904 0.11720855790236077 0.11856384561272804
0.05856871189979154 0.1371346100188751 0.12984696425644698
0.19924192322958217 -0.05017289645939302 0.05301963977434676
0.1845175142699747 -0.030246844342878696 0.06430275841806571
0.16979310531036718 -0.010320792226364377 0.07558587706178466
0.15506869635075968 0.009605259890149927 0.0868689957055036
0.14034428739115218 0.029531312006664253 0.09815211434922255
0.12561987843154468 0.04945736412317858 0.10943523299294151
0.11089546947193721 0.06938341623969288 0.12071835163666045
0.0961710605123297 0.0893094683562072 0.1320014702803794
0.0814466515527222 0.10923552047272153 0.14328458892409837
0.0667222425931147 0.12916157258923586 0.15456770756781732
-0.0667222425931147 -0.12916157258923586 -0.15456770756781732
-0.04532419930613819 -0.11241201558961408 -0.15622319006339164
-0.023926156019161694 -0.09566245858999228 -0.15787867255896595
-0.002528112732185196 -0.07891290159037051 -0.1595341550545403
0.018869930554791307 -0.06216334459074872 -0.16118963755011462
0.040267973841767814 -0.04541378759112692 -0.16284512004568896
0.0616660171287443 -0.028664230591505146 -0.16450060254126328
0.08306406041572081 -0.011914673591883352 -0.1661560850368376
0.10446210370269732 0.004834883407738434 -0.16781156753241194
0.1258601469896738 0.021584440407360215 -0.16946705002798626
-0.05856871189979154 -0.1371346100188751 -0.12984696425644698
-0.03717066861281504 -0.12038505301925333 -0.1315024467520213
-0.015772625325838542 -0.10363549601963153 -0.13315792924759565
0.005625417961137954 -0.08688593902000975 -0.13481341174316996
0.027023461248114458 -0.07013638202038797 -0.13646889423874428
0.04842150453509096 -0.053386825020766165 -0.13812437673431863
0.06981954782206745 -0.03663726802114439 -0.13977985922989294
0.09121759110904397 -0.0198877110215226 -0.1414353417254673
0.11261563439602047 -0.003138154021900812 -0.1430908242210416
0.13401367768299693 0.013611402977720968 -0.14474630671661592
-0.05041518120646839 -0.14510764744851434 -0.10512622094507663
-0.029017137919491884 -0.12835809044889257 -0.10678170344065097
-0.007619094632515388 -0.11160853344927078 -0.1084371859362253
0.013778948654461108 -0.09485897644964901 -0.11009266843179963
0.03517699194143761 -0.07810941945002722 -0.11174815092737395
0.05657503522841412 -0.061359862450405415 -0.11340363342294828
0.0779730785153906 -0.04461030545078364 -0.11505911591852261
0.09937112180236712 -0.02786074845116185 -0.11671459841409694
0.12076916508934363 -0.011111191451540062 -0.11837008090967126
0.1421672083763201 0.005638365548081718 -0.12002556340524559
-0.04226165051314524 -0.1530806848781536 -0.08040547763370631
-0.020863607226168736 -0.13633112787853183 -0.08206096012928064
0.0005344360608077618 -0.11958157087891003 -0.08371644262485496
0.021932479347784258 -0.10283201387928825 -0.08537192512042929
0.04333052263476076 -0.08608245687966647 -0.08702740761600362
0.06472856592173727 -0.06933289988004467 -0.08868289011157796
0.08612660920871376 -0.052583342880422886 -0.09033837260715227
0.10752465249569028 -0.03583378588080109 -0.0919938551027266
0.12892269578266677 -0.01908422888117931 -0.09364933759830094
0.15032073906964324 -0.0023346718815575283 -0.09530482009387527
-0.034108119819822084 -0.16105372230779286 -0.05568473432233596
-0.01271007653284558 -0.14430416530817108 -0.057340216817910294
0.008687966754130916 -0.12755460830854928 -0.05899569931348462
0.030086010041107412 -0.1108050513089275 -0.06065118180905895
0.051484053328083916 -0.09405549430930571 -0.062306664304633275
0.07288209661506043 -0.07730593730968391 -0.0639621468002076
0.09428013990203692 -0.060556380310062136 -0.06561762929578194
0.11567818318901343 -0.04380682331044034 -0.06727311179135627
0.13707622647598994 -0.02705726631081856 -0.06892859428693059
0.1584742697629664 -0.010307709311196778 -0.07058407678250492
-0.02595458912649893 -0.1690267597374321 -0.030963991010965624
-0.004556545839522426 -0.1522772027378103 -0.03261947350653996
0.01684149744745407 -0.1355276457381885 -0.03427495600211428
0.03823954073443057 -0.11877808873856675 -0.035930438497688615
0.05963758402140707 -0.10202853173894497 -0.03758592099326294
0.08103562730838357 -0.08527897473932317 -0.03924140348883727
0.10243367059536006 -0.06852941773970139 -0.040896885984411595
0.12383171388233657 -0.0517798607400796 -0.042552368479985926
0.14522975716931308 -0.03503030374045781 -0.04420785097556025
0.16662780045628955 -0.01828074674083603 -0.04586333347113458
-0.01780105843317578 -0.17699979716707134 -0.006243247699595302
0.0035969848538007216 -0.16025024016744957 -0.007898730195169634
0.02499502814077722 -0.14350068316782777 -0.009554212690743958
0.046393071427753715 -0.126751126168206 -0.01120969518631829
0.06779111471473022 -0.11000156916858421 -0.012865177681892614
0.08918915800170672 -0.09325201216896241 -0.014520660177466945
0.11058720128868321 -0.07650245516934064 -0.01617614267304127
0.13198524457565972 -0.05975289816971884 -0.0178316251686156
0.15338328786263622 -0.043003341170097055 -0.019487107664189925
0.1747813311496127 -0.02625378417047527 -0.021142590159764257
-0.009647527739852625 -0.1849728345967106 0.018477495611775047
0.011750515547123879 -0.16822327759708883 0.016822013116200716
0.033148558834100374 -0.15147372059746703 0.01516653062062639
0.05454660212107687 -0.13472416359784525 0.013511048125052058
0.07594464540805337 -0.11797460659822345 0.011855565629477734
0.09734268869502988 -0.10122504959860165 0.010200083133903403
0.11874073198200637 -0.08447549259897988 0.008544600638329078
0.14013877526898288 -0.06772593559935809 0.006889118142754748
0.1615368185559594 -0.050976378599736305 0.005233635647180423
0.18293486184293586 -0.034226821600114525 0.0035781531516060915
-0.0014939970465294712 -0.19294587202634983 0.043198238923145386
0.019904046240447032 -0.17619631502672806 0.041542756427571055
0.04130208952742353 -0.15944675802710626 0.03988727393199673
0.06270013281440003 -0.14269720102748448 0.0382317914364224
0.08409817610137653 -0.1259476440278627 0.036576308940848075
0.10549621938835303 -0.10919808702824091 0.034920826445273744
0.12689426267532952 -0.09244853002861914 0.03326534394969942
0.14829230596230605 -0.07569897302899734 0.03160986145412509
0.16969034924928256 -0.058949416029375555 0.029954378958550763
0.19108839253625903 -0.042199859029753775 0.028298896462976432
0.006659533646793679 -0.2009189094559891 0.06791898223451572
0.028057576933770183 -0.1841693524563673 0.06626349973894138
0.04945562022074668 -0.1674197954567455 0.06460801724336707
0.07085366350772318 -0.15067023845712374 0.06295253474779273
0.09225170679469968 -0.13392068145750197 0.061297052252218404
0.11364975008167619 -0.11717112445788015 0.05964156975664407
0.13504779336865266 -0.10042156745825838 0.05798608726106975
0.1564458366556292 -0.08367201045863659 0.056330604765495416
0.1778438799426057 -0.0669224534590148 0.05467512226992109
0.19924192322958217 -0.05017289645939302 0.05301963977434676
-0.19924192322958217 0.05017289645939302 -0.05301963977434676
-0.1778438799426057 0.0669224534590148 -0.05467512226992109
-0.1564458366556292 0.08367201045863659 -0.056330604765495416
-0.1350477933686527 0.10042156745825837 -0.05798608726106975
-0.11364975008167619 0.11717112445788015 -0.05964156975664407
-0.09225170679469968 0.13392068145750197 -0.061297052252218404
-0.0708536635077232 0.15067023845712374 -0.06295253474779273
-0.04945562022074668 0.1674197954567455 -0.06460801724336707
-0.028057576933770183 0.1841693524563673 -0.06626349973894138
-0.006659533646793679 0.2009189094559891 -0.06791898223451572
-0.19108839253625903 0.042199859029753775 -0.028298896462976432
-0.16969034924928256 0.058949416029375555 -0.029954378958550763
-0.14829230596230605 0.07569897302899734 -0.03160986145412509
-0.12689426267532955 0.09244853002861912 -0.03326534394969942
-0.10549621938835303 0.10919808702824091 -0.034920826445273744
-0.08409817610137653 0.1259476440278627 -0.036576308940848075
-0.06270013281440004 0.14269720102748448 -0.0382317914364224
-0.04130208952742353 0.15944675802710626 -0.03988727393199673
-0.019904046240447032 0.17619631502672806 -0.041542756427571055
0.0014939970465294712 0.19294587202634983 -0.043198238923145386
-0.18293486184293586 0.034226821600114525 -0.0035781531516060915
-0.1615368185559594 0.050976378599736305 -0.005233635647180423
-0.14013877526898288 0.06772593559935809 -0.006889118142754748
-0.11874073198200638 0.08447549259897986 -0.008544600638329078
-0.09734268869502988 0.10122504959860165 -0.010200083133903403
-0.07594464540805337 0.11797460659822345 -0.011855565629477734
-0.054546602121076884 0.13472416359784523 -0.013511048125052058
-0.033148558834100374 0.15147372059746703 -0.01516653062062639
-0.011750515547123879 0.16822327759708883 -0.016822013116200716
0.009647527739852625 0.1849728345967106 -0.018477495611775047
-0.17478133114961272 0.02625378417047528 0.021142590159764236
-0.15338328786263625 0.04300334117009706 0.019487107664189905
-0.13198524457565974 0.05975289816971885 0.01783162516861558
-0.11058720128868323 0.07650245516934062 0.01617614267304125
-0.08918915800170672 0.09325201216896241 0.014520660177466926
-0.06779111471473022 0.11000156916858421 0.012865177681892595
-0.046393071427753736 0.126751126168206 0.01120969518631827
-0.024995028140777226 0.14350068316782777 0.009554212690743939
-0.003596984853800728 0.16025024016744957 0.007898730195169614
0.017801058433175775 0.17699979716707134 0.006243247699595283
-0.16662780045628955 0.01828074674083603 0.04586333347113458
-0.14522975716931308 0.03503030374045781 0.04420785097556025
-0.12383171388233657 0.0517798607400796 0.042552368479985926
-0.10243367059536007 0.06852941773970138 0.040896885984411595
-0.08103562730838357 0.08527897473932317 0.03924140348883727
-0.05963758402140707 0.10202853173894497 0.03758592099326294
-0.03823954073443058 0.11877808873856674 0.035930438497688615
-0.01684149744745407 0.1355276457381885 0.03427495600211428
0.004556545839522426 0.1522772027378103 0.03261947350653996
0.02595458912649893 0.1690267597374321 0.030963991010965624
-0.1584742697629664 0.010307709311196778 0.07058407678250492
-0.13707622647598994 0.02705726631081856 0.06892859428693059
-0.11567818318901343 0.04380682331044034 0.06727311179135627
-0.09428013990203693 0.06055638031006212 0.06561762929578194
-0.07288209661506043 0.07730593730968391 0.0639621468002076
-0.051484053328083916 0.09405549430930571 0.062306664304633275
-0.030086010041107426 0.11080505130892748 0.06065118180905895
-0.008687966754130916 0.12755460830854928 0.05899569931348462
0.01271007653284558 0.14430416530817108 0.057340216817910294
0.034108119819822084 0.16105372230779286 0.05568473432233596
-0.15032073906964327 0.0023346718815575344 0.09530482009387524
-0.1289226957826668 0.019084228881179315 0.09364933759830091
-0.10752465249569028 0.0358337858808011 0.09199385510272659
-0.08612660920871378 0.05258334288042288 0.09033837260715226
-0.06472856592173727 0.06933289988004467 0.08868289011157793
-0.04333052263476077 0.08608245687966647 0.0870274076160036
-0.02193247934778428 0.10283201387928824 0.08537192512042928
-0.0005344360608077681 0.11958157087891003 0.08371644262485495
0.02086360722616873 0.13633112787853183 0.08206096012928062
0.04226165051314523 0.1530806848781536 0.08040547763370628
-0.1421672083763201 -0.005638365548081718 0.12002556340524559
-0.12076916508934363 0.011111191451540062 0.11837008090967126
-0.09937112180236712 0.02786074845116185 0.11671459841409694
-0.07797307851539062 0.04461030545078363 0.11505911591852261
-0.05657503522841412 0.061359862450405415 0.11340363342294828
-0.03517699194143761 0.07810941945002722 0.11174815092737395
-0.013778948654461122 0.094858976449649 0.11009266843179963
0.007619094632515388 0.11160853344927078 0.1084371859362253
0.029017137919491884 0.12835809044889257 0.10678170344065097
0.05041518120646839 0.14510764744851434 0.10512622094507663
-0.13401367768299693 -0.013611402977720968 0.14474630671661592
-0.11261563439602047 0.003138154021900812 0.1430908242210416
-0.09121759110904397 0.0198877110215226 0.1414353417254673
-0.06981954782206747 0.03663726802114438 0.13977985922989294
-0.04842150453509096 0.053386825020766165 0.13812437673431863
-0.027023461248114458 0.07013638202038797 0.13646889423874428
-0.005625417961137968 0.08688593902000974 0.13481341174316996
0.015772625325838542 0.10363549601963153 0.13315792924759565
0.03717066861281504 0.12038505301925333 0.1315024467520213
0.05856871189979154 0.1371346100188751 0.12984696425644698
-0.1258601469896738 -0.021584440407360215 0.16946705002798626
-0.10446210370269732 -0.004834883407738434 0.16781156753241194
-0.08306406041572081 0.011914673591883352 0.1661560850368376
-0.06166601712874432 0.028664230591505132 0.16450060254126328
-0.040267973841767814 0.04541378759112692 0.16284512004568896
-0.018869930554791307 0.06216334459074872 0.16118963755011462
0.002528112732185182 0.0789129015903705 0.1595341550545403
0.023926156019161694 0.09566245858999228 0.15787867255896595
0.04532419930613819 0.11241201558961408 0.15622319006339164
0.0667222425931147 0.12916157258923586 0.15456770756781732
-0.0667222425931147 -0.12916157258923586 -0.15456770756781732
-0.04532419930613819 -0.11241201558961408 -0.15622319006339164
-0.023926156019161694 -0.09566245858999228 -0.15787867255896595
-0.002528112732185196 -0.07891290159037051 -0.1595341550545403
0.018869930554791307 -0.06216334459074872 -0.16118963755011462
0.040267973841767814 -0.04541378759112692 -0.16284512004568896
0.0616660171287443 -0.028664230591505146 -0.16450060254126328
0.08306406041572081 -0.011914673591883352 -0.1661560850368376
0.10446210370269732 0.004834883407738434 -0.16781156753241194
0.1258601469896738 0.021584440407360215 -0.16946705002798626
-0.0814466515527222 -0.10923552047272153 -0.14328458892409837
-0.060048608265745686 -0.09248596347309976 -0.1449400714196727
-0.03865056497876919 -0.07573640647347796 -0.146595553915247
-0.017252521691792696 -0.058986849473856184 -0.14825103641082135
0.004145521595183809 -0.0422372924742344 -0.14990651890639567
0.02554356488216031 -0.0254877354746126 -0.15156200140197001
0.046941608169136805 -0.00873817847499082 -0.15321748389754433
0.06833965145611332 0.008011378524630974 -0.15487296639311865
0.08973769474308979 0.02476093552425276 -0.156528448888693
0.11113573803006632 0.04151049252387454 -0.1581839313842673
-0.0961710605123297 -0.0893094683562072 -0.1320014702803794
-0.07477301722535319 -0.07255991135658543 -0.13365695277595374
-0.05337497393837669 -0.055810354356963646 -0.13531243527152806
-0.03197693065140019 -0.03906079735734186 -0.1369679177671024
-0.01057888736442369 -0.02231124035772007 -0.13862340026267672
0.010819155922552814 -0.005561683358098282 -0.14027888275825104
0.032217199209529306 0.011187873641523498 -0.14193436525382538
0.05361524249650582 0.027937430641145292 -0.1435898477493997
0.0750132857834823 0.044686987640767076 -0.14524533024497405
0.0964113290704588 0.061436544640388856 -0.14690081274054836
-0.1108954694719372 -0.06938341623969291 -0.12071835163666046
-0.08949742618496069 -0.05263385924007112 -0.1223738341322348
-0.06809938289798419 -0.035884302240449334 -0.12402931662780911
-0.04670133961100769 -0.01913474524082755 -0.12568479912338346
-0.025303296324031187 -0.0023851882412057645 -0.12734028161895777
-0.0039052530370546857 0.01436436875841603 -0.1289957641145321
0.017492790249921803 0.031113925758037807 -0.13065124661010644
0.038890833536898324 0.0478634827576596 -0.13230672910568075
0.060288876823874814 0.06461303975728139 -0.1339622116012551
0.08168692011085131 0.08136259675690316 -0.13561769409682942
-0.12561987843154468 -0.04945736412317858 -0.10943523299294151
-0.10422183514456819 -0.032707807123556795 -0.11109071548851583
-0.08282379185759169 -0.015958250123935012 -0.11274619798409016
-0.06142574857061519 0.0007913068756867744 -0.1144016804796645
-0.040027705283638686 0.017540863875308562 -0.11605716297523883
-0.018629661996662186 0.03429042087493035 -0.11771264547081316
0.002768381290314305 0.05103997787455213 -0.11936812796638747
0.024166424577290815 0.06778953487417393 -0.1210236104619618
0.045564467864267315 0.08453909187379571 -0.12267909295753614
0.06696251115124381 0.10128864887341749 -0.12433457545311047
-0.14034428739115218 -0.029531312006664253 -0.09815211434922255
-0.11894624410417569 -0.012781755007042473 -0.09980759684479688
-0.09754820081719918 0.003967801992579313 -0.10146307934037122
-0.0761501575302227 0.020717358992201094 -0.10311856183594555
-0.054752114243246185 0.037466915991822884 -0.10477404433151988
-0.03335407095626968 0.05421647299144467 -0.1064295268270942
-0.011956027669293193 0.07096602999106645 -0.10808500932266853
0.009442015617683317 0.08771558699068825 -0.10974049181824286
0.030840058904659812 0.10446514399031002 -0.11139597431381719
0.05223810219163632 0.12121470098993181 -0.1130514568093915
-0.15506869635075968 -0.009605259890149948 -0.08686899570550362
-0.13367065306378317 0.007144297109471831 -0.08852447820107795
-0.11227260977680668 0.02389385410909362 -0.09017996069665227
-0.09087456648983018 0.0406434111087154 -0.0918354431922266
-0.06947652320285368 0.05739296810833719 -0.09349092568780093
-0.04807847991587717 0.07414252510795898 -0.09514640818337526
-0.026680436628900687 0.09089208210758076 -0.09680189067894958
-0.005282393341924175 0.10764163910720255 -0.09845737317452391
0.01611564994505232 0.12439119610682434 -0.10011285567009824
0.037513693232028834 0.1411407531064461 -0.10176833816567257
-0.16979310531036718 0.010320792226364377 -0.07558587706178466
-0.14839506202339067 0.027070349225986157 -0.07724135955735899
-0.1269970187364142 0.04381990622560794 -0.07889684205293332
-0.1055989754494377 0.06056946322522973 -0.08055232454850765
-0.08420093216246119 0.07731902022485151 -0.08220780704408197
-0.06280288887548469 0.0940685772244733 -0.0838632895396563
-0.04140484558850819 0.11081813422409509 -0.08551877203523063
-0.020006802301531682 0.1275676912237169 -0.08717425453080496
0.0013912409854448153 0.14431724822333866 -0.0888297370263793
0.022789284272421318 0.16106680522296044 -0.09048521952195361
-0.1845175142699747 0.030246844342878696 -0.06430275841806571
-0.16311947098299817 0.04699640134250047 -0.06595824091364004
-0.1417214276960217 0.06374595834212227 -0.06761372340921437
-0.12032338440904519 0.08049551534174404 -0.0692692059047887
-0.09892534112206869 0.09724507234136584 -0.07092468840036302
-0.07752729783509218 0.11399462934098763 -0.07258017089593735
-0.05612925454811569 0.13074418634060941 -0.07423565339151168
-0.03473121126113918 0.1474937433402312 -0.07589113588708601
-0.013333167974162683 0.164243300339853 -0.07754661838266033
0.00806487531281382 0.18099285733947476 -0.07920210087823466
-0.19924192322958217 0.05017289645939302 -0.05301963977434676
-0.1778438799426057 0.0669224534590148 -0.05467512226992109
-0.1564458366556292 0.08367201045863659 -0.056330604765495416
-0.1350477933686527 0.10042156745825837 -0.05798608726106975
-0.11364975008167619 0.11717112445788015 -0.05964156975664407
-0.09225170679469968 0.13392068145750197 -0.061297052252218404
-0.0708536635077232 0.15067023845712374 -0.06295253474779273
-0.04945562022074668 0.1674197954567455 -0.06460801724336707
-0.028057576933770183 0.1841693524563673 -0.06626349973894138
-0.006659533646793679 0.2009189094559891 -0.06791898223451572
0.006659533646793679 -0.2009189094559891 0.06791898223451572
0.028057576933770183 -0.1841693524563673 0.06626349973894138
0.04945562022074668 -0.1674197954567455 0.06460801724336707
0.07085366350772318 -0.15067023845712374 0.06295253474779273
0.09225170679469968 -0.13392068145750197 0.061297052252218404
0.11364975008167619 -0.11717112445788015 0.05964156975664407
0.13504779336865266 -0.10042156745825838 0.05798608726106975
0.1564458366556292 -0.08367201045863659 0.056330604765495416
0.1778438799426057 -0.0669224534590148 0.05467512226992109
0.19924192322958217 -0.05017289645939302 0.05301963977434676
-0.00806487531281382 -0.18099285733947476 0.07920210087823466
0.013333167974162683 -0.164243300339853 0.07754661838266033
0.03473121126113918 -0.1474937433402312 0.07589113588708601
0.056129254548115674 -0.13074418634060941 0.07423565339151168
0.07752729783509218 -0.11399462934098763 0.07258017089593735
0.09892534112206869 -0.09724507234136584 0.07092468840036302
0.12032338440904518 -0.08049551534174405 0.0692692059047887
0.1417214276960217 -0.06374595834212227 0.06761372340921437
0.16311947098299817 -0.04699640134250047 0.06595824091364004
0.1845175142699747 -0.030246844342878696 0.06430275841806571
-0.022789284272421318 -0.16106680522296044 0.09048521952195361
-0.0013912409854448153 -0.14431724822333866 0.0888297370263793
0.020006802301531682 -0.1275676912237169 0.08717425453080496
0.041404845588508175 -0.11081813422409509 0.08551877203523063
0.06280288887548469 -0.0940685772244733 0.0838632895396563
0.08420093216246119 -0.07731902022485151 0.08220780704408197
0.10559897544943768 -0.060569463225229735 0.08055232454850765
0.1269970187364142 -0.04381990622560794 0.07889684205293332
0.14839506202339067 -0.027070349225986157 0.07724135955735899
0.16979310531036718 -0.010320792226364377 0.07558587706178466
-0.03751369323202882 -0.14114075310644614 0.10176833816567256
-0.016115649945052313 -0.12439119610682435 0.10011285567009824
0.005282393341924189 -0.10764163910720256 0.09845737317452391
0.026680436628900683 -0.09089208210758079 0.09680189067894958
0.04807847991587719 -0.074142525107959 0.09514640818337525
0.06947652320285369 -0.0573929681083372 0.09349092568780092
0.09087456648983018 -0.04064341110871543 0.0918354431922266
0.1122726097768067 -0.023893854109093636 0.09017996069665227
0.13367065306378317 -0.007144297109471848 0.08852447820107794
0.15506869635075968 0.009605259890149927 0.0868689957055036
-0.05223810219163632 -0.12121470098993181 0.1130514568093915
-0.030840058904659812 -0.10446514399031002 0.11139597431381719
-0.009442015617683317 -0.08771558699068825 0.10974049181824286
0.01195602766929318 -0.07096602999106646 0.10808500932266853
0.03335407095626968 -0.05421647299144467 0.1064295268270942
0.054752114243246185 -0.037466915991822884 0.10477404433151988
0.07615015753022268 -0.020717358992201104 0.10311856183594555
0.09754820081719918 -0.003967801992579313 0.10146307934037122
0.11894624410417569 0.012781755007042473 0.09980759684479688
0.14034428739115218 0.029531312006664253 0.09815211434922255
-0.06696251115124381 -0.10128864887341749 0.12433457545311047
-0.045564467864267315 -0.08453909187379571 0.12267909295753614
-0.024166424577290815 -0.06778953487417393 0.1210236104619618
-0.002768381290314319 -0.05103997787455214 0.11936812796638747
0.018629661996662186 -0.03429042087493035 0.11771264547081316
0.040027705283638686 -0.017540863875308562 0.11605716297523883
0.061425748570615175 -0.0007913068756867813 0.1144016804796645
0.08282379185759169 0.015958250123935012 0.11274619798409016
0.10422183514456819 0.032707807123556795 0.11109071548851583
0.12561987843154468 0.04945736412317858 0.10943523299294151
-0.0816869201108513 -0.08136259675690319 0.13561769409682942
-0.0602888768238748 -0.0646130397572814 0.13396221160125507
-0.03889083353689831 -0.047863482757659614 0.13230672910568075
-0.01749279024992181 -0.031113925758037835 0.13065124661010644
0.0039052530370546927 -0.014364368758416044 0.1289957641145321
0.025303296324031197 0.0023851882412057436 0.12734028161895777
0.04670133961100768 0.019134745240827523 0.12568479912338343
0.0680993828979842 0.03588430224044932 0.12402931662780911
0.08949742618496069 0.05263385924007111 0.12237383413223478
0.11089546947193721 0.06938341623969288 0.12071835163666045
-0.0964113290704588 -0.061436544640388856 0.14690081274054836
-0.0750132857834823 -0.044686987640767076 0.14524533024497405
-0.05361524249650582 -0.027937430641145292 0.1435898477493997
-0.03221719920952932 -0.011187873641523509 0.14193436525382538
-0.010819155922552814 0.005561683358098282 0.14027888275825104
0.01057888736442369 0.02231124035772007 0.13862340026267672
0.03197693065140018 0.03906079735734186 0.1369679177671024
0.05337497393837669 0.055810354356963646 0.13531243527152806
0.07477301722535319 0.07255991135658543 0.13365695277595374
0.0961710605123297 0.0893094683562072 0.1320014702803794
-0.11113573803006632 -0.04151049252387454 0.1581839313842673
-0.08973769474308979 -0.02476093552425276 0.156528448888693
-0.06833965145611332 -0.008011378524630974 0.15487296639311865
-0.04694160816913682 0.008738178474990806 0.15321748389754433
-0.02554356488216031 0.0254877354746126 0.15156200140197001
-0.004145521595183809 0.0422372924742344 0.14990651890639567
0.017252521691792682 0.05898684947385617 0.14825103641082135
0.03865056497876919 0.07573640647347796 0.146595553915247
0.060048608265745686 0.09248596347309976 0.1449400714196727
0.0814466515527222 0.10923552047272153 0.14328458892409837
-0.1258601469896738 -0.021584440407360215 0.16946705002798626
-0.10446210370269732 -0.004834883407738434 0.16781156753241194
-0.08306406041572081 0.011914673591883352 0.1661560850368376
-0.06166601712874432 0.028664230591505132 0.16450060254126328
-0.040267973841767814 0.04541378759112692 0.16284512004568896
-0.018869930554791307 0.06216334459074872 0.16118963755011462
0.002528112732185182 0.0789129015903705 0.1595341550545403
0.023926156019161694 0.09566245858999228 0.15787867255896595
0.04532419930613819 0.11241201558961408 0.15622319006339164
0.0667222425931147 0.12916157258923586 0.15456770756781732
