# .PCD v0.7 - Point Cloud Data file format
VERSION 0.7
FIELDS x y z
SIZE 4 4 4
TYPE F F F
COUNT 1 1 1
WIDTH 600
HEIGHT 1
VIEWPOINT 0 0 0 1 0 0 0
POINTS 600
DATA ascii
-0.01151936748564961 -0.07602640760600916 -0.2471072598455368
-0.013842147102049469 -0.04462020667269052 -0.2365849229969801
-0.016164926718449314 -0.013214005739371874 -0.22606258614842342
-0.01848770633484916 0.01819219519394676 -0.21554024929986676
-0.020810485951249003 0.049598396127265416 -0.20501791245131007
-0.023133265567648848 0.08100459706058406 -0.19449557560275338
-0.025456045184048693 0.1124107979939027 -0.1839732387541967
-0.027778824800448538 0.14381699892722136 -0.17345090190564
-0.030101604416848383 0.17522319986054002 -0.1629285650570833
-0.03242438403324823 0.20662940079385866 -0.15240622820852662
-0.03237127602567073 -0.08560848700533094 -0.22311046840191814
-0.034694055642070586 -0.05420228607201231 -0.21258813155336145
-0.03701683525847043 -0.022796085138693658 -0.2020657947048048
-0.039339614874870275 0.008610115794624973 -0.1915434578562481
-0.04166239449127012 0.04001631672794363 -0.1810211210076914
-0.043985174107669965 0.07142251766126229 -0.17049878415913472
-0.04630795372406981 0.10282871859458093 -0.15997644731057806
-0.048630733340469655 0.13423491952789957 -0.14945411046202137
-0.0509535129568695 0.16564112046121823 -0.13893177361346468
-0.053276292573269345 0.19704732139453687 -0.12840943676490799
-0.05322318456569185 -0.09519056640465273 -0.19911367695829948
-0.055545964182091706 -0.06378436547133409 -0.1885913401097428
-0.05786874379849155 -0.032378164538015446 -0.17806900326118613
-0.060191523414891396 -0.0009719636046968128 -0.16754666641262944
-0.06251430303129124 0.030434237328621844 -0.15702432956407275
-0.06483708264769109 0.061840438261940495 -0.14650199271551606
-0.06715986226409093 0.09324663919525913 -0.1359796558669594
-0.06948264188049078 0.12465284012857777 -0.1254573190184027
-0.07180542149689062 0.15605904106189644 -0.11493498216984602
-0.07412820111329047 0.18746524199521508 -0.10441264532128933
-0.07407509310571295 -0.10477264580397451 -0.17511688551468085
-0.0763978727221128 -0.07336644487065587 -0.16459454866612416
-0.07872065233851265 -0.04196024393733723 -0.15407221181756747
-0.0810434319549125 -0.010554043004018595 -0.1435498749690108
-0.08336621157131234 0.020852157929300064 -0.13302753812045412
-0.08568899118771219 0.05225835886261871 -0.12250520127189743
-0.08801177080411203 0.08366455979593736 -0.11198286442334075
-0.09033455042051187 0.115070760729256 -0.10146052757478406
-0.09265733003691172 0.14647696166257465 -0.09093819072622737
-0.09498010965331156 0.1778831625958933 -0.08041585387767068
-0.09492700164573407 -0.1143547252032963 -0.1511200940710622
-0.09724978126213393 -0.08294852426997766 -0.1405977572225055
-0.09957256087853378 -0.051542323336659014 -0.1300754203739488
-0.10189534049493362 -0.020136122403340385 -0.11955308352539215
-0.10421812011133347 0.011270078529978274 -0.10903074667683546
-0.10654089972773331 0.042676279463296926 -0.09850840982827877
-0.10886367934413316 0.07408248039661557 -0.0879860729797221
-0.111186458960533 0.1054886813299342 -0.0774637361311654
-0.11350923857693285 0.13689488226325286 -0.06694139928260871
-0.11583201819333269 0.1683010831965715 -0.05641906243405202
-0.11577891018575519 -0.12393680460261809 -0.12712330262744354
-0.11810168980215505 -0.09253060366929945 -0.11660096577888684
-0.12042446941855489 -0.061124402735980805 -0.10607862893033017
-0.12274724903495474 -0.02971820180266217 -0.09555629208177349
-0.12507002865135458 0.001687999130656487 -0.0850339552332168
-0.12739280826775443 0.033094200063975135 -0.07451161838466011
-0.12971558788415427 0.06450040099729377 -0.06398928153610343
-0.13203836750055412 0.09590660193061241 -0.053466944687546744
-0.13436114711695396 0.1273128028639311 -0.042944607838990054
-0.1366839267333538 0.15871900379724974 -0.03242227099043336
-0.1366308187257763 -0.13351888400193987 -0.10312651118382489
-0.13895359834217616 -0.10211268306862123 -0.0926041743352682
-0.141276377958576 -0.07070648213530259 -0.08208183748671152
-0.14359915757497585 -0.03930028120198395 -0.07155950063815485
-0.1459219371913757 -0.007894080268665296 -0.06103716378959816
-0.14824471680777554 0.023512120664653354 -0.05051482694104147
-0.15056749642417538 0.054918321597972 -0.039992490092484796
-0.15289027604057523 0.08632452253129064 -0.029470153243928102
-0.15521305565697507 0.1177307234646093 -0.018947816395371412
-0.15753583527337492 0.14913692439792794 -0.008425479546814722
-0.1574827272657974 -0.14310096340126166 -0.07912971974020624
-0.15980550688219727 -0.11169476246794302 -0.06860738289164955
-0.16212828649859712 -0.08028856153462437 -0.05808504604309288
-0.16445106611499696 -0.048882360601305734 -0.0475627091945362
-0.1667738457313968 -0.01747615966798708 -0.03704037234597951
-0.16909662534779665 0.01393004126533157 -0.02651803549742282
-0.1714194049641965 0.04533624219865021 -0.015995698648866144
-0.17374218458059634 0.07674244313196885 -0.0054733618003094545
-0.1760649641969962 0.10814864406528751 0.005048975048247236
-0.17838774381339603 0.13955484499860615 0.015571311896803927
-0.17833463580581854 -0.15268304280058345 -0.05513292829658758
-0.1806574154222184 -0.12127684186726481 -0.04461059144803089
-0.18298019503861823 -0.08987064093394616 -0.03408825459947421
-0.18530297465501808 -0.058464440000627525 -0.02356591775091754
-0.18762575427141792 -0.02705823906730887 -0.013043580902360848
-0.18994853388781777 0.00434796186600978 -0.002521244053804157
-0.1922713135042176 0.03575416279932842 0.008001092794752519
-0.19459409312061746 0.06716036373264705 0.01852342964330921
-0.1969168727370173 0.09856656466596572 0.0290457664918659
-0.19923965235341715 0.12997276559928436 0.03956810334042259
-0.19918654434583966 -0.16226512219990524 -0.031136136852968926
-0.2015093239622395 -0.1308589212665866 -0.020613800004412236
-0.20383210357863935 -0.09945272033326795 -0.010091463155855561
-0.2061548831950392 -0.06804651939994931 0.00043087369270111594
-0.20847766281143904 -0.036640318466630656 0.010953210541257806
-0.21080044242783888 -0.0052341175333120065 0.021475547389814498
-0.21312322204423872 0.026172083400006634 0.031997884238371174
-0.21544600166063857 0.05757828433332527 0.042520221086927865
-0.21776878127703841 0.08898448526664395 0.053042557935484555
-0.22009156089343826 0.12039068619996258 0.06356489478404125
0.22009156089343826 -0.12039068619996258 -0.06356489478404125
0.21776878127703841 -0.08898448526664395 -0.053042557935484555
0.21544600166063857 -0.05757828433332527 -0.042520221086927865
0.21312322204423872 -0.026172083400006648 -0.03199788423837119
0.21080044242783888 0.0052341175333120065 -0.021475547389814498
0.20847766281143904 0.036640318466630656 -0.010953210541257806
0.2061548831950392 0.0680465193999493 -0.0004308736927011298
0.20383210357863935 0.09945272033326794 0.010091463155855561
0.2015093239622395 0.1308589212665866 0.020613800004412236
0.19918654434583966 0.16226512219990524 0.031136136852968926
0.19923965235341715 -0.12997276559928436 -0.03956810334042259
0.1969168727370173 -0.09856656466596572 -0.0290457664918659
0.19459409312061746 -0.06716036373264705 -0.01852342964330921
0.1922713135042176 -0.035754162799328436 -0.008001092794752532
0.18994853388781777 -0.00434796186600978 0.002521244053804157
0.18762575427141792 0.02705823906730887 0.013043580902360848
0.18530297465501808 0.058464440000627504 0.023565917750917525
0.18298019503861823 0.08987064093394614 0.03408825459947421
0.1806574154222184 0.12127684186726481 0.04461059144803089
0.17833463580581854 0.15268304280058345 0.05513292829658758
0.17838774381339603 -0.13955484499860615 -0.015571311896803936
0.1760649641969962 -0.10814864406528751 -0.005048975048247246
0.17374218458059634 -0.07674244313196885 0.005473361800309444
0.1714194049641965 -0.04533624219865022 0.01599569864886612
0.16909662534779665 -0.013930041265331566 0.02651803549742281
0.1667738457313968 0.017476159667987084 0.037040372345979504
0.16445106611499696 0.04888236060130572 0.04756270919453618
0.16212828649859712 0.08028856153462435 0.05808504604309287
0.15980550688219727 0.11169476246794302 0.06860738289164954
0.15748272726579743 0.14310096340126166 0.07912971974020623
0.15753583527337492 -0.14913692439792794 0.008425479546814708
0.15521305565697507 -0.11773072346460929 0.018947816395371398
0.15289027604057523 -0.08632452253129062 0.02947015324392809
0.15056749642417538 -0.054918321597972004 0.03999249009248476
0.14824471680777554 -0.023512120664653347 0.05051482694104145
0.1459219371913757 0.007894080268665301 0.06103716378959814
0.14359915757497585 0.039300281201983936 0.07155950063815482
0.141276377958576 0.07070648213530258 0.08208183748671151
0.13895359834217616 0.10211268306862124 0.09260417433526819
0.13663081872577632 0.13351888400193987 0.10312651118382488
0.1366839267333538 -0.15871900379724974 0.03242227099043336
0.13436114711695396 -0.1273128028639311 0.042944607838990054
0.13203836750055412 -0.09590660193061241 0.053466944687546744
0.12971558788415427 -0.06450040099729379 0.06398928153610342
0.12739280826775443 -0.033094200063975135 0.07451161838466011
0.12507002865135458 -0.001687999130656487 0.0850339552332168
0.12274724903495474 0.029718201802662148 0.09555629208177348
0.12042446941855489 0.06112440273598079 0.10607862893033017
0.11810168980215505 0.09253060366929945 0.11660096577888684
0.11577891018575519 0.12393680460261809 0.12712330262744354
0.11583201819333269 -0.1683010831965715 0.05641906243405202
0.11350923857693285 -0.13689488226325286 0.06694139928260871
0.111186458960533 -0.1054886813299342 0.0774637361311654
0.10886367934413316 -0.07408248039661558 0.08798607297972208
0.10654089972773331 -0.042676279463296926 0.09850840982827877
0.10421812011133347 -0.011270078529978274 0.10903074667683546
0.10189534049493362 0.020136122403340364 0.11955308352539214
0.09957256087853378 0.051542323336659 0.1300754203739488
0.09724978126213393 0.08294852426997766 0.1405977572225055
0.09492700164573407 0.1143547252032963 0.1511200940710622
0.09498010965331158 -0.1778831625958933 0.08041585387767067
0.09265733003691173 -0.14647696166257465 0.09093819072622736
0.09033455042051189 -0.11507076072925598 0.10146052757478405
0.08801177080411204 -0.08366455979593736 0.11198286442334072
0.0856889911877122 -0.0522583588626187 0.12250520127189742
0.08336621157131235 -0.020852157929300057 0.1330275381204541
0.08104343195491251 0.01055404300401858 0.14354987496901078
0.07872065233851266 0.04196024393733722 0.15407221181756747
0.07639787272211282 0.07336644487065588 0.16459454866612414
0.07407509310571296 0.10477264580397452 0.17511688551468083
0.07412820111329047 -0.18746524199521508 0.10441264532128931
0.07180542149689062 -0.15605904106189644 0.114934982169846
0.06948264188049078 -0.12465284012857777 0.12545731901840268
0.06715986226409093 -0.09324663919525915 0.13597965586695937
0.06483708264769109 -0.06184043826194049 0.14650199271551606
0.06251430303129124 -0.03043423732862184 0.15702432956407275
0.0601915234148914 0.000971963604696796 0.1675466664126294
0.05786874379849156 0.03237816453801544 0.1780690032611861
0.05554596418209171 0.06378436547133409 0.1885913401097428
0.053223184565691854 0.09519056640465273 0.19911367695829948
0.053276292573269345 -0.19704732139453687 0.12840943676490799
0.0509535129568695 -0.16564112046121823 0.13893177361346468
0.048630733340469655 -0.13423491952789957 0.14945411046202137
0.04630795372406981 -0.10282871859458094 0.15997644731057803
0.043985174107669965 -0.07142251766126229 0.17049878415913472
0.04166239449127012 -0.04001631672794363 0.1810211210076914
0.039339614874870275 -0.008610115794624994 0.1915434578562481
0.03701683525847043 0.022796085138693644 0.2020657947048048
0.034694055642070586 0.05420228607201231 0.21258813155336145
0.03237127602567073 0.08560848700533094 0.22311046840191814
0.03242438403324823 -0.20662940079385866 0.15240622820852662
0.030101604416848383 -0.17522319986054002 0.1629285650570833
0.027778824800448538 -0.14381699892722136 0.17345090190564
0.025456045184048693 -0.11241079799390272 0.1839732387541967
0.023133265567648848 -0.08100459706058406 0.19449557560275338
0.020810485951249003 -0.049598396127265416 0.20501791245131007
0.01848770633484916 -0.01819219519394678 0.21554024929986673
0.016164926718449314 0.01321400573937186 0.22606258614842342
0.013842147102049469 0.04462020667269052 0.2365849229969801
0.01151936748564961 0.07602640760600916 0.2471072598455368
-0.01151936748564961 -0.07602640760600916 -0.2471072598455368
0.014215180112026823 -0.08095577189422622 -0.22671366372759286
0.039949727709703245 -0.08588513618244327 -0.2063200676096489
0.06568427530737968 -0.0908145004706603 -0.18592647149170496
0.09141882290505611 -0.09574386475887735 -0.165532875373761
0.11715337050273254 -0.1006732290470944 -0.14513927925581704
0.14288791810040896 -0.10560259333531145 -0.12474568313787311
0.1686224656980854 -0.11053195762352848 -0.10435208701992915
0.19435701329576185 -0.11546132191174553 -0.0839584909019852
0.22009156089343826 -0.12039068619996258 -0.06356489478404125
-0.03237127602567073 -0.08560848700533094 -0.22311046840191814
-0.006636728427994295 -0.090537851293548 -0.2027168722839742
0.01909781916968213 -0.09546721558176505 -0.18232327616603025
0.04483236676735856 -0.10039657986998207 -0.1619296800480863
0.070566914365035 -0.10532594415819913 -0.14153608393014236
0.09630146196271143 -0.11025530844641618 -0.1211424878121984
0.12203600956038785 -0.11518467273463323 -0.10074889169425445
0.14777055715806428 -0.12011403702285026 -0.0803552955763105
0.17350510475574074 -0.1250434013110673 -0.05996169945836655
0.19923965235341715 -0.12997276559928436 -0.03956810334042259
-0.05322318456569185 -0.09519056640465273 -0.19911367695829948
-0.02748863696801541 -0.10011993069286979 -0.17872008084035554
-0.0017540893703389855 -0.10504929498108684 -0.1583264847224116
0.02398045822733744 -0.10997865926930386 -0.13793288860446765
0.04971500582501388 -0.11490802355752092 -0.1175392924865237
0.07544955342269032 -0.11983738784573797 -0.09714569636857975
0.10118410102036673 -0.12476675213395502 -0.0767521002506358
0.12691864861804317 -0.12969611642217205 -0.05635850413269185
0.15265319621571963 -0.1346254807103891 -0.035964908014747894
0.17838774381339603 -0.13955484499860615 -0.015571311896803936
-0.07407509310571295 -0.10477264580397451 -0.17511688551468085
-0.04834054550803652 -0.10970201009219156 -0.1547232893967369
-0.022605997910360092 -0.11463137438040862 -0.13432969327879296
0.0031285496873163323 -0.11956073866862564 -0.11393609716084901
0.028863097284992773 -0.1244901029568427 -0.09354250104290505
0.0545976448826692 -0.12941946724505976 -0.07314890492496111
0.08033219248034562 -0.1343488315332768 -0.052755308807017155
0.10606674007802207 -0.13927819582149384 -0.03236171268907321
0.13180128767569851 -0.1442075601097109 -0.011968116571129252
0.15753583527337492 -0.14913692439792794 0.008425479546814708
-0.09492700164573407 -0.1143547252032963 -0.1511200940710622
-0.06919245404805764 -0.11928408949151335 -0.13072649795311825
-0.043457906450381216 -0.1242134537797304 -0.1103329018351743
-0.01772335885270479 -0.12914281806794745 -0.08993930571723036
0.008011188744971653 -0.1340721823561645 -0.0695457095992864
0.03374573634264808 -0.13900154664438155 -0.04915211348134245
0.0594802839403245 -0.1439309109325986 -0.028758517363398496
0.08521483153800094 -0.14886027522081563 -0.008364921245454546
0.11094937913567739 -0.15378963950903268 0.012028674872489407
0.1366839267333538 -0.15871900379724974 0.03242227099043336
-0.11577891018575519 -0.12393680460261809 -0.12712330262744354
-0.09004436258807876 -0.12886616889083513 -0.10672970650949959
-0.06430981499040234 -0.13379553317905218 -0.08633611039155564
-0.038575267392725904 -0.1387248974672692 -0.0659425142736117
-0.012840719795049464 -0.14365426175548626 -0.045548918155667736
0.012893827802626967 -0.14858362604370332 -0.025155322037723794
0.03862837540030339 -0.15351299033192037 -0.004761725919779843
0.06436292299797983 -0.1584423546201374 0.015631870198164106
0.09009747059565627 -0.16337171890835445 0.03602546631610806
0.11583201819333269 -0.1683010831965715 0.05641906243405202
-0.1366308187257763 -0.13351888400193987 -0.10312651118382489
-0.11089627112809987 -0.13844824829015692 -0.08273291506588094
-0.08516172353042344 -0.14337761257837398 -0.062339318947937004
-0.05942717593274701 -0.148306976866591 -0.04194572282999306
-0.03369262833507057 -0.15323634115480805 -0.021552126712049095
-0.007958080737394142 -0.1581657054430251 -0.001158530594105149
0.017776466860282277 -0.16309506973124216 0.0192350655238388
0.04351101445795872 -0.16802443401945918 0.03962866164178275
0.06924556205563516 -0.17295379830767624 0.0600222577597267
0.09498010965331158 -0.1778831625958933 0.08041585387767067
-0.1574827272657974 -0.14310096340126166 -0.07912971974020624
-0.13174817966812097 -0.1480303276894787 -0.0587361236222623
-0.10601363207044455 -0.15295969197769577 -0.03834252750431835
-0.08027908447276813 -0.1578890562659128 -0.017948931386374406
-0.054544536875091684 -0.16281842055412984 0.0024446647315695537
-0.02880998927741525 -0.1677477848423469 0.0228382608495135
-0.0030754416797388346 -0.17267714913056395 0.04323185696745745
0.022659105917937607 -0.17760651341878098 0.06362545308540139
0.04839365351561405 -0.18253587770699803 0.08401904920334535
0.07412820111329047 -0.18746524199521508 0.10441264532128931
-0.17833463580581854 -0.15268304280058345 -0.05513292829658758
-0.1526000882081421 -0.1576124070888005 -0.03473933217864363
-0.12686554061046568 -0.16254177137701756 -0.01434573606069969
-0.10113099301278924 -0.16747113566523458 0.0060478600572442575
-0.07539644541511281 -0.17240049995345164 0.026441456175188217
-0.04966189781743638 -0.1773298642416687 0.046835052293132166
-0.02392735021975996 -0.18225922852988574 0.06722864841107612
0.0018071973779164798 -0.18718859281810277 0.08762224452902007
0.027541744975592926 -0.19211795710631982 0.10801584064696401
0.053276292573269345 -0.19704732139453687 0.12840943676490799
-0.19918654434583966 -0.16226512219990524 -0.031136136852968926
-0.17345199674816322 -0.1671944864881223 -0.010742540735024982
-0.1477174491504868 -0.17212385077633935 0.009651055382918964
-0.12198290155281037 -0.17705321506455637 0.030044651500862912
-0.09624835395513393 -0.18198257935277343 0.05043824761880687
-0.07051380635745749 -0.18691194364099048 0.07083184373675082
-0.044779258759781074 -0.19184130792920753 0.09122543985469476
-0.019044711162104638 -0.19677067221742456 0.11161903597263871
0.00668983643557181 -0.2017000365056416 0.13201263209058267
0.03242438403324823 -0.20662940079385866 0.15240622820852662
-0.03242438403324823 0.20662940079385866 -0.15240622820852662
-0.00668983643557181 0.2017000365056416 -0.13201263209058267
0.019044711162104624 0.19677067221742456 -0.11161903597263872
0.04477925875978105 0.19184130792920753 -0.09122543985469478
0.07051380635745749 0.18691194364099048 -0.07083184373675082
0.09624835395513393 0.18198257935277343 -0.05043824761880687
0.12198290155281034 0.17705321506455637 -0.030044651500862926
0.1477174491504868 0.17212385077633935 -0.009651055382918964
0.17345199674816322 0.1671944864881223 0.010742540735024982
0.19918654434583966 0.16226512219990524 0.031136136852968926
-0.053276292573269345 0.19704732139453687 -0.12840943676490799
-0.027541744975592926 0.19211795710631982 -0.10801584064696401
-0.0018071973779164936 0.18718859281810277 -0.08762224452902007
0.02392735021975994 0.18225922852988574 -0.06722864841107612
0.04966189781743638 0.1773298642416687 -0.046835052293132166
0.07539644541511281 0.17240049995345164 -0.026441456175188217
0.10113099301278923 0.16747113566523458 -0.006047860057244271
0.12686554061046565 0.16254177137701756 0.01434573606069969
0.1526000882081421 0.1576124070888005 0.03473933217864363
0.17833463580581854 0.15268304280058345 0.05513292829658758
-0.07412820111329047 0.18746524199521508 -0.10441264532128933
-0.048393653515614046 0.18253587770699803 -0.08401904920334537
-0.02265910591793761 0.17760651341878098 -0.06362545308540142
0.0030754416797388225 0.17267714913056395 -0.04323185696745747
0.028809989277415262 0.1677477848423469 -0.02283826084951351
0.05454453687509169 0.16281842055412984 -0.0024446647315695636
0.08027908447276812 0.1578890562659128 0.01794893138637438
0.10601363207044455 0.15295969197769577 0.038342527504318345
0.131748179668121 0.1480303276894787 0.05873612362226229
0.15748272726579743 0.14310096340126166 0.07912971974020623
-0.09498010965331156 0.1778831625958933 -0.08041585387767068
-0.06924556205563515 0.17295379830767624 -0.06002225775972672
-0.04351101445795872 0.16802443401945918 -0.039628661641782775
-0.017776466860282284 0.16309506973124216 -0.019235065523838826
0.007958080737394154 0.1581657054430251 0.0011585305941051339
0.033692628335070585 0.15323634115480805 0.02155212671204908
0.059427175932747 0.148306976866591 0.041945722829993023
0.08516172353042344 0.14337761257837398 0.062339318947936984
0.11089627112809988 0.13844824829015692 0.08273291506588093
0.13663081872577632 0.13351888400193987 0.10312651118382488
-0.11583201819333269 0.1683010831965715 -0.05641906243405202
-0.09009747059565627 0.16337171890835445 -0.03602546631610806
-0.06436292299797984 0.1584423546201374 -0.015631870198164113
-0.03862837540030341 0.15351299033192037 0.004761725919779833
-0.012893827802626967 0.14858362604370332 0.025155322037723794
0.012840719795049464 0.14365426175548626 0.045548918155667736
0.03857526739272588 0.1387248974672692 0.06594251427361168
0.06430981499040232 0.13379553317905218 0.08633611039155564
0.09004436258807876 0.12886616889083513 0.10672970650949959
0.11577891018575519 0.12393680460261809 0.12712330262744354
-0.1366839267333538 0.15871900379724974 -0.03242227099043336
-0.11094937913567739 0.15378963950903268 -0.012028674872489407
-0.08521483153800095 0.14886027522081563 0.00836492124545454
-0.05948028394032452 0.1439309109325986 0.028758517363398486
-0.03374573634264808 0.13900154664438155 0.04915211348134245
-0.008011188744971653 0.1340721823561645 0.0695457095992864
0.01772335885270477 0.12914281806794745 0.08993930571723034
0.0434579064503812 0.1242134537797304 0.1103329018351743
0.06919245404805764 0.11928408949151335 0.13072649795311825
0.09492700164573407 0.1143547252032963 0.1511200940710622
-0.15753583527337492 0.14913692439792794 -0.008425479546814722
-0.1318012876756985 0.1442075601097109 0.011968116571129239
-0.10606674007802207 0.13927819582149384 0.03236171268907318
-0.08033219248034563 0.1343488315332768 0.05275530880701713
-0.05459764488266919 0.12941946724505976 0.0731489049249611
-0.02886309728499276 0.12449010295684271 0.09354250104290504
-0.00312854968731634 0.11956073866862565 0.11393609716084899
0.022605997910360092 0.11463137438040863 0.13432969327879293
0.048340545508036535 0.10970201009219158 0.15472328939673688
0.07407509310571296 0.10477264580397452 0.17511688551468083
-0.17838774381339603 0.13955484499860615 0.015571311896803927
-0.1526531962157196 0.1346254807103891 0.03596490801474789
-0.12691864861804317 0.12969611642217205 0.05635850413269183
-0.10118410102036675 0.12476675213395502 0.07675210025063578
-0.0754495534226903 0.11983738784573797 0.09714569636857974
-0.04971500582501387 0.11490802355752092 0.11753929248652369
-0.02398045822733745 0.10997865926930386 0.13793288860446762
0.0017540893703389805 0.10504929498108684 0.1583264847224116
0.02748863696801542 0.10011993069286979 0.17872008084035554
0.053223184565691854 0.09519056640465273 0.19911367695829948
-0.19923965235341715 0.12997276559928436 0.03956810334042259
-0.17350510475574074 0.1250434013110673 0.05996169945836655
-0.1477705571580643 0.12011403702285026 0.08035529557631049
-0.12203600956038786 0.11518467273463323 0.10074889169425444
-0.09630146196271143 0.11025530844641618 0.1211424878121984
-0.070566914365035 0.10532594415819913 0.14153608393014236
-0.04483236676735858 0.10039657986998207 0.1619296800480863
-0.019097819169682145 0.09546721558176505 0.18232327616603025
0.006636728427994295 0.090537851293548 0.2027168722839742
0.03237127602567073 0.08560848700533094 0.22311046840191814
-0.22009156089343826 0.12039068619996258 0.06356489478404125
-0.19435701329576185 0.11546132191174553 0.0839584909019852
-0.16862246569808542 0.11053195762352848 0.10435208701992915
-0.142887918100409 0.10560259333531145 0.1247456831378731
-0.11715337050273254 0.1006732290470944 0.14513927925581704
-0.09141882290505611 0.09574386475887735 0.165532875373761
-0.06568427530737969 0.0908145004706603 0.18592647149170494
-0.03994972770970326 0.08588513618244327 0.2063200676096489
-0.014215180112026823 0.08095577189422622 0.22671366372759286
0.01151936748564961 0.07602640760600916 0.2471072598455368
-0.01151936748564961 -0.07602640760600916 -0.2471072598455368
0.014215180112026823 -0.08095577189422622 -0.22671366372759286
0.039949727709703245 -0.08588513618244327 -0.2063200676096489
0.06568427530737968 -0.0908145004706603 -0.18592647149170496
0.09141882290505611 -0.09574386475887735 -0.165532875373761
0.11715337050273254 -0.1006732290470944 -0.14513927925581704
0.14288791810040896 -0.10560259333531145 -0.12474568313787311
0.1686224656980854 -0.11053195762352848 -0.10435208701992915
0.19435701329576185 -0.11546132191174553 -0.0839584909019852
0.22009156089343826 -0.12039068619996258 -0.06356489478404125
-0.013842147102049469 -0.04462020667269052 -0.2365849229969801
0.011892400495626964 -0.04954957096090757 -0.21619132687903617
0.0376269480933034 -0.05447893524912461 -0.19579773076109222
0.06336149569097983 -0.05940829953734166 -0.17540413464314827
0.08909604328865627 -0.06433766382555871 -0.1550105385252043
0.1148305908863327 -0.06926702811377576 -0.13461694240726035
0.14056513848400912 -0.0741963924019928 -0.11422334628931642
0.16629968608168555 -0.07912575669020984 -0.09382975017137246
0.19203423367936198 -0.08405512097842689 -0.07343615405342852
0.21776878127703841 -0.08898448526664395 -0.053042557935484555
-0.016164926718449314 -0.013214005739371874 -0.22606258614842342
0.009569620879227119 -0.01814337002758892 -0.20566899003047948
0.035304168476903555 -0.02307273431580596 -0.18527539391253553
0.06103871607457998 -0.028002098604023012 -0.16488179779459158
0.08677326367225642 -0.03293146289224005 -0.14448820167664764
0.11250781126993285 -0.0378608271804571 -0.12409460555870368
0.13824235886760927 -0.04279019146867414 -0.10370100944075973
0.1639769064652857 -0.04771955575689119 -0.08330741332281578
0.18971145406296214 -0.05264892004510823 -0.06291381720487182
0.21544600166063857 -0.05757828433332527 -0.042520221086927865
-0.01848770633484916 0.01819219519394676 -0.21554024929986676
0.007246841262827273 0.013262830905729713 -0.19514665318192279
0.0329813888605037 0.008333466617512667 -0.17475305706397884
0.058715936458180136 0.003404102329295629 -0.1543594609460349
0.08445048405585658 -0.001525261958921424 -0.13396586482809095
0.11018503165353301 -0.006454626247138463 -0.11357226871014699
0.13591957925120943 -0.01138399053535551 -0.09317867259220304
0.16165412684888586 -0.016313354823572556 -0.0727850764742591
0.1873886744465623 -0.02124271911178961 -0.05239148035631515
0.21312322204423872 -0.026172083400006648 -0.03199788423837119
-0.020810485951249003 0.049598396127265416 -0.20501791245131007
0.0049240616464274285 0.04466903183904837 -0.1846243163333661
0.030658609244103862 0.039739667550831324 -0.16423072021542215
0.056393156841780284 0.034810303262614285 -0.1438371240974782
0.08212770443945673 0.029880938974397236 -0.12344352797953426
0.10786225203713316 0.02495157468618019 -0.10304993186159031
0.13359679963480958 0.020022210397963147 -0.08265633574364635
0.15933134723248601 0.015092846109746101 -0.06226273962570241
0.18506589483016245 0.010163481821529059 -0.04186914350775846
0.21080044242783888 0.0052341175333120065 -0.021475547389814498
-0.023133265567648848 0.08100459706058406 -0.19449557560275338
0.0026012820300275836 0.07607523277236701 -0.1741019794848094
0.028335829627704017 0.07114586848414997 -0.15370838336686546
0.05407037722538044 0.06621650419593293 -0.1333147872489215
0.07980492482305689 0.061287139907715886 -0.11292119113097757
0.10553947242073332 0.05635777561949884 -0.09252759501303362
0.13127402001840974 0.051428411331281794 -0.07213399889508967
0.15700856761608617 0.04649904704306475 -0.05174040277714572
0.1827431152137626 0.0415696827548477 -0.03134680665920177
0.20847766281143904 0.036640318466630656 -0.010953210541257806
-0.025456045184048693 0.1124107979939027 -0.1839732387541967
0.00027850241362773875 0.10748143370568565 -0.16357964263625274
0.026013050011304172 0.10255206941746861 -0.1431860465183088
0.051747597608980594 0.09762270512925156 -0.12279245040036485
0.07748214520665704 0.09269334084103452 -0.10239885428242089
0.10321669280433347 0.08776397655281748 -0.08200525816447693
0.1289512404020099 0.08283461226460043 -0.06161166204653299
0.15468578799968632 0.07790524797638339 -0.04121806592858904
0.18042033559736276 0.07297588368816633 -0.02082446981064509
0.2061548831950392 0.0680465193999493 -0.0004308736927011298
-0.027778824800448538 0.14381699892722136 -0.17345090190564
-0.002044277202772106 0.1388876346390043 -0.15305730578769605
0.023690270394904327 0.13395827035078725 -0.1326637096697521
0.04942481799258074 0.1290289060625702 -0.11227011355180816
0.07515936559025718 0.12409954177435316 -0.0918765174338642
0.10089391318793361 0.1191701774861361 -0.07148292131592025
0.12662846078561005 0.11424081319791907 -0.05108932519797631
0.15236300838328648 0.10931144890970203 -0.030695729080032347
0.1780975559809629 0.10438208462148497 -0.010302132962088399
0.20383210357863935 0.09945272033326794 0.010091463155855561
-0.030101604416848383 0.17522319986054002 -0.1629285650570833
-0.004367056819171951 0.17029383557232297 -0.14253496893913936
0.021367490778504483 0.16536447128410592 -0.12214137282119542
0.0471020383761809 0.16043510699588887 -0.10174777670325147
0.07283658597385734 0.15550574270767184 -0.08135418058530751
0.09857113357153377 0.1505763784194548 -0.06096058446736356
0.12430568116921019 0.14564701413123773 -0.040566988349419617
0.15004022876688664 0.1407176498430207 -0.020173392231475656
0.17577477636456307 0.13578828555480366 0.00022020388646829087
0.2015093239622395 0.1308589212665866 0.020613800004412236
-0.03242438403324823 0.20662940079385866 -0.15240622820852662
-0.00668983643557181 0.2017000365056416 -0.13201263209058267
0.019044711162104624 0.19677067221742456 -0.11161903597263872
0.04477925875978105 0.19184130792920753 -0.09122543985469478
0.07051380635745749 0.18691194364099048 -0.07083184373675082
0.09624835395513393 0.18198257935277343 -0.05043824761880687
0.12198290155281034 0.17705321506455637 -0.030044651500862926
0.1477174491504868 0.17212385077633935 -0.009651055382918964
0.17345199674816322 0.1671944864881223 0.010742540735024982
0.19918654434583966 0.16226512219990524 0.031136136852968926
-0.19918654434583966 -0.16226512219990524 -0.031136136852968926
-0.17345199674816322 -0.1671944864881223 -0.010742540735024982
-0.1477174491504868 -0.17212385077633935 0.009651055382918964
-0.12198290155281037 -0.17705321506455637 0.030044651500862912
-0.09624835395513393 -0.18198257935277343 0.05043824761880687
-0.07051380635745749 -0.18691194364099048 0.07083184373675082
-0.044779258759781074 -0.19184130792920753 0.09122543985469476
-0.019044711162104638 -0.19677067221742456 0.11161903597263871
0.00668983643557181 -0.2017000365056416 0.13201263209058267
0.03242438403324823 -0.20662940079385866 0.15240622820852662
-0.2015093239622395 -0.1308589212665866 -0.020613800004412236
-0.17577477636456307 -0.13578828555480366 -0.00022020388646829087
-0.15004022876688664 -0.14071764984302068 0.020173392231475656
-0.12430568116921022 -0.14564701413123773 0.0405669883494196
-0.09857113357153377 -0.1505763784194548 0.06096058446736356
-0.07283658597385734 -0.15550574270767184 0.08135418058530751
-0.04710203837618092 -0.16043510699588887 0.10174777670325146
-0.021367490778504483 -0.16536447128410592 0.1221413728211954
0.004367056819171951 -0.17029383557232297 0.14253496893913936
0.030101604416848383 -0.17522319986054002 0.1629285650570833
-0.20383210357863935 -0.09945272033326795 -0.010091463155855561
-0.1780975559809629 -0.10438208462148499 0.010302132962088399
-0.15236300838328648 -0.10931144890970203 0.030695729080032347
-0.12662846078561005 -0.11424081319791908 0.05108932519797629
-0.10089391318793361 -0.11917017748613612 0.07148292131592024
-0.07515936559025718 -0.12409954177435317 0.0918765174338642
-0.049424817992580763 -0.12902890606257023 0.11227011355180815
-0.02369027039490434 -0.13395827035078728 0.1326637096697521
0.002044277202772106 -0.1388876346390043 0.15305730578769605
0.027778824800448538 -0.14381699892722136 0.17345090190564
-0.2061548831950392 -0.06804651939994931 0.00043087369270111594
-0.18042033559736276 -0.07297588368816636 0.020824469810645077
-0.15468578799968632 -0.0779052479763834 0.04121806592858902
-0.1289512404020099 -0.08283461226460044 0.06161166204653297
-0.10321669280433346 -0.0877639765528175 0.08200525816447693
-0.07748214520665703 -0.09269334084103453 0.10239885428242088
-0.051747597608980615 -0.09762270512925159 0.12279245040036482
-0.026013050011304186 -0.10255206941746862 0.14318604651830877
-0.00027850241362773875 -0.10748143370568568 0.16357964263625271
0.025456045184048693 -0.11241079799390272 0.1839732387541967
-0.20847766281143904 -0.036640318466630656 0.010953210541257806
-0.1827431152137626 -0.0415696827548477 0.03134680665920177
-0.15700856761608617 -0.04649904704306475 0.051740402777145714
-0.13127402001840976 -0.051428411331281794 0.07213399889508966
-0.10553947242073332 -0.05635777561949884 0.09252759501303362
-0.07980492482305689 -0.061287139907715886 0.11292119113097757
-0.05407037722538046 -0.06621650419593293 0.1333147872489215
-0.02833582962770403 -0.07114586848414997 0.15370838336686546
-0.0026012820300275836 -0.07607523277236701 0.1741019794848094
0.023133265567648848 -0.08100459706058406 0.19449557560275338
-0.21080044242783888 -0.0052341175333120065 0.021475547389814498
-0.18506589483016245 -0.010163481821529059 0.04186914350775846
-0.15933134723248601 -0.015092846109746098 0.062262739625702404
-0.1335967996348096 -0.020022210397963144 0.08265633574364635
-0.10786225203713316 -0.02495157468618019 0.10304993186159031
-0.08212770443945673 -0.029880938974397236 0.12344352797953426
-0.056393156841780305 -0.03481030326261428 0.1438371240974782
-0.030658609244103876 -0.039739667550831324 0.16423072021542215
-0.0049240616464274285 -0.04466903183904837 0.1846243163333661
0.020810485951249003 -0.049598396127265416 0.20501791245131007
-0.21312322204423872 0.026172083400006634 0.031997884238371174
-0.1873886744465623 0.02124271911178958 0.052391480356315134
-0.16165412684888586 0.016313354823572535 0.07278507647425908
-0.13591957925120945 0.01138399053535549 0.09317867259220303
-0.11018503165353301 0.006454626247138442 0.11357226871014699
-0.08445048405585658 0.0015252619589214032 0.13396586482809095
-0.05871593645818015 -0.003404102329295643 0.1543594609460349
-0.03298138886050372 -0.008333466617512688 0.17475305706397884
-0.007246841262827273 -0.013262830905729734 0.19514665318192279
0.01848770633484916 -0.01819219519394678 0.21554024929986673
-0.21544600166063857 0.05757828433332527 0.042520221086927865
-0.18971145406296214 0.05264892004510822 0.06291381720487182
-0.1639769064652857 0.04771955575689118 0.08330741332281577
-0.1382423588676093 0.042790191468674126 0.10370100944075972
-0.11250781126993285 0.037860827180457086 0.12409460555870368
-0.08677326367225642 0.032931462892240033 0.1444882016766476
-0.061038716074579995 0.028002098604022998 0.16488179779459156
-0.03530416847690356 0.02307273431580596 0.18527539391253553
-0.009569620879227119 0.018143370027588906 0.20566899003047948
0.016164926718449314 0.01321400573937186 0.22606258614842342
-0.21776878127703841 0.08898448526664395 0.053042557935484555
-0.19203423367936198 0.08405512097842689 0.07343615405342852
-0.16629968608168555 0.07912575669020985 0.09382975017137246
-0.14056513848400914 0.0741963924019928 0.11422334628931641
-0.1148305908863327 0.06926702811377576 0.13461694240726035
-0.08909604328865627 0.06433766382555871 0.1550105385252043
-0.06336149569097985 0.05940829953734166 0.17540413464314825
-0.037626948093303414 0.05447893524912462 0.19579773076109222
-0.011892400495626964 0.04954957096090757 0.21619132687903617
0.013842147102049469 0.04462020667269052 0.2365849229969801
-0.22009156089343826 0.12039068619996258 0.06356489478404125
-0.19435701329576185 0.11546132191174553 0.0839584909019852
-0.16862246569808542 0.11053195762352848 0.10435208701992915
-0.142887918100409 0.10560259333531145 0.1247456831378731
-0.11715337050273254 0.1006732290470944 0.14513927925581704
-0.09141882290505611 0.09574386475887735 0.165532875373761
-0.06568427530737969 0.0908145004706603 0.18592647149170494
-0.03994972770970326 0.08588513618244327 0.2063200676096489
-0.014215180112026823 0.08095577189422622 0.22671366372759286
0.01151936748564961 0.07602640760600916 0.2471072598455368
