# .PCD v0.7 - Point Cloud Data file format
VERSION 0.7
FIELDS x y z
SIZE 4 4 4
TYPE F F F
COUNT 1 1 1
WIDTH 600
HEIGHT 1
VIEWPOINT 0 0 0 1 0 0 0
POINTS 600
DATA ascii
-0.1616726925882754 -0.20105753560306877 0.004996155824090411
-0.16591108934514723 -0.17356323504111423 -0.012953336216413409
-0.17014948610201905 -0.1460689344791597 -0.03090282825691724
-0.17438788285889087 -0.11857463391720516 -0.048852320297421065
-0.1786262796157627 -0.0910803333552506 -0.0668018123379249
-0.1828646763726345 -0.06358603279329605 -0.08475130437842873
-0.18710307312950633 -0.036091732231341524 -0.10270079641893255
-0.19134146988637815 -0.008597431669386974 -0.12065028845943639
-0.19557986664324997 0.018896868892567576 -0.1385997804999402
-0.1998182634001218 0.0463911694545221 -0.15654927254044404
-0.15324062637303792 -0.18265467045217698 0.031193858940047125
-0.15747902312990975 -0.15516036989022244 0.013244366899543307
-0.16171741988678157 -0.1276660693282679 -0.004705125140960527
-0.1659558166436534 -0.10017176876631335 -0.02265461718146435
-0.1701942134005252 -0.0726774682043588 -0.04060410922196818
-0.17443261015739703 -0.045183167642404244 -0.05855360126247201
-0.17867100691426885 -0.017688867080449717 -0.07650309330297583
-0.18290940367114067 0.009805433481504837 -0.09445258534347967
-0.1871478004280125 0.03729973404345939 -0.1124020773839835
-0.1913861971848843 0.06479403460541391 -0.13035156942448733
-0.14480856015780044 -0.16425180530128516 0.05739156205600384
-0.14904695691467226 -0.13675750473933063 0.03944207001550002
-0.15328535367154408 -0.10926320417737609 0.021492577974996187
-0.1575237504284159 -0.08176890361542154 0.003543085934492368
-0.16176214718528772 -0.054274603053466985 -0.014406406106011465
-0.16600054394215955 -0.026780302491512437 -0.0323558981465153
-0.17023894069903137 0.0007139980704420938 -0.05030539018701912
-0.1744773374559032 0.028208298632396645 -0.06825488222752295
-0.178715734212775 0.0557025991943512 -0.08620437426802678
-0.18295413096964683 0.08319689975630572 -0.1041538663085306
-0.13637649394256296 -0.14584894015039335 0.08358926517196057
-0.14061489069943478 -0.11835463958843881 0.06563977313145675
-0.1448532874563066 -0.09086033902648427 0.047690281090952906
-0.14909168421317842 -0.06336603846452973 0.02974078905044909
-0.15333008097005024 -0.035871737902575175 0.011791297009945256
-0.15756847772692206 -0.008377437340620623 -0.006158195030558579
-0.16180687448379388 0.019116863221333907 -0.024107687071062398
-0.1660452712406657 0.04661116378328846 -0.042057179111566236
-0.17028366799753752 0.07410546434524301 -0.06000667115207007
-0.17452206475440935 0.10159976490719753 -0.07795616319257388
-0.12794442772732548 -0.12744607499950153 0.10978696828791729
-0.1321828244841973 -0.09995177443754699 0.09183747624741347
-0.13642122124106912 -0.07245747387559245 0.07388798420690963
-0.14065961799794094 -0.04496317331363791 0.05593849216640581
-0.14489801475481276 -0.017468872751683358 0.03798900012590198
-0.14913641151168458 0.010025427810271194 0.020039508085398148
-0.1533748082685564 0.037519728372225725 0.002090016044894328
-0.15761320502542822 0.06501402893418028 -0.015859475995609506
-0.16185160178230004 0.09250832949613483 -0.03380896803611334
-0.16608999853917186 0.12000263005808935 -0.05175846007661716
-0.11951236151208801 -0.10904320984860971 0.13598467140387402
-0.12375075826895983 -0.08154890928665517 0.1180351793633702
-0.12798915502583166 -0.05405460872470064 0.10008568732286637
-0.13222755178270348 -0.026560308162746092 0.08213619528236255
-0.1364659485395753 0.0009339923992084595 0.06418670324185871
-0.14070434529644713 0.02842829296116301 0.04623721120135488
-0.14494274205331895 0.05592259352311754 0.028287719160851054
-0.14918113881019077 0.0834168940850721 0.01033822712034722
-0.1534195355670626 0.11091119464702665 -0.007611264920156614
-0.1576579323239344 0.13840549520898118 -0.025560756960660434
-0.11108029529685054 -0.09064034469771791 0.16218237451983072
-0.11531869205372236 -0.06314604413576337 0.14423288247932692
-0.11955708881059418 -0.03565174357380883 0.12628339043882308
-0.123795485567466 -0.008157443011854287 0.10833389839831925
-0.12803388232433782 0.019336857550100266 0.09038440635781542
-0.13227227908120964 0.046831158112054815 0.07243491431731158
-0.13651067583808146 0.07432545867400935 0.05448542227680776
-0.14074907259495328 0.1018197592359639 0.03653593023630393
-0.1449874693518251 0.12931405979791846 0.018586438195800095
-0.14922586610869693 0.15680836035987297 0.0006369461552962765
-0.10264822908161306 -0.07223747954682609 0.18838007763578746
-0.10688662583848488 -0.044743178984871554 0.17043058559528362
-0.1111250225953567 -0.017248878422917013 0.1524810935547798
-0.11536341935222852 0.01024542213903753 0.13453160151427598
-0.11960181610910034 0.03773972270099208 0.11658210947377215
-0.12384021286597216 0.06523402326294664 0.09863261743326832
-0.12807860962284398 0.09272832382490116 0.0806831253927645
-0.1323170063797158 0.12022262438685571 0.06273363335226066
-0.13655540313658762 0.14771692494881028 0.04478414131175682
-0.14079379989345944 0.1752112255107648 0.026834649271253
-0.09421616286637557 -0.053834614395934274 0.2145777807517442
-0.0984545596232474 -0.026340313833979733 0.19662828871124036
-0.10269295638011922 0.0011539867279748038 0.17867879667073652
-0.10693135313699104 0.02864828728992935 0.16072930463023272
-0.11116974989386286 0.0561425878518839 0.14277981258972888
-0.11540814665073468 0.08363688841383846 0.12483032054922504
-0.1196465434076065 0.11113118897579298 0.10688082850872122
-0.12388494016447832 0.13862548953774753 0.08893133646821738
-0.12812333692135014 0.1661197900997021 0.07098184442771355
-0.13236173367822196 0.1936140906616566 0.05303235238720973
-0.08578409665113809 -0.035431749245042464 0.2407754838677009
-0.09002249340800991 -0.007937448683087924 0.22282599182719706
-0.09426089016488173 0.019556851878866615 0.20487649978669323
-0.09849928692175355 0.047051152440821156 0.18692700774618942
-0.10273768367862537 0.07454545300277571 0.1689775157056856
-0.1069760804354972 0.10203975356473026 0.15102802366518175
-0.11121447719236902 0.12953405412668478 0.13307853162467792
-0.11545287394924084 0.15702835468863935 0.1151290395841741
-0.11969127070611266 0.1845226552505939 0.09717954754367027
-0.12392966746298448 0.21201695581254842 0.07923005550316645
0.12392966746298448 -0.21201695581254842 -0.07923005550316645
0.11969127070611266 -0.1845226552505939 -0.09717954754367027
0.11545287394924084 -0.15702835468863935 -0.11512903958417409
0.11121447719236902 -0.1295340541266848 -0.13307853162467792
0.1069760804354972 -0.10203975356473026 -0.15102802366518175
0.10273768367862537 -0.07454545300277571 -0.1689775157056856
0.09849928692175355 -0.04705115244082118 -0.1869270077461894
0.09426089016488173 -0.01955685187886663 -0.20487649978669323
0.09002249340800991 0.007937448683087924 -0.22282599182719706
0.08578409665113809 0.035431749245042464 -0.2407754838677009
0.13236173367822196 -0.1936140906616566 -0.05303235238720973
0.12812333692135014 -0.1661197900997021 -0.07098184442771355
0.12388494016447832 -0.13862548953774756 -0.08893133646821738
0.1196465434076065 -0.11113118897579301 -0.1068808285087212
0.11540814665073468 -0.08363688841383846 -0.12483032054922504
0.11116974989386286 -0.0561425878518839 -0.14277981258972888
0.10693135313699104 -0.02864828728992937 -0.1607293046302327
0.10269295638011922 -0.0011539867279748177 -0.17867879667073652
0.0984545596232474 0.026340313833979733 -0.19662828871124036
0.09421616286637557 0.053834614395934274 -0.2145777807517442
0.14079379989345944 -0.1752112255107648 -0.026834649271253015
0.13655540313658762 -0.14771692494881028 -0.044784141311756835
0.1323170063797158 -0.12022262438685574 -0.06273363335226066
0.12807860962284398 -0.09272832382490119 -0.0806831253927645
0.12384021286597215 -0.06523402326294664 -0.09863261743326832
0.11960181610910033 -0.03773972270099209 -0.11658210947377215
0.1153634193522285 -0.01024542213903756 -0.13453160151427598
0.11112502259535668 0.017248878422916992 -0.15248109355477982
0.10688662583848486 0.04474317898487155 -0.17043058559528365
0.10264822908161304 0.07223747954682608 -0.18838007763578746
0.14922586610869693 -0.156808360359873 -0.000636946155296293
0.1449874693518251 -0.12931405979791846 -0.018586438195800112
0.14074907259495328 -0.10181975923596392 -0.03653593023630394
0.13651067583808146 -0.07432545867400939 -0.05448542227680777
0.13227227908120964 -0.04683115811205483 -0.0724349143173116
0.12803388232433782 -0.019336857550100277 -0.09038440635781543
0.12379548556746599 0.008157443011854254 -0.10833389839831925
0.11955708881059417 0.035651743573808806 -0.12628339043882308
0.11531869205372235 0.06314604413576336 -0.14423288247932692
0.11108029529685053 0.0906403446977179 -0.16218237451983075
0.1576579323239344 -0.13840549520898118 0.025560756960660434
0.1534195355670626 -0.11091119464702665 0.007611264920156614
0.14918113881019077 -0.08341689408507211 -0.010338227120347213
0.14494274205331895 -0.05592259352311756 -0.028287719160851044
0.14070434529644713 -0.02842829296116301 -0.04623721120135488
0.1364659485395753 -0.0009339923992084595 -0.06418670324185871
0.13222755178270348 0.02656030816274607 -0.08213619528236253
0.12798915502583166 0.05405460872470062 -0.10008568732286637
0.12375075826895983 0.08154890928665517 -0.1180351793633702
0.11951236151208801 0.10904320984860971 -0.13598467140387402
0.16608999853917186 -0.12000263005808935 0.05175846007661716
0.16185160178230004 -0.09250832949613483 0.03380896803611334
0.15761320502542822 -0.06501402893418029 0.015859475995609513
0.1533748082685564 -0.037519728372225745 -0.0020900160448943175
0.14913641151168458 -0.010025427810271194 -0.020039508085398148
0.14489801475481276 0.017468872751683358 -0.03798900012590198
0.14065961799794094 0.04496317331363789 -0.0559384921664058
0.13642122124106912 0.07245747387559244 -0.07388798420690963
0.1321828244841973 0.09995177443754699 -0.09183747624741347
0.12794442772732548 0.12744607499950153 -0.10978696828791729
0.17452206475440935 -0.10159976490719755 0.07795616319257387
0.17028366799753752 -0.07410546434524302 0.06000667115207005
0.1660452712406657 -0.04661116378328849 0.04205717911156622
0.16180687448379388 -0.01911686322133394 0.02410768707106239
0.15756847772692206 0.008377437340620611 0.006158195030558563
0.15333008097005024 0.03587173790257516 -0.011791297009945271
0.14909168421317842 0.06336603846452969 -0.029740789050449093
0.1448532874563066 0.09086033902648424 -0.04769028109095293
0.14061489069943478 0.1183546395884388 -0.06563977313145676
0.13637649394256296 0.14584894015039335 -0.08358926517196058
0.18295413096964683 -0.08319689975630573 0.1041538663085306
0.178715734212775 -0.05570259919435121 0.08620437426802678
0.1744773374559032 -0.028208298632396666 0.06825488222752295
0.17023894069903137 -0.0007139980704421223 0.05030539018701912
0.16600054394215955 0.02678030249151243 0.03235589814651529
0.16176214718528772 0.05427460305346698 0.014406406106011455
0.1575237504284159 0.08176890361542151 -0.003543085934492365
0.15328535367154408 0.10926320417737606 -0.0214925779749962
0.14904695691467226 0.13675750473933063 -0.039442070015500034
0.14480856015780044 0.16425180530128516 -0.057391562056003854
0.1913861971848843 -0.06479403460541391 0.13035156942448733
0.1871478004280125 -0.03729973404345939 0.1124020773839835
0.18290940367114067 -0.00980543348150485 0.09445258534347968
0.17867100691426885 0.017688867080449696 0.07650309330297585
0.17443261015739703 0.045183167642404244 0.05855360126247201
0.1701942134005252 0.0726774682043588 0.04060410922196818
0.1659558166436534 0.10017176876631333 0.022654617181464363
0.16171741988678157 0.12766606932826788 0.004705125140960527
0.15747902312990975 0.15516036989022244 -0.013244366899543307
0.15324062637303792 0.18265467045217698 -0.031193858940047125
0.1998182634001218 -0.0463911694545221 0.15654927254044404
0.19557986664324997 -0.018896868892567576 0.1385997804999402
0.19134146988637815 0.00859743166938696 0.12065028845943639
0.18710307312950633 0.0360917322313415 0.10270079641893257
0.1828646763726345 0.06358603279329605 0.08475130437842873
0.1786262796157627 0.0910803333552506 0.0668018123379249
0.17438788285889087 0.11857463391720514 0.04885232029742108
0.17014948610201905 0.1460689344791597 0.03090282825691724
0.16591108934514723 0.17356323504111423 0.012953336216413409
0.1616726925882754 0.20105753560306877 -0.004996155824090411
-0.1616726925882754 -0.20105753560306877 0.004996155824090411
-0.1299390970270243 -0.20227524895967763 -0.004362312101160349
-0.09820550146577321 -0.20349296231628647 -0.01372078002641111
-0.06647190590452212 -0.20471067567289533 -0.023079247951661868
-0.03473831034327102 -0.20592838902950417 -0.03243771587691263
-0.0030047147820199097 -0.20714610238611303 -0.041796183802163406
0.028728880779231167 -0.2083638157427219 -0.051154651727414166
0.06046247634048227 -0.20958152909933073 -0.060513119652664926
0.09219607190173337 -0.2107992424559396 -0.06987158757791569
0.12392966746298448 -0.21201695581254842 -0.07923005550316645
-0.15324062637303792 -0.18265467045217698 0.031193858940047125
-0.12150703081178682 -0.18387238380878582 0.021835391014796365
-0.08977343525053573 -0.18509009716539468 0.012476923089545606
-0.05803983968928464 -0.18630781052200351 0.0031184551642948455
-0.026306244128033538 -0.18752552387861238 -0.006240012760955914
0.005427351433217567 -0.18874323723522124 -0.015598480686206688
0.03716094699446865 -0.18996095059183007 -0.02495694861145745
0.06889454255571975 -0.1911786639484389 -0.03431541653670821
0.10062813811697086 -0.19239637730504777 -0.04367388446195897
0.13236173367822196 -0.1936140906616566 -0.05303235238720973
-0.14480856015780044 -0.16425180530128516 0.05739156205600384
-0.11307496459654935 -0.165469518657894 0.04803309413075308
-0.08134136903529826 -0.16668723201450286 0.03867462620550232
-0.049607773474047163 -0.1679049453711117 0.02931615828025156
-0.01787417791279606 -0.16912265872772056 0.0199576903550008
0.013859417648455045 -0.17034037208432942 0.010599222429750027
0.04559301320970612 -0.17155808544093826 0.0012407545044992667
0.07732660877095722 -0.1727757987975471 -0.008117713420751493
0.10906020433220832 -0.17399351215415595 -0.017476181346002255
0.14079379989345944 -0.1752112255107648 -0.026834649271253015
-0.13637649394256296 -0.14584894015039335 0.08358926517196057
-0.10464289838131187 -0.1470666535070022 0.0742307972467098
-0.07290930282006078 -0.14828436686361104 0.06487232932145905
-0.04117570725880969 -0.1495020802202199 0.05551386139620828
-0.00944211169755858 -0.15071979357682874 0.04615539347095752
0.022291483863692525 -0.1519375069334376 0.036796925545706745
0.0540250794249436 -0.15315522029004647 0.027438457620455988
0.0857586749861947 -0.1543729336466553 0.018079989695205228
0.1174922705474458 -0.15559064700326417 0.008721521769954468
0.14922586610869693 -0.156808360359873 -0.000636946155296293
-0.12794442772732548 -0.12744607499950153 0.10978696828791729
-0.09621083216607439 -0.1286637883561104 0.10042850036266653
-0.0644772366048233 -0.12988150171271923 0.09107003243741577
-0.032743641043572205 -0.1310992150693281 0.081711564512165
-0.0010100454823211 -0.13231692842593692 0.07235309658691425
0.030723550078930004 -0.1335346417825458 0.06299462866166347
0.06245714564018108 -0.13475235513915465 0.05363616073641271
0.09419074120143218 -0.13597006849576349 0.04427769281116195
0.1259243367626833 -0.13718778185237235 0.03491922488591119
0.1576579323239344 -0.13840549520898118 0.025560756960660434
-0.11951236151208801 -0.10904320984860971 0.13598467140387402
-0.0877787659508369 -0.11026092320521856 0.12662620347862324
-0.05604517038958581 -0.11147863656182741 0.1172677355533725
-0.024311574828334723 -0.11269634991843626 0.10790926762812174
0.007422020732916381 -0.11391406327504511 0.09855079970287098
0.039155616294167486 -0.11513177663165397 0.0891923317776202
0.07088921185541856 -0.11634948998826282 0.07983386385236944
0.10262280741666967 -0.11756720334487165 0.07047539592711868
0.13435640297792076 -0.11878491670148052 0.06111692800186792
0.16608999853917186 -0.12000263005808935 0.05175846007661716
-0.11108029529685054 -0.09064034469771791 0.16218237451983072
-0.07934669973559944 -0.09185805805432676 0.15282390659457998
-0.04761310417434834 -0.0930757714109356 0.1434654386693292
-0.015879508613097247 -0.09429348476754446 0.13410697074407846
0.015854086948153857 -0.0955111981241533 0.12474850281882768
0.04758768250940496 -0.09672891148076217 0.11539003489357691
0.07932127807065603 -0.09794662483737102 0.10603156696832615
0.11105487363190714 -0.09916433819397985 0.09667309904307539
0.14278846919315824 -0.10038205155058871 0.08731463111782463
0.17452206475440935 -0.10159976490719755 0.07795616319257387
-0.10264822908161306 -0.07223747954682609 0.18838007763578746
-0.07091463352036195 -0.07345519290343494 0.17902160971053668
-0.039181037959110855 -0.07467290626004379 0.16966314178528594
-0.007447442397859767 -0.07589061961665264 0.16030467386003516
0.024286153163391336 -0.07710833297326149 0.15094620593478442
0.056019748724642444 -0.07832604632987035 0.14158773800953364
0.08775334428589351 -0.0795437596864792 0.13222927008428287
0.11948693984714462 -0.08076147304308803 0.12287080215903212
0.15122053540839572 -0.0819791863996969 0.11351233423378136
0.18295413096964683 -0.08319689975630573 0.1041538663085306
-0.09421616286637557 -0.053834614395934274 0.2145777807517442
-0.06248256730512447 -0.05505232775254312 0.20521931282649342
-0.030748971743873376 -0.05627004110915197 0.19586084490124267
0.0009846238173777135 -0.05748775446576082 0.1865023769759919
0.032718219378628816 -0.05870546782236967 0.17714390905074115
0.06445181493987992 -0.05992318117897853 0.16778544112549038
0.096185410501131 -0.06114089453558738 0.1584269732002396
0.1279190060623821 -0.062358607892196216 0.14906850527498886
0.1596526016236332 -0.06357632124880508 0.13971003734973808
0.1913861971848843 -0.06479403460541391 0.13035156942448733
-0.08578409665113809 -0.035431749245042464 0.2407754838677009
-0.05405050108988699 -0.03664946260165131 0.23141701594245012
-0.0223169055286359 -0.03786717595826016 0.22205854801719938
0.00941669003261519 -0.03908488931486901 0.2127000800919486
0.0411502855938663 -0.04030260267147786 0.20334161216669785
0.0728838811551174 -0.04152031602808672 0.19398314424144708
0.10461747671636848 -0.04273802938469557 0.1846246763161963
0.13635107227761958 -0.043955742741304406 0.17526620839094556
0.1680846678388707 -0.04517345609791327 0.1659077404656948
0.1998182634001218 -0.0463911694545221 0.15654927254044404
-0.1998182634001218 0.0463911694545221 -0.15654927254044404
-0.1680846678388707 0.04517345609791327 -0.1659077404656948
-0.13635107227761958 0.043955742741304406 -0.17526620839094556
-0.10461747671636851 0.04273802938469557 -0.1846246763161963
-0.0728838811551174 0.04152031602808672 -0.19398314424144708
-0.0411502855938663 0.04030260267147786 -0.20334161216669785
-0.009416690032615211 0.03908488931486901 -0.2127000800919486
0.022316905528635887 0.03786717595826016 -0.22205854801719938
0.05405050108988699 0.03664946260165131 -0.23141701594245012
0.08578409665113809 0.035431749245042464 -0.2407754838677009
-0.1913861971848843 0.06479403460541391 -0.13035156942448733
-0.1596526016236332 0.06357632124880508 -0.13971003734973808
-0.12791900606238213 0.062358607892196216 -0.14906850527498886
-0.09618541050113102 0.06114089453558738 -0.1584269732002396
-0.06445181493987992 0.05992318117897853 -0.16778544112549038
-0.032718219378628816 0.05870546782236967 -0.17714390905074115
-0.0009846238173777343 0.05748775446576082 -0.1865023769759919
0.030748971743873362 0.05627004110915197 -0.19586084490124267
0.06248256730512447 0.05505232775254312 -0.20521931282649342
0.09421616286637557 0.053834614395934274 -0.2145777807517442
-0.18295413096964683 0.08319689975630572 -0.1041538663085306
-0.15122053540839572 0.08197918639969688 -0.11351233423378136
-0.11948693984714465 0.08076147304308802 -0.12287080215903212
-0.08775334428589356 0.07954375968647918 -0.1322292700842829
-0.056019748724642444 0.07832604632987034 -0.14158773800953364
-0.02428615316339134 0.07710833297326147 -0.15094620593478442
0.007447442397859743 0.07589061961665262 -0.1603046738600352
0.03918103795911084 0.07467290626004378 -0.16966314178528594
0.07091463352036194 0.07345519290343493 -0.1790216097105367
0.10264822908161304 0.07223747954682608 -0.18838007763578746
-0.17452206475440935 0.10159976490719753 -0.07795616319257388
-0.14278846919315824 0.1003820515505887 -0.08731463111782464
-0.11105487363190716 0.09916433819397984 -0.0966730990430754
-0.07932127807065607 0.097946624837371 -0.10603156696832616
-0.04758768250940497 0.09672891148076215 -0.11539003489357692
-0.01585408694815386 0.09551119812415329 -0.1247485028188277
0.015879508613097223 0.09429348476754444 -0.13410697074407846
0.04761310417434832 0.09307577141093559 -0.14346543866932923
0.07934669973559942 0.09185805805432674 -0.15282390659457998
0.11108029529685053 0.0906403446977179 -0.16218237451983075
-0.16608999853917186 0.12000263005808935 -0.05175846007661716
-0.13435640297792076 0.11878491670148052 -0.06111692800186792
-0.10262280741666968 0.11756720334487165 -0.07047539592711868
-0.07088921185541859 0.11634948998826282 -0.07983386385236944
-0.039155616294167486 0.11513177663165397 -0.0891923317776202
-0.007422020732916381 0.11391406327504511 -0.09855079970287098
0.024311574828334702 0.11269634991843626 -0.10790926762812174
0.0560451703895858 0.11147863656182741 -0.1172677355533725
0.0877787659508369 0.11026092320521856 -0.12662620347862324
0.11951236151208801 0.10904320984860971 -0.13598467140387402
-0.1576579323239344 0.13840549520898118 -0.025560756960660434
-0.1259243367626833 0.13718778185237235 -0.03491922488591119
-0.0941907412014322 0.13597006849576349 -0.04427769281116195
-0.06245714564018111 0.13475235513915465 -0.05363616073641271
-0.030723550078930004 0.1335346417825458 -0.06299462866166347
0.0010100454823211 0.13231692842593692 -0.07235309658691425
0.032743641043572184 0.1310992150693281 -0.081711564512165
0.06447723660482328 0.12988150171271923 -0.09107003243741577
0.09621083216607439 0.1286637883561104 -0.10042850036266653
0.12794442772732548 0.12744607499950153 -0.10978696828791729
-0.14922586610869693 0.15680836035987297 0.0006369461552962765
-0.11749227054744582 0.15559064700326414 -0.008721521769954483
-0.08575867498619473 0.15437293364665527 -0.018079989695205245
-0.05402507942494363 0.15315522029004644 -0.027438457620456005
-0.022291483863692528 0.1519375069334376 -0.036796925545706766
0.009442111697558575 0.15071979357682874 -0.04615539347095754
0.04117570725880966 0.14950208022021988 -0.0555138613962083
0.07290930282006075 0.14828436686361104 -0.06487232932145906
0.10464289838131186 0.14706665350700218 -0.07423079724670982
0.13637649394256296 0.14584894015039335 -0.08358926517196058
-0.14079379989345944 0.1752112255107648 0.026834649271253
-0.10906020433220834 0.17399351215415595 0.01747618134600224
-0.07732660877095725 0.1727757987975471 0.008117713420751483
-0.04559301320970615 0.17155808544093826 -0.0012407545044992776
-0.013859417648455049 0.17034037208432942 -0.010599222429750038
0.017874177912796056 0.16912265872772056 -0.019957690355000814
0.04960777347404714 0.1679049453711117 -0.029316158280251574
0.08134136903529823 0.16668723201450286 -0.038674626205502334
0.11307496459654934 0.165469518657894 -0.048033094130753094
0.14480856015780044 0.16425180530128516 -0.057391562056003854
-0.13236173367822196 0.1936140906616566 0.05303235238720973
-0.10062813811697086 0.19239637730504777 0.04367388446195897
-0.06889454255571976 0.1911786639484389 0.03431541653670821
-0.037160946994468674 0.18996095059183007 0.02495694861145745
-0.005427351433217567 0.18874323723522124 0.015598480686206688
0.026306244128033538 0.18752552387861238 0.006240012760955914
0.05803983968928462 0.18630781052200351 -0.0031184551642948455
0.08977343525053572 0.18509009716539468 -0.012476923089545606
0.12150703081178682 0.18387238380878582 -0.021835391014796365
0.15324062637303792 0.18265467045217698 -0.031193858940047125
-0.12392966746298448 0.21201695581254842 0.07923005550316645
-0.09219607190173337 0.2107992424559396 0.06987158757791569
-0.06046247634048228 0.20958152909933073 0.060513119652664926
-0.028728880779231195 0.2083638157427219 0.051154651727414166
0.0030047147820199097 0.20714610238611303 0.041796183802163406
0.03473831034327102 0.20592838902950417 0.03243771587691263
0.0664719059045221 0.20471067567289533 0.023079247951661868
0.0982055014657732 0.20349296231628647 0.01372078002641111
0.1299390970270243 0.20227524895967763 0.004362312101160349
0.1616726925882754 0.20105753560306877 -0.004996155824090411
-0.1616726925882754 -0.20105753560306877 0.004996155824090411
-0.1299390970270243 -0.20227524895967763 -0.004362312101160349
-0.09820550146577321 -0.20349296231628647 -0.01372078002641111
-0.06647190590452212 -0.20471067567289533 -0.023079247951661868
-0.03473831034327102 -0.20592838902950417 -0.03243771587691263
-0.0030047147820199097 -0.20714610238611303 -0.041796183802163406
0.028728880779231167 -0.2083638157427219 -0.051154651727414166
0.06046247634048227 -0.20958152909933073 -0.060513119652664926
0.09219607190173337 -0.2107992424559396 -0.06987158757791569
0.12392966746298448 -0.21201695581254842 -0.07923005550316645
-0.16591108934514723 -0.17356323504111423 -0.012953336216413409
-0.13417749378389612 -0.1747809483977231 -0.022311804141664168
-0.10244389822264503 -0.17599866175433193 -0.03167027206691493
-0.07071030266139394 -0.1772163751109408 -0.04102873999216569
-0.03897670710014283 -0.17843408846754963 -0.05038720791741645
-0.00724311153889173 -0.1796518018241585 -0.05974567584266722
0.024490484022359354 -0.18086951518076735 -0.06910414376791797
0.05622407958361045 -0.1820872285373762 -0.07846261169316875
0.08795767514486155 -0.18330494189398505 -0.0878210796184195
0.11969127070611266 -0.1845226552505939 -0.09717954754367027
-0.17014948610201905 -0.1460689344791597 -0.03090282825691724
-0.13841589054076794 -0.14728664783576856 -0.04026129618216799
-0.10668229497951685 -0.1485043611923774 -0.049619764107418765
-0.07494869941826576 -0.14972207454898626 -0.05897823203266952
-0.04321510385701465 -0.1509397879055951 -0.06833669995792029
-0.01148150829576355 -0.15215750126220395 -0.07769516788317105
0.020252087265487533 -0.15337521461881282 -0.0870536358084218
0.05198568282673863 -0.15459292797542165 -0.09641210373367257
0.08371927838798973 -0.15581064133203051 -0.10577057165892333
0.11545287394924084 -0.15702835468863935 -0.11512903958417409
-0.17438788285889087 -0.11857463391720516 -0.048852320297421065
-0.14265428729763976 -0.119792347273814 -0.058210788222671825
-0.11092069173638867 -0.12101006063042287 -0.06756925614792259
-0.07918709617513758 -0.12222777398703172 -0.07692772407317335
-0.04745350061388647 -0.12344548734364057 -0.0862861919984241
-0.01571990505263537 -0.12466320070024942 -0.09564465992367488
0.016013690508615713 -0.12588091405685825 -0.10500312784892564
0.04774728606986681 -0.1270986274134671 -0.1143615957741764
0.07948088163111791 -0.12831634077007598 -0.12372006369942716
0.11121447719236902 -0.1295340541266848 -0.13307853162467792
-0.1786262796157627 -0.0910803333552506 -0.0668018123379249
-0.14689268405451159 -0.09229804671185945 -0.07616028026317566
-0.1151590884932605 -0.0935157600684683 -0.08551874818842642
-0.0834254929320094 -0.09473347342507717 -0.09487721611367718
-0.0516918973707583 -0.09595118678168602 -0.10423568403892794
-0.01995830180950719 -0.09716890013829486 -0.1135941519641787
0.011775293751743892 -0.09838661349490371 -0.12295261988942946
0.043508889312994986 -0.09960432685151256 -0.13231108781468023
0.07524248487424609 -0.10082204020812141 -0.14166955573993098
0.1069760804354972 -0.10203975356473026 -0.15102802366518175
-0.1828646763726345 -0.06358603279329605 -0.08475130437842873
-0.1511310808113834 -0.0648037461499049 -0.09410977230367949
-0.11939748525013232 -0.06602145950651375 -0.10346824022893025
-0.08766388968888122 -0.06723917286312261 -0.11282670815418101
-0.05593029412763012 -0.06845688621973146 -0.12218517607943177
-0.024196698566379012 -0.06967459957634031 -0.13154364400468255
0.007536896994872071 -0.07089231293294916 -0.1409021119299333
0.039270492556123165 -0.07211002628955801 -0.15026057985518407
0.07100408811737427 -0.07332773964616686 -0.15961904778043481
0.10273768367862537 -0.07454545300277571 -0.1689775157056856
-0.18710307312950633 -0.036091732231341524 -0.10270079641893255
-0.15536947756825523 -0.03730944558795037 -0.11205926434418331
-0.12363588200700414 -0.03852715894455922 -0.12141773226943407
-0.09190228644575305 -0.03974487230116808 -0.13077620019468483
-0.06016869088450194 -0.040962585657776926 -0.1401346681199356
-0.028435095323250833 -0.042180299014385775 -0.14949313604518635
0.0032985002380002504 -0.043398012370994624 -0.15885160397043713
0.035032095799251345 -0.04461572572760347 -0.16821007189568787
0.06676569136050245 -0.04583343908421233 -0.17756853982093865
0.09849928692175355 -0.04705115244082118 -0.1869270077461894
-0.19134146988637815 -0.008597431669386974 -0.12065028845943639
-0.15960787432512705 -0.009815145025995823 -0.13000875638468715
-0.12787427876387594 -0.011032858382604671 -0.1393672243099379
-0.09614068320262487 -0.01225057173921352 -0.14872569223518867
-0.06440708764137376 -0.013468285095822369 -0.15808416016043944
-0.03267349208012266 -0.014685998452431232 -0.1674426280856902
-0.0009398965188715702 -0.015903711809040082 -0.17680109601094096
0.030793699042379528 -0.01712142516564893 -0.1861595639361917
0.06252729460363063 -0.01833913852225778 -0.19551803186144248
0.09426089016488173 -0.01955685187886663 -0.20487649978669323
-0.19557986664324997 0.018896868892567576 -0.1385997804999402
-0.16384627108199887 0.017679155535958727 -0.14795824842519098
-0.13211267552074776 0.01646144217934988 -0.15731671635044173
-0.10037907995949669 0.015243728822741031 -0.1666751842756925
-0.06864548439824558 0.014026015466132183 -0.17603365220094327
-0.03691188883699448 0.01280830210952332 -0.18539212012619402
-0.00517829327574339 0.011590588752914471 -0.19475058805144477
0.026555302285507707 0.010372875396305622 -0.20410905597669554
0.05828889784675881 0.009155162039696773 -0.21346752390194632
0.09002249340800991 0.007937448683087924 -0.22282599182719706
-0.1998182634001218 0.0463911694545221 -0.15654927254044404
-0.1680846678388707 0.04517345609791327 -0.1659077404656948
-0.13635107227761958 0.043955742741304406 -0.17526620839094556
-0.10461747671636851 0.04273802938469557 -0.1846246763161963
-0.0728838811551174 0.04152031602808672 -0.19398314424144708
-0.0411502855938663 0.04030260267147786 -0.20334161216669785
-0.009416690032615211 0.03908488931486901 -0.2127000800919486
0.022316905528635887 0.03786717595826016 -0.22205854801719938
0.05405050108988699 0.03664946260165131 -0.23141701594245012
0.08578409665113809 0.035431749245042464 -0.2407754838677009
-0.08578409665113809 -0.035431749245042464 0.2407754838677009
-0.05405050108988699 -0.03664946260165131 0.23141701594245012
-0.0223169055286359 -0.03786717595826016 0.22205854801719938
0.00941669003261519 -0.03908488931486901 0.2127000800919486
0.0411502855938663 -0.04030260267147786 0.20334161216669785
0.0728838811551174 -0.04152031602808672 0.19398314424144708
0.10461747671636848 -0.04273802938469557 0.1846246763161963
0.13635107227761958 -0.043955742741304406 0.17526620839094556
0.1680846678388707 -0.04517345609791327 0.1659077404656948
0.1998182634001218 -0.0463911694545221 0.15654927254044404
-0.09002249340800991 -0.007937448683087924 0.22282599182719706
-0.05828889784675881 -0.009155162039696773 0.21346752390194632
-0.02655530228550772 -0.010372875396305622 0.20410905597669554
0.00517829327574337 -0.011590588752914471 0.1947505880514448
0.03691188883699448 -0.01280830210952332 0.18539212012619402
0.06864548439824558 -0.014026015466132183 0.17603365220094327
0.10037907995949666 -0.015243728822741031 0.1666751842756925
0.13211267552074776 -0.01646144217934988 0.15731671635044173
0.16384627108199887 -0.017679155535958727 0.14795824842519098
0.19557986664324997 -0.018896868892567576 0.1385997804999402
-0.09426089016488173 0.019556851878866615 0.20487649978669323
-0.06252729460363063 0.018339138522257766 0.19551803186144248
-0.03079369904237954 0.017121425165648917 0.1861595639361917
0.0009398965188715494 0.01590371180904007 0.17680109601094096
0.03267349208012266 0.014685998452431218 0.1674426280856902
0.06440708764137376 0.013468285095822355 0.15808416016043944
0.09614068320262484 0.012250571739213506 0.14872569223518867
0.12787427876387594 0.011032858382604658 0.13936722430993792
0.15960787432512705 0.009815145025995809 0.13000875638468715
0.19134146988637815 0.00859743166938696 0.12065028845943639
-0.09849928692175355 0.047051152440821156 0.18692700774618942
-0.06676569136050245 0.04583343908421231 0.17756853982093865
-0.03503209579925136 0.04461572572760345 0.1682100718956879
-0.003298500238000271 0.0433980123709946 0.15885160397043713
0.028435095323250836 0.042180299014385754 0.14949313604518638
0.06016869088450194 0.040962585657776905 0.1401346681199356
0.09190228644575302 0.039744872301168056 0.13077620019468486
0.12363588200700412 0.03852715894455921 0.12141773226943409
0.15536947756825523 0.03730944558795035 0.11205926434418333
0.18710307312950633 0.0360917322313415 0.10270079641893257
-0.10273768367862537 0.07454545300277571 0.1689775157056856
-0.07100408811737427 0.07332773964616686 0.15961904778043481
-0.03927049255612318 0.07211002628955801 0.15026057985518407
-0.007536896994872092 0.07089231293294916 0.1409021119299333
0.024196698566379012 0.06967459957634031 0.13154364400468255
0.05593029412763012 0.06845688621973146 0.12218517607943177
0.0876638896888812 0.06723917286312261 0.11282670815418101
0.1193974852501323 0.06602145950651375 0.10346824022893025
0.1511310808113834 0.0648037461499049 0.09410977230367949
0.1828646763726345 0.06358603279329605 0.08475130437842873
-0.1069760804354972 0.10203975356473026 0.15102802366518175
-0.07524248487424609 0.10082204020812141 0.14166955573993098
-0.043508889312995 0.09960432685151256 0.13231108781468023
-0.011775293751743913 0.09838661349490371 0.12295261988942947
0.01995830180950719 0.09716890013829486 0.1135941519641787
0.0516918973707583 0.09595118678168602 0.10423568403892794
0.08342549293200938 0.09473347342507717 0.09487721611367718
0.11515908849326048 0.0935157600684683 0.08551874818842642
0.14689268405451159 0.09229804671185945 0.07616028026317566
0.1786262796157627 0.0910803333552506 0.0668018123379249
-0.11121447719236902 0.12953405412668478 0.13307853162467792
-0.07948088163111791 0.12831634077007595 0.12372006369942717
-0.04774728606986682 0.12709862741346709 0.11436159577417641
-0.016013690508615733 0.12588091405685825 0.10500312784892565
0.01571990505263537 0.12466320070024939 0.09564465992367488
0.04745350061388648 0.12344548734364054 0.08628619199842412
0.07918709617513756 0.12222777398703169 0.07692772407317336
0.11092069173638866 0.12101006063042284 0.0675692561479226
0.14265428729763976 0.11979234727381399 0.05821078822267184
0.17438788285889087 0.11857463391720514 0.04885232029742108
-0.11545287394924084 0.15702835468863935 0.1151290395841741
-0.08371927838798973 0.1558106413320305 0.10577057165892334
-0.05198568282673864 0.15459292797542165 0.09641210373367258
-0.020252087265487554 0.1533752146188128 0.08705363580842182
0.01148150829576355 0.15215750126220395 0.07769516788317105
0.04321510385701466 0.1509397879055951 0.06833669995792029
0.07494869941826574 0.14972207454898623 0.05897823203266953
0.10668229497951684 0.1485043611923774 0.049619764107418765
0.13841589054076794 0.14728664783576853 0.040261296182168005
0.17014948610201905 0.1460689344791597 0.03090282825691724
-0.11969127070611266 0.1845226552505939 0.09717954754367027
-0.08795767514486155 0.18330494189398505 0.0878210796184195
-0.05622407958361046 0.1820872285373762 0.07846261169316875
-0.024490484022359375 0.18086951518076735 0.06910414376791799
0.00724311153889173 0.1796518018241585 0.05974567584266722
0.03897670710014283 0.17843408846754963 0.05038720791741645
0.07071030266139391 0.1772163751109408 0.041028739992165705
0.10244389822264502 0.17599866175433193 0.03167027206691493
0.13417749378389612 0.1747809483977231 0.022311804141664168
0.16591108934514723 0.17356323504111423 0.012953336216413409
-0.12392966746298448 0.21201695581254842 0.07923005550316645
-0.09219607190173337 0.2107992424559396 0.06987158757791569
-0.06046247634048228 0.20958152909933073 0.060513119652664926
-0.028728880779231195 0.2083638157427219 0.051154651727414166
0.0030047147820199097 0.20714610238611303 0.041796183802163406
0.03473831034327102 0.20592838902950417 0.03243771587691263
0.0664719059045221 0.20471067567289533 0.023079247951661868
0.0982055014657732 0.20349296231628647 0.01372078002641111
0.1299390970270243 0.20227524895967763 0.004362312101160349
0.1616726925882754 0.20105753560306877 -0.004996155824090411
