# .PCD v0.7 - Point Cloud Data file format
VERSION 0.7
FIELDS x y z
SIZE 4 4 4
TYPE F F F
COUNT 1 1 1
WIDTH 600
HEIGHT 1
VIEWPOINT 0 0 0 1 0 0 0
POINTS 600
DATA ascii
-0.17254528657581356 -0.16944494286677467 -0.03027915232987396
-0.1773023563188457 -0.13854350523783168 -0.030783154810135476
-0.18205942606187786 -0.10764206760888868 -0.03128715729039698
-0.18681649580491 -0.07674062997994568 -0.031791159770658495
-0.19157356554794214 -0.045839192351002686 -0.03229516225092001
-0.19633063529097428 -0.014937754722059687 -0.03279916473118151
-0.20108770503400644 0.01596368290688329 -0.033303167211443024
-0.20584477477703858 0.0468651205358263 -0.03380716969170454
-0.21060184452007072 0.07776655816476931 -0.03431117217196604
-0.21535891426310286 0.10866799579371227 -0.034815174652227554
-0.15462325857703815 -0.1662712588405306 -0.004852567409985311
-0.1593803283200703 -0.1353698212115876 -0.005356569890246825
-0.16413739806310246 -0.10446838358264464 -0.005860572370508326
-0.1688944678061346 -0.07356694595370164 -0.0063645748507698404
-0.17365153754916673 -0.042665508324758634 -0.006868577331031355
-0.17840860729219887 -0.011764070695815637 -0.007372579811292856
-0.18316567703523104 0.01913736693312734 -0.007876582291554371
-0.18792274677826318 0.050038804562070355 -0.008380584771815885
-0.19267981652129532 0.08094024219101335 -0.008884587252077386
-0.19743688626432745 0.11184167981995631 -0.0093885897323389
-0.13670123057826275 -0.16309757481428655 0.020574017509903342
-0.1414583003212949 -0.13219613718534357 0.020070015029641827
-0.14621537006432705 -0.10129469955640058 0.019566012549380327
-0.1509724398073592 -0.07039326192745758 0.019062010069118812
-0.15572950955039133 -0.03949182429851458 0.018558007588857298
-0.16048657929342347 -0.008590386669571588 0.018054005108595797
-0.16524364903645564 0.02231105095937139 0.017550002628334282
-0.17000071877948777 0.053212488588314406 0.017046000148072768
-0.1747577885225199 0.08411392621725741 0.016541997667811267
-0.17951485826555205 0.11501536384620037 0.016037995187549753
-0.11877920257948735 -0.1599238907880425 0.046000602429792
-0.12353627232251949 -0.12902245315909952 0.04549659994953049
-0.12829334206555162 -0.09812101553015654 0.04499259746926899
-0.13305041180858376 -0.06721957790121354 0.04448859498900747
-0.13780748155161593 -0.03631814027227053 0.04398459250874596
-0.14256455129464807 -0.005416702643327536 0.04348059002848446
-0.1473216210376802 0.025484734985615442 0.04297658754822294
-0.15207869078071234 0.05638617261455846 0.04247258506796143
-0.15683576052374448 0.08728761024350146 0.04196858258769993
-0.16159283026677662 0.11818904787244441 0.04146458010743841
-0.10085717458071193 -0.15675020676179846 0.07142718734968066
-0.10561424432374407 -0.12584876913285548 0.07092318486941915
-0.11037131406677622 -0.09494733150391248 0.07041918238915765
-0.11512838380980836 -0.06404589387496948 0.06991517990889613
-0.11988545355284051 -0.03314445624602648 0.06941117742863462
-0.12464252329587265 -0.0022430186170834844 0.06890717494837312
-0.1293995930389048 0.028658419011859494 0.0684031724681116
-0.13415666278193694 0.05955985664080251 0.06789916998785009
-0.13891373252496908 0.09046129426974552 0.06739516750758859
-0.14367080226800122 0.12136273189868847 0.06689116502732707
-0.08293514658193653 -0.1535765227355544 0.09685377226956933
-0.08769221632496867 -0.12267508510661142 0.09634976978930782
-0.09244928606800082 -0.09177364747766843 0.09584576730904631
-0.09720635581103296 -0.060872209848725434 0.0953417648287848
-0.10196342555406511 -0.02997077221978243 0.09483776234852329
-0.10672049529709725 0.0009306654091605672 0.09433375986826179
-0.1114775650401294 0.03183210303810354 0.09382975738800027
-0.11623463478316154 0.06273354066704656 0.09332575490773876
-0.12099170452619368 0.09363497829598956 0.09282175242747726
-0.12574877426922582 0.12453641592493252 0.09231774994721574
-0.06501311858316113 -0.15040283870931034 0.12228035718945797
-0.06977018832619326 -0.11950140108036736 0.12177635470919645
-0.07452725806922542 -0.08859996345142437 0.12127235222893495
-0.07928432781225755 -0.05769852582248138 0.12076834974867344
-0.0840413975552897 -0.026797088193538383 0.12026434726841193
-0.08879846729832185 0.004104349435404617 0.11976034478815042
-0.093555537041354 0.03500578706434759 0.11925634230788891
-0.09831260678438614 0.0659072246932906 0.1187523398276274
-0.10306967652741827 0.09680866232223362 0.1182483373473659
-0.10782674627045041 0.12771009995117658 0.11774433486710438
-0.04709109058438571 -0.1472291546830663 0.14770694210934665
-0.05184816032741785 -0.11632771705412331 0.14720293962908512
-0.05660523007045 -0.08542627942518033 0.14669893714882362
-0.06136229981348214 -0.05452484179623733 0.14619493466856212
-0.06611936955651429 -0.02362340416729433 0.1456909321883006
-0.07087643929954643 0.007278033461648669 0.1451869297080391
-0.07563350904257858 0.038179471090591645 0.1446829272277776
-0.08039057878561072 0.06908090871953466 0.14417892474751606
-0.08514764852864286 0.09998234634847766 0.14367492226725456
-0.089904718271675 0.13088378397742062 0.14317091978699306
-0.0291690625856103 -0.14405547065682225 0.1731335270292353
-0.03392613232864244 -0.11315403302787926 0.1726295245489738
-0.03868320207167459 -0.08225259539893627 0.1721255220687123
-0.04344027181470673 -0.05135115776999328 0.17162151958845076
-0.04819734155773888 -0.020449720141050277 0.17111751710818926
-0.05295441130077102 0.01045171748789272 0.17061351462792776
-0.05771148104380317 0.041353155116835696 0.17010951214766623
-0.06246855078683531 0.07225459274577871 0.16960550966740473
-0.06722562052986744 0.10315603037472172 0.16910150718714323
-0.07198269027289958 0.13405746800366466 0.1685975047068817
-0.011247034586834894 -0.14088178663057818 0.19856011194912396
-0.016004104329867035 -0.10998034900163521 0.19805610946886243
-0.020761174072899187 -0.07907891137269223 0.19755210698860093
-0.025518243815931325 -0.04817747374374923 0.19704810450833943
-0.030275313558963478 -0.01727603611480623 0.1965441020280779
-0.035032383301995616 0.01362540151413677 0.1960400995478164
-0.03978945304502777 0.04452683914307975 0.1955360970675549
-0.04454652278805991 0.07542827677202277 0.19503209458729337
-0.049303592531092046 0.10632971440096577 0.19452809210703187
-0.054060662274124184 0.13723115202990874 0.19402408962677037
0.054060662274124184 -0.13723115202990874 -0.19402408962677037
0.049303592531092046 -0.10632971440096577 -0.19452809210703187
0.04454652278805991 -0.07542827677202278 -0.19503209458729337
0.03978945304502777 -0.04452683914307977 -0.1955360970675549
0.035032383301995616 -0.01362540151413677 -0.1960400995478164
0.030275313558963478 0.01727603611480623 -0.1965441020280779
0.025518243815931325 0.048177473743749206 -0.19704810450833943
0.020761174072899187 0.07907891137269223 -0.19755210698860093
0.016004104329867035 0.10998034900163521 -0.19805610946886243
0.011247034586834894 0.14088178663057818 -0.19856011194912396
0.07198269027289958 -0.13405746800366466 -0.1685975047068817
0.06722562052986744 -0.10315603037472172 -0.16910150718714323
0.06246855078683531 -0.07225459274577872 -0.16960550966740473
0.05771148104380317 -0.04135315511683572 -0.17010951214766623
0.05295441130077102 -0.01045171748789272 -0.17061351462792776
0.04819734155773888 0.020449720141050277 -0.17111751710818926
0.04344027181470673 0.05135115776999326 -0.17162151958845076
0.03868320207167459 0.08225259539893627 -0.1721255220687123
0.03392613232864244 0.11315403302787926 -0.1726295245489738
0.0291690625856103 0.14405547065682225 -0.1731335270292353
0.08990471827167498 -0.13088378397742062 -0.14317091978699306
0.08514764852864284 -0.09998234634847766 -0.1436749222672546
0.0803905787856107 -0.06908090871953468 -0.1441789247475161
0.07563350904257857 -0.038179471090591666 -0.1446829272277776
0.07087643929954641 -0.00727803346164867 -0.14518692970803912
0.06611936955651428 0.02362340416729433 -0.14569093218830062
0.06136229981348213 0.05452484179623731 -0.14619493466856212
0.05660523007044999 0.08542627942518033 -0.14669893714882365
0.05184816032741784 0.11632771705412331 -0.14720293962908515
0.0470910905843857 0.1472291546830663 -0.14770694210934665
0.1078267462704504 -0.12771009995117658 -0.1177443348671044
0.10306967652741826 -0.09680866232223362 -0.11824833734736591
0.09831260678438612 -0.06590722469329062 -0.11875233982762741
0.09355553704135398 -0.035005787064347614 -0.11925634230788892
0.08879846729832183 -0.004104349435404619 -0.11976034478815044
0.08404139755528969 0.02679708819353838 -0.12026434726841194
0.07928432781225754 0.05769852582248136 -0.12076834974867345
0.0745272580692254 0.08859996345142437 -0.12127235222893497
0.06977018832619325 0.11950140108036736 -0.12177635470919647
0.06501311858316111 0.15040283870931034 -0.12228035718945798
0.12574877426922582 -0.12453641592493252 -0.09231774994721574
0.12099170452619368 -0.09363497829598956 -0.09282175242747726
0.11623463478316154 -0.06273354066704658 -0.09332575490773876
0.1114775650401294 -0.03183210303810356 -0.09382975738800027
0.10672049529709725 -0.0009306654091605672 -0.09433375986826179
0.10196342555406511 0.02997077221978243 -0.09483776234852329
0.09720635581103296 0.06087220984872541 -0.0953417648287848
0.09244928606800082 0.09177364747766843 -0.09584576730904631
0.08769221632496867 0.12267508510661142 -0.09634976978930782
0.08293514658193653 0.1535765227355544 -0.09685377226956933
0.14367080226800122 -0.12136273189868847 -0.06689116502732707
0.13891373252496908 -0.09046129426974552 -0.06739516750758859
0.13415666278193694 -0.05955985664080252 -0.06789916998785009
0.1293995930389048 -0.028658419011859514 -0.0684031724681116
0.12464252329587265 0.0022430186170834844 -0.06890717494837312
0.11988545355284051 0.03314445624602648 -0.06941117742863462
0.11512838380980836 0.06404589387496946 -0.06991517990889613
0.11037131406677622 0.09494733150391248 -0.07041918238915765
0.10561424432374407 0.12584876913285548 -0.07092318486941915
0.10085717458071193 0.15675020676179846 -0.07142718734968066
0.16159283026677662 -0.11818904787244441 -0.041464580107438434
0.15683576052374448 -0.08728761024350146 -0.04196858258769995
0.15207869078071234 -0.05638617261455847 -0.04247258506796145
0.1473216210376802 -0.025484734985615466 -0.042976587548222964
0.14256455129464807 0.005416702643327534 -0.04348059002848448
0.13780748155161593 0.03631814027227053 -0.04398459250874598
0.13305041180858376 0.06721957790121351 -0.04448859498900749
0.12829334206555162 0.09812101553015654 -0.04499259746926901
0.12353627232251947 0.12902245315909952 -0.04549659994953051
0.11877920257948733 0.1599238907880425 -0.04600060242979202
0.17951485826555202 -0.11501536384620037 -0.016037995187549763
0.17475778852251989 -0.08411392621725741 -0.016541997667811278
0.17000071877948775 -0.05321248858831442 -0.01704600014807278
0.1652436490364556 -0.02231105095937141 -0.017550002628334293
0.16048657929342347 0.008590386669571586 -0.018054005108595807
0.15572950955039133 0.03949182429851458 -0.018558007588857308
0.15097243980735917 0.07039326192745757 -0.019062010069118823
0.14621537006432703 0.10129469955640058 -0.019566012549380337
0.1414583003212949 0.13219613718534357 -0.020070015029641838
0.13670123057826275 0.16309757481428655 -0.020574017509903352
0.19743688626432745 -0.11184167981995631 0.0093885897323389
0.19267981652129532 -0.08094024219101335 0.008884587252077386
0.18792274677826318 -0.05003880456207037 0.008380584771815885
0.18316567703523104 -0.01913736693312736 0.007876582291554371
0.17840860729219887 0.011764070695815637 0.007372579811292856
0.17365153754916673 0.042665508324758634 0.006868577331031355
0.1688944678061346 0.07356694595370161 0.0063645748507698404
0.16413739806310246 0.10446838358264464 0.005860572370508326
0.1593803283200703 0.1353698212115876 0.005356569890246825
0.15462325857703815 0.1662712588405306 0.004852567409985311
0.21535891426310286 -0.10866799579371227 0.034815174652227554
0.21060184452007072 -0.07776655816476931 0.03431117217196604
0.20584477477703858 -0.04686512053582632 0.03380716969170454
0.20108770503400644 -0.01596368290688331 0.033303167211443024
0.19633063529097428 0.014937754722059687 0.03279916473118151
0.19157356554794214 0.045839192351002686 0.03229516225092001
0.18681649580491 0.07674062997994567 0.031791159770658495
0.18205942606187786 0.10764206760888868 0.03128715729039698
0.1773023563188457 0.13854350523783168 0.030783154810135476
0.17254528657581356 0.16944494286677467 0.03027915232987396
-0.17254528657581356 -0.16944494286677467 -0.03027915232987396
-0.14736684781470938 -0.16586563277378955 -0.04847303425175134
-0.12218840905360519 -0.16228632268080445 -0.0666669161736287
-0.09700997029250098 -0.15870701258781936 -0.08486079809550609
-0.07183153153139678 -0.15512770249483426 -0.10305468001738347
-0.04665309277029258 -0.15154839240184914 -0.12124856193926085
-0.021474654009188396 -0.14796908230886405 -0.13944244386113822
0.003703784751915815 -0.14438977221587895 -0.15763632578301562
0.028882223513020007 -0.14081046212289386 -0.175830207704893
0.054060662274124184 -0.13723115202990874 -0.19402408962677037
-0.15462325857703815 -0.1662712588405306 -0.004852567409985311
-0.12944481981593398 -0.16269194874754547 -0.023046449331862687
-0.10426638105482978 -0.15911263865456038 -0.041240331253740055
-0.07908794229372558 -0.15553332856157528 -0.05943421317561744
-0.05390950353262138 -0.1519540184685902 -0.07762809509749483
-0.028731064771517177 -0.14837470837560507 -0.0958219770193722
-0.0035526260104129935 -0.14479539828261997 -0.11401585894124958
0.02162581275069122 -0.14121608818963488 -0.13220974086312695
0.04680425151179541 -0.1376367780966498 -0.15040362278500433
0.07198269027289958 -0.13405746800366466 -0.1685975047068817
-0.13670123057826275 -0.16309757481428655 0.020574017509903342
-0.11152279181715857 -0.15951826472130143 0.0023801355880259654
-0.08634435305605438 -0.15593895462831633 -0.0158137463338514
-0.06116591429495018 -0.15235964453533124 -0.03400762825572878
-0.03598747553384598 -0.14878033444234615 -0.052201510177606165
-0.010809036772741774 -0.14520102434936102 -0.07039539209948355
0.01436940198836241 -0.14162171425637593 -0.08858927402136092
0.03954784074946662 -0.13804240416339084 -0.10678315594323831
0.0647262795105708 -0.13446309407040574 -0.12497703786511569
0.08990471827167498 -0.13088378397742062 -0.14317091978699306
-0.11877920257948735 -0.1599238907880425 0.046000602429792
-0.09360076381838316 -0.15634458069505738 0.027806720507914627
-0.06842232505727897 -0.1527652706020723 0.009612838586037259
-0.04324388629617477 -0.1491859605090872 -0.008581043335840123
-0.018065447535070566 -0.1456066504161021 -0.026774925257717505
0.007112991226033636 -0.14202734032311698 -0.04496880717959489
0.03229142998713782 -0.13844803023013189 -0.06316268910147226
0.05746986874824203 -0.1348687201371468 -0.08135657102334964
0.08264830750934622 -0.1312894100441617 -0.09955045294522702
0.1078267462704504 -0.12771009995117658 -0.1177443348671044
-0.10085717458071193 -0.15675020676179846 0.07142718734968066
-0.07567873581960774 -0.15317089666881334 0.05323330542780329
-0.050500297058503556 -0.14959158657582824 0.03503942350592592
-0.025321858297399354 -0.14601227648284315 0.01684554158404854
-0.00014341953629515538 -0.14243296638985806 -0.001348340337828844
0.02503501922480905 -0.13885365629687293 -0.019542222259706227
0.05021345798591323 -0.13527434620388784 -0.0377361041815836
0.07539189674701745 -0.13169503611090275 -0.05592998610346099
0.10057033550812164 -0.12811572601791765 -0.07412386802533837
0.12574877426922582 -0.12453641592493252 -0.09231774994721574
-0.08293514658193653 -0.1535765227355544 0.09685377226956933
-0.05775670782083233 -0.14999721264256927 0.07865989034769195
-0.03257826905972814 -0.14641790254958417 0.06046600842581459
-0.007399830298623944 -0.14283859245659908 0.042272126503937205
0.017778608462480257 -0.13925928236361398 0.02407824458205982
0.04295704722358446 -0.13567997227062886 0.005884362660182436
0.06813548598468865 -0.13210066217764377 -0.012309519261694936
0.09331392474579285 -0.12852135208465867 -0.030503401183572327
0.11849236350689704 -0.1249420419916736 -0.0486972831054497
0.14367080226800122 -0.12136273189868847 -0.06689116502732707
-0.06501311858316113 -0.15040283870931034 0.12228035718945797
-0.039834679822056934 -0.14682352861632522 0.1040864752675806
-0.014656241060952743 -0.14324421852334013 0.08589259334570323
0.010522197700151455 -0.13966490843035503 0.06769871142382584
0.03570063646125565 -0.13608559833736994 0.04950482950194846
0.06087907522235986 -0.13250628824438482 0.03131094758007108
0.08605751398346405 -0.12892697815139972 0.013117065658193709
0.11123595274456825 -0.12534766805841463 -0.00507681626368368
0.13641439150567244 -0.12176835796542954 -0.023270698185561055
0.16159283026677662 -0.11818904787244441 -0.041464580107438434
-0.04709109058438571 -0.1472291546830663 0.14770694210934665
-0.021912651823281518 -0.14364984459008118 0.12951306018746928
0.0032657869378226725 -0.14007053449709608 0.1113191782655919
0.02844422569892687 -0.136491224404111 0.09312529634371451
0.05362266446003107 -0.1329119143111259 0.07493141442183714
0.07880110322113527 -0.12933260421814077 0.05673753249995975
0.10397954198223945 -0.12575329412515568 0.03854365057808238
0.12915798074334367 -0.12217398403217059 0.020349768656204987
0.15433641950444785 -0.11859467393918549 0.0021558867343276123
0.17951485826555202 -0.11501536384620037 -0.016037995187549763
-0.0291690625856103 -0.14405547065682225 0.1731335270292353
-0.003990623824506107 -0.14047616056383713 0.15493964510735792
0.021187814936598083 -0.13689685047085204 0.13674576318548057
0.04636625369770228 -0.13331754037786694 0.11855188126360318
0.07154469245880649 -0.12973823028488185 0.10035799934172579
0.09672313121991069 -0.12615892019189673 0.08216411741984841
0.12190156998101487 -0.12257961009891162 0.06397023549797104
0.14708000874211907 -0.11900030000592653 0.04577635357609365
0.17225844750322328 -0.11542098991294143 0.027582471654216276
0.19743688626432745 -0.11184167981995631 0.0093885897323389
-0.011247034586834894 -0.14088178663057818 0.19856011194912396
0.013931404174269297 -0.13730247653759306 0.18036623002724658
0.039109842935373486 -0.13372316644460797 0.1621723481053692
0.06428828169647768 -0.13014385635162287 0.14397846618349183
0.08946672045758189 -0.12656454625863778 0.12578458426161446
0.1146451592186861 -0.12298523616565267 0.10759070233973707
0.13982359797979027 -0.11940592607266758 0.0893968204178597
0.16500203674089448 -0.11582661597968248 0.0712029384959823
0.19018047550199868 -0.11224730588669739 0.05300905657410493
0.21535891426310286 -0.10866799579371227 0.034815174652227554
-0.21535891426310286 0.10866799579371227 -0.034815174652227554
-0.19018047550199868 0.11224730588669739 -0.05300905657410493
-0.16500203674089448 0.11582661597968248 -0.07120293849598229
-0.1398235979797903 0.11940592607266758 -0.08939682041785968
-0.1146451592186861 0.12298523616565267 -0.10759070233973707
-0.08946672045758189 0.12656454625863778 -0.12578458426161446
-0.0642882816964777 0.13014385635162287 -0.1439784661834918
-0.039109842935373486 0.13372316644460797 -0.1621723481053692
-0.013931404174269297 0.13730247653759306 -0.18036623002724658
0.011247034586834894 0.14088178663057818 -0.19856011194912396
-0.19743688626432745 0.11184167981995631 -0.0093885897323389
-0.17225844750322328 0.11542098991294143 -0.027582471654216276
-0.14708000874211907 0.11900030000592653 -0.045776353576093644
-0.12190156998101488 0.12257961009891162 -0.06397023549797103
-0.09672313121991069 0.12615892019189673 -0.08216411741984841
-0.07154469245880649 0.12973823028488185 -0.10035799934172579
-0.046366253697702295 0.13331754037786694 -0.11855188126360316
-0.021187814936598083 0.13689685047085204 -0.13674576318548054
0.003990623824506107 0.14047616056383713 -0.15493964510735792
0.0291690625856103 0.14405547065682225 -0.1731335270292353
-0.17951485826555205 0.11501536384620037 0.016037995187549753
-0.15433641950444787 0.11859467393918549 -0.0021558867343276235
-0.12915798074334367 0.12217398403217059 -0.02034976865620499
-0.10397954198223948 0.12575329412515568 -0.03854365057808237
-0.07880110322113529 0.12933260421814077 -0.05673753249995976
-0.053622664460031076 0.1329119143111259 -0.07493141442183714
-0.028444225698926892 0.136491224404111 -0.09312529634371451
-0.0032657869378226803 0.14007053449709608 -0.1113191782655919
0.02191265182328151 0.14364984459008118 -0.12951306018746928
0.0470910905843857 0.1472291546830663 -0.14770694210934665
-0.16159283026677662 0.11818904787244441 0.04146458010743841
-0.13641439150567244 0.12176835796542954 0.023270698185561038
-0.11123595274456827 0.12534766805841463 0.005076816263683671
-0.08605751398346406 0.12892697815139972 -0.013117065658193712
-0.06087907522235987 0.13250628824438482 -0.0313109475800711
-0.035700636461255666 0.13608559833736994 -0.04950482950194848
-0.01052219770015148 0.13966490843035503 -0.06769871142382584
0.014656241060952731 0.14324421852334013 -0.08589259334570323
0.03983467982205692 0.14682352861632522 -0.10408647526758061
0.06501311858316111 0.15040283870931034 -0.12228035718945798
-0.14367080226800122 0.12136273189868847 0.06689116502732707
-0.11849236350689704 0.1249420419916736 0.0486972831054497
-0.09331392474579285 0.12852135208465867 0.030503401183572334
-0.06813548598468866 0.13210066217764377 0.01230951926169495
-0.04295704722358446 0.13567997227062886 -0.005884362660182436
-0.017778608462480257 0.13925928236361398 -0.02407824458205982
0.00739983029862393 0.14283859245659908 -0.04227212650393719
0.03257826905972814 0.14641790254958417 -0.06046600842581458
0.05775670782083233 0.14999721264256927 -0.07865989034769195
0.08293514658193653 0.1535765227355544 -0.09685377226956933
-0.12574877426922582 0.12453641592493252 0.09231774994721574
-0.10057033550812164 0.12811572601791765 0.07412386802533837
-0.07539189674701745 0.13169503611090275 0.055929986103461
-0.05021345798591324 0.13527434620388784 0.037736104181583616
-0.02503501922480905 0.13885365629687293 0.019542222259706227
0.00014341953629515538 0.14243296638985806 0.001348340337828844
0.02532185829739934 0.14601227648284315 -0.016845541584048527
0.050500297058503556 0.14959158657582824 -0.03503942350592591
0.07567873581960774 0.15317089666881334 -0.05323330542780329
0.10085717458071193 0.15675020676179846 -0.07142718734968066
-0.10782674627045041 0.12771009995117658 0.11774433486710438
-0.08264830750934624 0.1312894100441617 0.099550452945227
-0.057469868748242045 0.1348687201371468 0.08135657102334964
-0.03229142998713785 0.13844803023013189 0.06316268910147226
-0.007112991226033648 0.14202734032311698 0.04496880717959487
0.018065447535070556 0.1456066504161021 0.026774925257717488
0.04324388629617474 0.1491859605090872 0.00858104333584012
0.06842232505727895 0.1527652706020723 -0.00961283858603727
0.09360076381838314 0.15634458069505738 -0.027806720507914644
0.11877920257948733 0.1599238907880425 -0.04600060242979202
-0.089904718271675 0.13088378397742062 0.14317091978699306
-0.06472627951057082 0.13446309407040574 0.12497703786511567
-0.03954784074946663 0.13804240416339084 0.10678315594323831
-0.01436940198836243 0.14162171425637593 0.08858927402136092
0.010809036772741767 0.14520102434936102 0.07039539209948353
0.03598747553384597 0.14878033444234615 0.05220151017760616
0.061165914294950156 0.15235964453533124 0.03400762825572879
0.08634435305605437 0.15593895462831633 0.015813746333851398
0.11152279181715856 0.15951826472130143 -0.0023801355880259767
0.13670123057826275 0.16309757481428655 -0.020574017509903352
-0.07198269027289958 0.13405746800366466 0.1685975047068817
-0.04680425151179541 0.1376367780966498 0.15040362278500433
-0.02162581275069122 0.14121608818963488 0.13220974086312698
0.0035526260104129796 0.14479539828261997 0.11401585894124959
0.028731064771517177 0.14837470837560507 0.0958219770193722
0.05390950353262138 0.1519540184685902 0.07762809509749483
0.07908794229372557 0.15553332856157528 0.05943421317561745
0.10426638105482978 0.15911263865456038 0.04124033125374006
0.12944481981593398 0.16269194874754547 0.023046449331862687
0.15462325857703815 0.1662712588405306 0.004852567409985311
-0.054060662274124184 0.13723115202990874 0.19402408962677037
-0.028882223513020007 0.14081046212289386 0.175830207704893
-0.003703784751915815 0.14438977221587895 0.15763632578301562
0.021474654009188382 0.14796908230886405 0.13944244386113824
0.04665309277029258 0.15154839240184914 0.12124856193926085
0.07183153153139678 0.15512770249483426 0.10305468001738347
0.09700997029250097 0.15870701258781936 0.0848607980955061
0.12218840905360519 0.16228632268080445 0.06666691617362872
0.14736684781470938 0.16586563277378955 0.04847303425175134
0.17254528657581356 0.16944494286677467 0.03027915232987396
-0.17254528657581356 -0.16944494286677467 -0.03027915232987396
-0.14736684781470938 -0.16586563277378955 -0.04847303425175134
-0.12218840905360519 -0.16228632268080445 -0.0666669161736287
-0.09700997029250098 -0.15870701258781936 -0.08486079809550609
-0.07183153153139678 -0.15512770249483426 -0.10305468001738347
-0.04665309277029258 -0.15154839240184914 -0.12124856193926085
-0.021474654009188396 -0.14796908230886405 -0.13944244386113822
0.003703784751915815 -0.14438977221587895 -0.15763632578301562
0.028882223513020007 -0.14081046212289386 -0.175830207704893
0.054060662274124184 -0.13723115202990874 -0.19402408962677037
-0.1773023563188457 -0.13854350523783168 -0.030783154810135476
-0.15212391755774152 -0.1349641951448466 -0.048977036732012855
-0.1269454787966373 -0.1313848850518615 -0.06717091865389022
-0.10176704003553312 -0.12780557495887637 -0.08536480057576759
-0.07658860127442893 -0.12422626486589126 -0.10355868249764498
-0.051410162513324725 -0.12064695477290617 -0.12175256441952237
-0.02623172375222054 -0.11706764467992106 -0.13994644634139974
-0.0010532849911163236 -0.11348833458693597 -0.15814032826327712
0.02412515376998787 -0.10990902449395086 -0.1763342101851545
0.049303592531092046 -0.10632971440096577 -0.19452809210703187
-0.18205942606187786 -0.10764206760888868 -0.03128715729039698
-0.15688098730077366 -0.10406275751590359 -0.049481039212274355
-0.13170254853966948 -0.1004834474229185 -0.06767492113415173
-0.10652410977856527 -0.09690413732993339 -0.0858688030560291
-0.08134567101746107 -0.09332482723694828 -0.1040626849779065
-0.05616723225635687 -0.08974551714396319 -0.12225656689978387
-0.03098879349525268 -0.08616620705097808 -0.14045044882166124
-0.005810354734148476 -0.08258689695799298 -0.15864433074353865
0.019368084026955716 -0.07900758686500788 -0.17683821266541602
0.04454652278805991 -0.07542827677202278 -0.19503209458729337
-0.18681649580491 -0.07674062997994568 -0.031791159770658495
-0.1616380570438058 -0.07316131988696059 -0.04998504169253587
-0.13645961828270162 -0.06958200979397548 -0.06817892361441323
-0.11128117952159741 -0.06600269970099039 -0.08637280553629062
-0.08610274076049322 -0.06242338960800528 -0.10456668745816801
-0.060924301999389016 -0.05884407951502017 -0.12276056938004538
-0.035745863238284825 -0.05526476942203508 -0.14095445130192275
-0.010567424477180615 -0.05168545932904997 -0.15914833322380015
0.014611014283923576 -0.04810614923606487 -0.17734221514567752
0.03978945304502777 -0.04452683914307977 -0.1955360970675549
-0.19157356554794214 -0.045839192351002686 -0.03229516225092001
-0.16639512678683796 -0.042259882258017585 -0.050489044172797384
-0.14121668802573376 -0.038680572165032484 -0.06868292609467475
-0.11603824926462956 -0.03510126207204738 -0.08687680801655213
-0.09085981050352536 -0.03152195197906228 -0.10507068993842951
-0.06568137174242115 -0.027942641886077178 -0.1232645718603069
-0.04050293298131697 -0.024363331793092077 -0.14145845378218427
-0.015324494220212767 -0.020784021700106976 -0.15965233570406165
0.009853944540891424 -0.017204711607121875 -0.17784621762593902
0.035032383301995616 -0.01362540151413677 -0.1960400995478164
-0.19633063529097428 -0.014937754722059687 -0.03279916473118151
-0.1711521965298701 -0.011358444629074585 -0.050993046653058885
-0.1459737577687659 -0.007779134536089486 -0.06918692857493626
-0.12079531900766172 -0.0041998244431043835 -0.08738081049681364
-0.09561688024655751 -0.0006205143501192805 -0.10557469241869102
-0.07043844148545331 0.0029587957428658207 -0.1237685743405684
-0.04526000272434912 0.006538105835850921 -0.14196245626244577
-0.020081563963244904 0.010117415928836027 -0.16015633818432318
0.005096874797859286 0.013696726021821128 -0.17835022010620052
0.030275313558963478 0.01727603611480623 -0.1965441020280779
-0.20108770503400644 0.01596368290688329 -0.033303167211443024
-0.17590926627290224 0.01954299299986839 -0.0514970491333204
-0.15073082751179806 0.023122303092853493 -0.06969093105519776
-0.12555238875069386 0.026701613185838594 -0.08788481297707515
-0.10037394998958965 0.030280923278823695 -0.10607869489895254
-0.07519551122848545 0.0338602333718088 -0.12427257682082991
-0.05001707246738126 0.0374395434647939 -0.14246645874270727
-0.02483863370627705 0.041018853557779004 -0.16066034066458468
0.00033980505482713344 0.044598163650764105 -0.17885422258646205
0.025518243815931325 0.048177473743749206 -0.19704810450833943
-0.20584477477703858 0.0468651205358263 -0.03380716969170454
-0.18066633601593438 0.050444430628811404 -0.05200105161358191
-0.1554878972548302 0.05402374072179651 -0.07019493353545928
-0.130309458493726 0.057603050814781606 -0.08838881545733666
-0.1051310197326218 0.061182360907766714 -0.10658269737921404
-0.0799525809715176 0.06476167100075181 -0.12477657930109143
-0.05477414221041341 0.06834098109373692 -0.1429704612229688
-0.029595703449309195 0.07192029118672201 -0.16116434314484618
-0.004417264688205005 0.07549960127970712 -0.17935822506672355
0.020761174072899187 0.07907891137269223 -0.19755210698860093
-0.21060184452007072 0.07776655816476931 -0.03431117217196604
-0.18542340575896654 0.0813458682577544 -0.05250505409384342
-0.16024496699786234 0.0849251783507395 -0.07069893601572079
-0.13506652823675813 0.0885044884437246 -0.08889281793759816
-0.10988808947565394 0.09208379853670971 -0.10708669985947555
-0.08470965071454974 0.0956631086296948 -0.12528058178135293
-0.05953121195344556 0.09924241872267991 -0.1434744637032303
-0.03435277319234135 0.10282172881566501 -0.1616683456251077
-0.009174334431237158 0.10640103890865012 -0.17986222754698505
0.016004104329867035 0.10998034900163521 -0.19805610946886243
-0.21535891426310286 0.10866799579371227 -0.034815174652227554
-0.19018047550199868 0.11224730588669739 -0.05300905657410493
-0.16500203674089448 0.11582661597968248 -0.07120293849598229
-0.1398235979797903 0.11940592607266758 -0.08939682041785968
-0.1146451592186861 0.12298523616565267 -0.10759070233973707
-0.08946672045758189 0.12656454625863778 -0.12578458426161446
-0.0642882816964777 0.13014385635162287 -0.1439784661834918
-0.039109842935373486 0.13372316644460797 -0.1621723481053692
-0.013931404174269297 0.13730247653759306 -0.18036623002724658
0.011247034586834894 0.14088178663057818 -0.19856011194912396
-0.011247034586834894 -0.14088178663057818 0.19856011194912396
0.013931404174269297 -0.13730247653759306 0.18036623002724658
0.039109842935373486 -0.13372316644460797 0.1621723481053692
0.06428828169647768 -0.13014385635162287 0.14397846618349183
0.08946672045758189 -0.12656454625863778 0.12578458426161446
0.1146451592186861 -0.12298523616565267 0.10759070233973707
0.13982359797979027 -0.11940592607266758 0.0893968204178597
0.16500203674089448 -0.11582661597968248 0.0712029384959823
0.19018047550199868 -0.11224730588669739 0.05300905657410493
0.21535891426310286 -0.10866799579371227 0.034815174652227554
-0.016004104329867035 -0.10998034900163521 0.19805610946886243
0.009174334431237158 -0.10640103890865012 0.17986222754698505
0.03435277319234135 -0.10282172881566502 0.1616683456251077
0.059531211953445545 -0.09924241872267991 0.14347446370323033
0.08470965071454974 -0.0956631086296948 0.12528058178135293
0.10988808947565394 -0.09208379853670971 0.10708669985947555
0.13506652823675813 -0.0885044884437246 0.08889281793759818
0.16024496699786234 -0.08492517835073951 0.07069893601572079
0.18542340575896654 -0.0813458682577544 0.05250505409384342
0.21060184452007072 -0.07776655816476931 0.03431117217196604
-0.020761174072899187 -0.07907891137269223 0.19755210698860093
0.004417264688205005 -0.07549960127970713 0.17935822506672355
0.029595703449309202 -0.07192029118672204 0.16116434314484618
0.0547741422104134 -0.06834098109373693 0.1429704612229688
0.0799525809715176 -0.06476167100075182 0.12477657930109143
0.1051310197326218 -0.06118236090776673 0.10658269737921404
0.130309458493726 -0.05760305081478162 0.08838881545733668
0.1554878972548302 -0.054023740721796526 0.07019493353545928
0.18066633601593438 -0.05044443062881142 0.05200105161358191
0.20584477477703858 -0.04686512053582632 0.03380716969170454
-0.025518243815931325 -0.04817747374374923 0.19704810450833943
-0.00033980505482713344 -0.044598163650764126 0.17885422258646205
0.024838633706277057 -0.041018853557779025 0.16066034066458468
0.050017072467381254 -0.037439543464793924 0.1424664587427073
0.07519551122848546 -0.03386023337180882 0.12427257682082991
0.10037394998958965 -0.030280923278823715 0.10607869489895254
0.12555238875069386 -0.02670161318583862 0.08788481297707516
0.15073082751179806 -0.023122303092853513 0.06969093105519777
0.17590926627290224 -0.019542992999868412 0.0514970491333204
0.20108770503400644 -0.01596368290688331 0.033303167211443024
-0.030275313558963478 -0.01727603611480623 0.1965441020280779
-0.005096874797859286 -0.013696726021821128 0.17835022010620052
0.020081563963244904 -0.010117415928836027 0.16015633818432318
0.04526000272434911 -0.006538105835850925 0.1419624562624458
0.07043844148545331 -0.0029587957428658207 0.1237685743405684
0.09561688024655751 0.0006205143501192805 0.10557469241869102
0.1207953190076617 0.004199824443104382 0.08738081049681365
0.1459737577687659 0.0077791345360894845 0.06918692857493626
0.1711521965298701 0.011358444629074585 0.050993046653058885
0.19633063529097428 0.014937754722059687 0.03279916473118151
-0.035032383301995616 0.01362540151413677 0.1960400995478164
-0.009853944540891424 0.017204711607121875 0.17784621762593902
0.015324494220212767 0.020784021700106972 0.15965233570406165
0.04050293298131696 0.024363331793092077 0.14145845378218427
0.06568137174242115 0.027942641886077178 0.1232645718603069
0.09085981050352536 0.03152195197906228 0.10507068993842951
0.11603824926462955 0.03510126207204738 0.08687680801655215
0.14121668802573376 0.038680572165032484 0.06868292609467475
0.16639512678683796 0.042259882258017585 0.050489044172797384
0.19157356554794214 0.045839192351002686 0.03229516225092001
-0.03978945304502777 0.04452683914307975 0.1955360970675549
-0.014611014283923576 0.04810614923606485 0.17734221514567752
0.010567424477180615 0.05168545932904995 0.15914833322380015
0.03574586323828482 0.05526476942203505 0.14095445130192277
0.060924301999389016 0.05884407951502015 0.12276056938004538
0.08610274076049322 0.06242338960800526 0.10456668745816801
0.11128117952159741 0.06600269970099036 0.08637280553629063
0.13645961828270162 0.06958200979397547 0.06817892361441324
0.1616380570438058 0.07316131988696056 0.04998504169253587
0.18681649580491 0.07674062997994567 0.031791159770658495
-0.04454652278805991 0.07542827677202277 0.19503209458729337
-0.019368084026955716 0.07900758686500786 0.17683821266541602
0.005810354734148476 0.08258689695799297 0.15864433074353865
0.030988793495252673 0.08616620705097806 0.14045044882166127
0.05616723225635687 0.08974551714396317 0.12225656689978387
0.08134567101746107 0.09332482723694827 0.1040626849779065
0.10652410977856526 0.09690413732993337 0.08586880305602912
0.13170254853966948 0.10048344742291847 0.06767492113415173
0.15688098730077366 0.10406275751590358 0.049481039212274355
0.18205942606187786 0.10764206760888868 0.03128715729039698
-0.049303592531092046 0.10632971440096577 0.19452809210703187
-0.02412515376998787 0.10990902449395086 0.1763342101851545
0.0010532849911163236 0.11348833458693595 0.15814032826327712
0.026231723752220527 0.11706764467992106 0.13994644634139974
0.051410162513324725 0.12064695477290617 0.12175256441952237
0.07658860127442893 0.12422626486589126 0.10355868249764498
0.10176704003553311 0.12780557495887637 0.0853648005757676
0.1269454787966373 0.13138488505186147 0.06717091865389022
0.15212391755774152 0.1349641951448466 0.048977036732012855
0.1773023563188457 0.13854350523783168 0.030783154810135476
-0.054060662274124184 0.13723115202990874 0.19402408962677037
-0.028882223513020007 0.14081046212289386 0.175830207704893
-0.003703784751915815 0.14438977221587895 0.15763632578301562
0.021474654009188382 0.14796908230886405 0.13944244386113824
0.04665309277029258 0.15154839240184914 0.12124856193926085
0.07183153153139678 0.15512770249483426 0.10305468001738347
0.09700997029250097 0.15870701258781936 0.0848607980955061
0.12218840905360519 0.16228632268080445 0.06666691617362872
0.14736684781470938 0.16586563277378955 0.04847303425175134
0.17254528657581356 0.16944494286677467 0.03027915232987396
