# .PCD v0.7 - Point Cloud Data file format
VERSION 0.7
FIELDS x y z
SIZE 4 4 4
TYPE F F F
COUNT 1 1 1
WIDTH 600
HEIGHT 1
VIEWPOINT 0 0 0 1 0 0 0
POINTS 600
DATA ascii
0.0326087741049612 -0.05850856756784494 -0.12405976556146525
0.02256055070639515 -0.04363087075784328 -0.12184899426247965
0.012512327307829106 -0.02875317394784167 -0.11963822296349405
0.002464103909263062 -0.013875477137840025 -0.11742745166450845
-0.007584119489302988 0.0010022196721616208 -0.11521668036552285
-0.017632342887869037 0.015879916482163258 -0.11300590906653725
-0.027680566286435074 0.030757613292164893 -0.11079513776755165
-0.037728789685001124 0.04563531010216654 -0.10858436646856605
-0.047777013083567174 0.06051300691216817 -0.10637359516958045
-0.057825236482133224 0.07539070372216983 -0.10416282387059485
0.02346672304543177 -0.06666085948031561 -0.11074949867559612
0.013418499646865721 -0.05178316267031396 -0.10853872737661052
0.0033702762482996774 -0.03690546586031234 -0.10632795607762492
-0.006677947150266366 -0.022027769050310696 -0.10411718477863932
-0.016726170548832416 -0.00715007224030905 -0.10190641347965372
-0.026774393947398466 0.007727624569692588 -0.09969564218066812
-0.0368226173459645 0.02260532137969422 -0.09748487088168252
-0.04687084074453055 0.03748301818969587 -0.09527409958269692
-0.0569190641430966 0.0523607149996975 -0.09306332828371132
-0.06696728754166266 0.06723841180969917 -0.09085255698472572
0.014324671985902357 -0.07481315139278627 -0.09743923178972701
0.004276448587336307 -0.05993545458278462 -0.0952284604907414
-0.0057717748112297365 -0.045057757772783 -0.0930176891917558
-0.01581999820979578 -0.030180060962781353 -0.0908069178927702
-0.02586822160836183 -0.015302364152779708 -0.0885961465937846
-0.03591644500692788 -0.00042466734277807035 -0.086385375294799
-0.045964668405493916 0.014453029467223565 -0.0841746039958134
-0.05601289180405997 0.02933072627722521 -0.0819638326968278
-0.06606111520262602 0.04420842308722684 -0.0797530613978422
-0.07610933860119207 0.0590861198972285 -0.0775422900988566
0.005182620926372936 -0.08296544330525694 -0.08412896490385789
-0.004865602472193115 -0.06808774649525529 -0.08191819360487229
-0.014913825870759158 -0.05321004968525366 -0.07970742230588669
-0.0249620492693252 -0.03833235287525202 -0.07749665100690109
-0.03501027266789125 -0.023454656065250372 -0.07528587970791549
-0.0450584960664573 -0.008576959255248736 -0.07307510840892989
-0.05510671946502334 0.0063007375547529 -0.07086433710994429
-0.06515494286358939 0.021178434364754545 -0.06865356581095869
-0.07520316626215544 0.03605613117475617 -0.06644279451197309
-0.08525138966072149 0.05093382798475784 -0.06423202321298749
-0.003959430133156486 -0.0911177352177276 -0.07081869801798876
-0.014007653531722536 -0.07624003840772595 -0.06860792671900316
-0.02405587693028858 -0.06136234159772433 -0.06639715542001756
-0.03410410032885462 -0.046484644787722684 -0.06418638412103196
-0.04415232372742067 -0.03160694797772104 -0.06197561282204636
-0.05420054712598672 -0.016729251167719398 -0.05976484152306076
-0.06424877052455276 -0.001851554357717765 -0.05755407022407516
-0.07429699392311881 0.01302614245228388 -0.05534329892508956
-0.08434521732168486 0.027903839262285512 -0.05313252762610396
-0.09439344072025091 0.04278153607228717 -0.05092175632711836
-0.013101481192685907 -0.09927002713019827 -0.05750843113211965
-0.023149704591251957 -0.0843923303201966 -0.05529765983313405
-0.033197927989818 -0.06951463351019499 -0.053086888534148446
-0.043246151388384044 -0.054636936700193345 -0.050876117235162846
-0.053294374786950094 -0.0397592398901917 -0.048665345936177246
-0.06334259818551614 -0.024881543080190065 -0.046454574637191645
-0.07339082158408218 -0.01000384627018843 -0.044243803338206045
-0.08343904498264823 0.004873850539813216 -0.042033032039220444
-0.09348726838121428 0.019751547349814845 -0.039822260740234844
-0.10353549177978033 0.03462924415981651 -0.03761148944124924
-0.02224353225221532 -0.10742231904266893 -0.04419816424625053
-0.03229175565078137 -0.09254462223266727 -0.04198739294726493
-0.042339979049347415 -0.07766692542266565 -0.03977662164827933
-0.05238820244791346 -0.062789228612664 -0.03756585034929373
-0.06243642584647951 -0.04791153180266236 -0.03535507905030813
-0.07248464924504557 -0.03303383499266072 -0.03314430775132253
-0.0825328726436116 -0.018156138182659088 -0.030933536452336926
-0.09258109604217765 -0.0032784413726574444 -0.028722765153351325
-0.1026293194407437 0.011599255437344186 -0.026511993854365725
-0.11267754283930975 0.02647695224734585 -0.024301222555380125
-0.03138558331174474 -0.11557461095513959 -0.030887897360381406
-0.04143380671031079 -0.10069691414513793 -0.028677126061395806
-0.051482030108876836 -0.08581921733513631 -0.026466354762410205
-0.06153025350744288 -0.07094152052513467 -0.024255583463424605
-0.07157847690600894 -0.05606382371513303 -0.022044812164439005
-0.08162670030457499 -0.04118612690513139 -0.019834040865453404
-0.09167492370314102 -0.026308430095129755 -0.017623269566467804
-0.10172314710170707 -0.01143073328512811 -0.015412498267482203
-0.11177137050027312 0.0034469635248735205 -0.013201726968496603
-0.12181959389883917 0.018324660334875183 -0.010990955669511002
-0.040527634371274164 -0.12372690286761026 -0.017577630474512287
-0.050575857769840214 -0.1088492060576086 -0.015366859175526689
-0.06062408116840626 -0.09397150924760699 -0.013156087876541088
-0.0706723045669723 -0.07909381243760534 -0.010945316577555488
-0.08072052796553834 -0.0642161156276037 -0.008734545278569887
-0.0907687513641044 -0.04933841881760205 -0.006523773979584287
-0.10081697476267043 -0.03446072200760042 -0.004313002680598687
-0.11086519816123648 -0.01958302519759877 -0.0021022313816130857
-0.12091342155980253 -0.004705328387597141 0.00010853991737251463
-0.1309616449583686 0.010172368422404522 0.002319311216358115
-0.04966968543080359 -0.13187919478008092 -0.0042673635886431565
-0.05971790882936964 -0.11700149797007926 -0.0020565922896575565
-0.06976613222793568 -0.10212380116007765 0.0001541790093280441
-0.07981435562650173 -0.087246104350076 0.0023649503083136444
-0.08986257902506778 -0.07236840754007436 0.004575721607299245
-0.09991080242363383 -0.057490710730072725 0.006786492906284846
-0.10995902582219987 -0.04261301392007109 0.008997264205270446
-0.12000724922076592 -0.027735317110069442 0.011208035504256047
-0.13005547261933195 -0.012857620300067811 0.013418806803241647
-0.14010369601789802 0.0020200765099338508 0.015629578102227246
0.14010369601789802 -0.0020200765099338508 -0.015629578102227246
0.13005547261933195 0.012857620300067811 -0.013418806803241647
0.12000724922076592 0.027735317110069435 -0.011208035504256047
0.10995902582219988 0.04261301392007108 -0.008997264205270446
0.09991080242363383 0.057490710730072725 -0.006786492906284846
0.08986257902506778 0.07236840754007436 -0.004575721607299245
0.07981435562650173 0.08724610435007599 -0.0023649503083136444
0.06976613222793569 0.10212380116007763 -0.0001541790093280441
0.05971790882936964 0.11700149797007926 0.0020565922896575565
0.04966968543080359 0.13187919478008092 0.0042673635886431565
0.1309616449583686 -0.010172368422404522 -0.002319311216358115
0.12091342155980253 0.004705328387597141 -0.00010853991737251463
0.11086519816123648 0.019583025197598764 0.0021022313816130857
0.10081697476267044 0.03446072200760041 0.004313002680598687
0.0907687513641044 0.04933841881760205 0.006523773979584287
0.08072052796553834 0.0642161156276037 0.008734545278569887
0.07067230456697231 0.07909381243760533 0.010945316577555488
0.06062408116840626 0.09397150924760697 0.013156087876541088
0.050575857769840214 0.1088492060576086 0.015366859175526689
0.040527634371274164 0.12372690286761026 0.017577630474512287
0.12181959389883917 -0.01832466033487518 0.010990955669510997
0.11177137050027312 -0.0034469635248735174 0.013201726968496598
0.10172314710170707 0.011430733285128107 0.015412498267482198
0.09167492370314104 0.026308430095129752 0.017623269566467797
0.08162670030457499 0.04118612690513139 0.019834040865453397
0.07157847690600894 0.05606382371513303 0.022044812164438998
0.06153025350744289 0.07094152052513467 0.024255583463424598
0.05148203010887684 0.08581921733513631 0.0264663547624102
0.0414338067103108 0.10069691414513794 0.0286771260613958
0.03138558331174475 0.1155746109551396 0.0308878973603814
0.11267754283930975 -0.026476952247345843 0.024301222555380118
0.1026293194407437 -0.011599255437344183 0.026511993854365718
0.09258109604217765 0.0032784413726574422 0.02872276515335132
0.08253287264361162 0.018156138182659088 0.03093353645233692
0.07248464924504557 0.03303383499266073 0.03314430775132252
0.062436425846479515 0.04791153180266237 0.03535507905030812
0.05238820244791347 0.06278922861266399 0.037565850349293724
0.04233997904934742 0.07766692542266564 0.039776621648279324
0.03229175565078138 0.09254462223266727 0.041987392947264925
0.02224353225221533 0.10742231904266893 0.044198164246250525
0.10353549177978033 -0.03462924415981651 0.03761148944124924
0.09348726838121428 -0.019751547349814845 0.039822260740234844
0.08343904498264823 -0.004873850539813223 0.042033032039220444
0.0733908215840822 0.010003846270188422 0.044243803338206045
0.06334259818551614 0.024881543080190065 0.046454574637191645
0.053294374786950094 0.0397592398901917 0.048665345936177246
0.04324615138838405 0.05463693670019333 0.050876117235162846
0.033197927989818 0.06951463351019498 0.053086888534148446
0.023149704591251957 0.0843923303201966 0.05529765983313405
0.013101481192685907 0.09927002713019827 0.05750843113211965
0.09439344072025091 -0.04278153607228717 0.05092175632711836
0.08434521732168486 -0.027903839262285512 0.05313252762610396
0.07429699392311881 -0.013026142452283887 0.05534329892508956
0.06424877052455277 0.001851554357717758 0.05755407022407516
0.05420054712598672 0.016729251167719398 0.05976484152306076
0.04415232372742067 0.03160694797772104 0.06197561282204636
0.03410410032885463 0.04648464478772267 0.06418638412103196
0.024055876930288583 0.061362341597724315 0.06639715542001756
0.014007653531722536 0.07624003840772595 0.06860792671900316
0.003959430133156486 0.0911177352177276 0.07081869801798876
0.08525138966072149 -0.05093382798475783 0.06423202321298747
0.07520316626215544 -0.03605613117475617 0.06644279451197307
0.06515494286358939 -0.021178434364754545 0.06865356581095867
0.05510671946502336 -0.006300737554752901 0.07086433710994428
0.04505849606645731 0.008576959255248739 0.07307510840892988
0.03501027266789126 0.02345465606525038 0.07528587970791548
0.024962049269325215 0.03833235287525201 0.07749665100690108
0.014913825870759167 0.053210049685253655 0.07970742230588668
0.00486560247219312 0.06808774649525529 0.08191819360487228
-0.00518262092637293 0.08296544330525694 0.08412896490385788
0.07610933860119207 -0.0590861198972285 0.0775422900988566
0.06606111520262602 -0.044208423087226834 0.0797530613978422
0.056012891804059974 -0.029330726277225213 0.0819638326968278
0.04596466840549394 -0.014453029467223568 0.0841746039958134
0.03591644500692789 0.0004246673427780735 0.086385375294799
0.025868221608361833 0.015302364152779711 0.0885961465937846
0.01581999820979579 0.030180060962781342 0.0908069178927702
0.0057717748112297435 0.04505775777278299 0.0930176891917558
-0.004276448587336303 0.05993545458278462 0.0952284604907414
-0.014324671985902353 0.07481315139278628 0.09743923178972701
0.06696728754166266 -0.06723841180969917 0.09085255698472572
0.0569190641430966 -0.0523607149996975 0.09306332828371132
0.04687084074453055 -0.03748301818969588 0.09527409958269692
0.036822617345964516 -0.02260532137969423 0.09748487088168252
0.026774393947398466 -0.007727624569692588 0.09969564218066812
0.016726170548832416 0.00715007224030905 0.10190641347965372
0.006677947150266373 0.022027769050310682 0.10411718477863932
-0.003370276248299674 0.03690546586031233 0.10632795607762492
-0.013418499646865721 0.05178316267031396 0.10853872737661052
-0.02346672304543177 0.06666085948031561 0.11074949867559612
0.057825236482133224 -0.07539070372216983 0.10416282387059485
0.047777013083567174 -0.06051300691216817 0.10637359516958045
0.037728789685001124 -0.045635310102166544 0.10858436646856605
0.027680566286435088 -0.0307576132921649 0.11079513776755165
0.017632342887869037 -0.015879916482163258 0.11300590906653725
0.007584119489302988 -0.0010022196721616208 0.11521668036552285
-0.002464103909263055 0.013875477137840011 0.11742745166450845
-0.012512327307829103 0.028753173947841656 0.11963822296349405
-0.02256055070639515 0.04363087075784328 0.12184899426247965
-0.0326087741049612 0.05850856756784494 0.12405976556146525
0.0326087741049612 -0.05850856756784494 -0.12405976556146525
0.044552654317509745 -0.052232068561410376 -0.11201196695488325
0.05649653453005827 -0.04595556955497581 -0.09996416834830125
0.0684404147426068 -0.039679070548541244 -0.08791636974171925
0.08038429495515534 -0.03340257154210668 -0.07586857113513724
0.09232817516770388 -0.027126072535672115 -0.06382077252855525
0.1042720553802524 -0.02084957352923755 -0.051772973921973255
0.11621593559280094 -0.014573074522802983 -0.039725175315391256
0.12815981580534946 -0.008296575516368417 -0.027677376708809258
0.14010369601789802 -0.0020200765099338508 -0.015629578102227246
0.02346672304543177 -0.06666085948031561 -0.11074949867559612
0.035410603257980316 -0.06038436047388105 -0.0987017000690141
0.04735448347052884 -0.054107861467446484 -0.08665390146243211
0.05929836368307737 -0.04783136246101192 -0.07460610285585012
0.0712422438956259 -0.04155486345457735 -0.06255830424926812
0.08318612410817444 -0.035278364448142786 -0.05051050564268612
0.09513000432072297 -0.02900186544170822 -0.038462707036104125
0.1070738845332715 -0.022725366435273654 -0.026414908429522124
0.11901776474582003 -0.016448867428839088 -0.014367109822940127
0.1309616449583686 -0.010172368422404522 -0.002319311216358115
0.014324671985902357 -0.07481315139278627 -0.09743923178972701
0.026268552198450902 -0.0685366523863517 -0.085391433183145
0.038212432410999427 -0.062260153379917145 -0.07334363457656301
0.05015631262354796 -0.05598365437348258 -0.061295835969981005
0.062100192836096496 -0.04970715536704801 -0.04924803736339901
0.07404407304864503 -0.04343065636061345 -0.03720023875681701
0.08598795326119356 -0.03715415735417888 -0.025152440150235014
0.0979318334737421 -0.03087765834774431 -0.01310464154365301
0.10987571368629062 -0.024601159341309745 -0.0010568429370710157
0.12181959389883917 -0.01832466033487518 0.010990955669510997
0.005182620926372936 -0.08296544330525694 -0.08412896490385789
0.01712650113892148 -0.07668894429882238 -0.07208116629727587
0.029070381351470005 -0.07041244529238781 -0.06003336769069388
0.041014261564018537 -0.06413594628595325 -0.04798556908411188
0.052958141776567075 -0.05785944727951867 -0.035937770477529885
0.06490202198911561 -0.05158294827308411 -0.023889971870947886
0.07684590220166414 -0.04530644926664954 -0.011842173264365891
0.08878978241421268 -0.039029950260214975 0.00020562534221611124
0.1007336626267612 -0.03275345125378041 0.012253423948798105
0.11267754283930975 -0.026476952247345843 0.024301222555380118
-0.003959430133156486 -0.0911177352177276 -0.07081869801798876
0.00798445007939206 -0.08484123621129304 -0.05877089941140675
0.019928330291940584 -0.07856473720485847 -0.04672310080482476
0.031872210504489115 -0.07228823819842391 -0.03467530219824276
0.04381609071703765 -0.06601173919198934 -0.022627503591660762
0.05575997092958619 -0.059735240185554775 -0.010579704985078762
0.06770385114213472 -0.05345874117912021 0.0014680936215032312
0.07964773135468325 -0.04718224217268564 0.013515892228085233
0.09159161156723178 -0.04090574316625108 0.025563690834667228
0.10353549177978033 -0.03462924415981651 0.03761148944124924
-0.013101481192685907 -0.09927002713019827 -0.05750843113211965
-0.0011576009801373618 -0.0929935281237637 -0.045460632525537635
0.010786279232411163 -0.08671702911732913 -0.033412833918955644
0.022730159444959697 -0.08044053011089457 -0.021365035312373642
0.03467403965750823 -0.07416403110446 -0.00931723670579164
0.04661791987005677 -0.06788753209802544 0.002730561900790359
0.058561800082605295 -0.06161103309159087 0.014778360507372353
0.07050568029515383 -0.0553345340851563 0.026826159113954355
0.08244956050770236 -0.04905803507872174 0.038873957720536347
0.09439344072025091 -0.04278153607228717 0.05092175632711836
-0.02224353225221532 -0.10742231904266893 -0.04419816424625053
-0.010299652039666778 -0.10114582003623436 -0.03215036563966852
0.0016442281728817466 -0.0948693210297998 -0.020102567033086525
0.013588108385430281 -0.08859282202336523 -0.008054768426504528
0.025531988597978818 -0.08231632301693066 0.003993030180077474
0.037475868810527356 -0.0760398240104961 0.016040828786659474
0.04941974902307588 -0.06976332500406153 0.02808862739324147
0.06136362923562442 -0.06348682599762696 0.04013642599982347
0.07330750944817294 -0.0572103269911924 0.05218422460640546
0.08525138966072149 -0.05093382798475783 0.06423202321298747
-0.03138558331174474 -0.11557461095513959 -0.030887897360381406
-0.0194417030991962 -0.10929811194870502 -0.018840098753799394
-0.007497822886647677 -0.10302161294227045 -0.006792300147217402
0.004446057325900858 -0.09674511393583589 0.005255498459364597
0.016389937538449393 -0.09046861492940132 0.017303297065946598
0.02833381775099793 -0.08419211592296676 0.029351095672528596
0.04027769796354646 -0.07791561691653219 0.041398894279110594
0.052221578176095 -0.07163911791009762 0.05344669288569259
0.06416545838864351 -0.06536261890366306 0.06549449149227458
0.07610933860119207 -0.0590861198972285 0.0775422900988566
-0.040527634371274164 -0.12372690286761026 -0.017577630474512287
-0.02858375415872562 -0.1174504038611757 -0.005529831867930277
-0.016639873946177094 -0.11117390485474113 0.0065179667386517145
-0.004695993733628559 -0.10489740584830656 0.018565765345233715
0.007247886478919976 -0.098620906841872 0.030613563951815716
0.019191766691468513 -0.09234440783543743 0.04266136255839771
0.031135646904017038 -0.08606790882900286 0.05470916116497971
0.043079527116565576 -0.0797914098225683 0.06675695977156171
0.0550234073291141 -0.07351491081613373 0.0788047583781437
0.06696728754166266 -0.06723841180969917 0.09085255698472572
-0.04966968543080359 -0.13187919478008092 -0.0042673635886431565
-0.03772580521825505 -0.12560269577364636 0.007780435017938856
-0.025781925005706523 -0.11932619676721179 0.019828233624520845
-0.013838044793157988 -0.11304969776077722 0.031876032231102844
-0.0018941645806094525 -0.10677319875434266 0.04392383083768485
0.010049715631939085 -0.10049669974790809 0.05597162944426685
0.02199359584448761 -0.09422020074147353 0.06801942805084885
0.03393747605703615 -0.08794370173503896 0.08006722665743084
0.04588135626958467 -0.0816672027286044 0.09211502526401284
0.057825236482133224 -0.07539070372216983 0.10416282387059485
-0.057825236482133224 0.07539070372216983 -0.10416282387059485
-0.04588135626958467 0.0816672027286044 -0.09211502526401284
-0.03393747605703615 0.08794370173503896 -0.08006722665743085
-0.021993595844487623 0.09422020074147353 -0.06801942805084885
-0.010049715631939085 0.10049669974790809 -0.05597162944426685
0.0018941645806094525 0.10677319875434266 -0.04392383083768485
0.013838044793157981 0.11304969776077722 -0.03187603223110285
0.02578192500570652 0.11932619676721179 -0.019828233624520852
0.03772580521825505 0.12560269577364636 -0.007780435017938856
0.04966968543080359 0.13187919478008092 0.0042673635886431565
-0.06696728754166266 0.06723841180969917 -0.09085255698472572
-0.0550234073291141 0.07351491081613373 -0.0788047583781437
-0.043079527116565576 0.0797914098225683 -0.06675695977156171
-0.03113564690401705 0.08606790882900286 -0.05470916116497972
-0.019191766691468513 0.09234440783543743 -0.04266136255839771
-0.007247886478919976 0.098620906841872 -0.030613563951815716
0.004695993733628552 0.10489740584830656 -0.01856576534523372
0.01663987394617709 0.11117390485474113 -0.006517966738651721
0.02858375415872562 0.1174504038611757 0.005529831867930277
0.040527634371274164 0.12372690286761026 0.017577630474512287
-0.07610933860119207 0.0590861198972285 -0.0775422900988566
-0.06416545838864351 0.06536261890366307 -0.0654944914922746
-0.05222157817609499 0.07163911791009764 -0.0534466928856926
-0.040277697963546466 0.0779156169165322 -0.0413988942791106
-0.028333817750997928 0.08419211592296677 -0.029351095672528603
-0.01638993753844939 0.09046861492940134 -0.017303297065946605
-0.004446057325900862 0.0967451139358359 -0.005255498459364609
0.007497822886647677 0.10302161294227047 0.00679230014721739
0.019441703099196204 0.10929811194870503 0.018840098753799387
0.03138558331174475 0.1155746109551396 0.0308878973603814
-0.08525138966072149 0.05093382798475784 -0.06423202321298749
-0.07330750944817294 0.057210326991192405 -0.05218422460640547
-0.06136362923562441 0.06348682599762696 -0.04013642599982348
-0.04941974902307589 0.06976332500406153 -0.028088627393241482
-0.03747586881052735 0.0760398240104961 -0.01604082878665948
-0.02553198859797881 0.08231632301693066 -0.003993030180077481
-0.013588108385430283 0.08859282202336523 0.008054768426504513
-0.001644228172881745 0.0948693210297998 0.02010256703308651
0.010299652039666783 0.10114582003623436 0.03215036563966851
0.02224353225221533 0.10742231904266893 0.044198164246250525
-0.09439344072025091 0.04278153607228717 -0.05092175632711836
-0.08244956050770236 0.04905803507872174 -0.038873957720536347
-0.07050568029515383 0.0553345340851563 -0.02682615911395436
-0.05856180008260531 0.06161103309159087 -0.01477836050737236
-0.04661791987005677 0.06788753209802544 -0.002730561900790359
-0.03467403965750823 0.07416403110446 0.00931723670579164
-0.022730159444959704 0.08044053011089457 0.021365035312373635
-0.010786279232411166 0.08671702911732913 0.03341283391895564
0.0011576009801373618 0.0929935281237637 0.045460632525537635
0.013101481192685907 0.09927002713019827 0.05750843113211965
-0.10353549177978033 0.03462924415981651 -0.03761148944124924
-0.09159161156723178 0.04090574316625108 -0.025563690834667228
-0.07964773135468325 0.04718224217268564 -0.013515892228085236
-0.06770385114213473 0.05345874117912021 -0.0014680936215032382
-0.05575997092958619 0.059735240185554775 0.010579704985078762
-0.04381609071703765 0.06601173919198934 0.022627503591660762
-0.03187221050448912 0.07228823819842391 0.034675302198242754
-0.019928330291940587 0.07856473720485847 0.04672310080482475
-0.00798445007939206 0.08484123621129304 0.05877089941140675
0.003959430133156486 0.0911177352177276 0.07081869801798876
-0.11267754283930975 0.02647695224734585 -0.024301222555380125
-0.1007336626267612 0.032753451253780416 -0.012253423948798114
-0.08878978241421268 0.03902995026021498 -0.00020562534221612235
-0.07684590220166415 0.04530644926664955 0.011842173264365876
-0.06490202198911561 0.051582948273084114 0.023889971870947876
-0.05295814177656707 0.05785944727951868 0.03593777047752988
-0.04101426156401854 0.06413594628595325 0.04798556908411187
-0.02907038135147 0.07041244529238781 0.06003336769069387
-0.017126501138921474 0.07668894429882238 0.07208116629727587
-0.00518262092637293 0.08296544330525694 0.08412896490385788
-0.12181959389883917 0.018324660334875183 -0.010990955669511002
-0.10987571368629062 0.02460115934130975 0.0010568429370710105
-0.0979318334737421 0.030877658347744315 0.013104641543653001
-0.08598795326119357 0.03715415735417888 0.025152440150235
-0.07404407304864503 0.04343065636061345 0.037200238756817
-0.06210019283609649 0.04970715536704801 0.049248037363399
-0.050156312623547965 0.05598365437348258 0.061295835969981
-0.038212432410999427 0.062260153379917145 0.073343634576563
-0.0262685521984509 0.06853665238635172 0.08539143318314499
-0.014324671985902353 0.07481315139278628 0.09743923178972701
-0.1309616449583686 0.010172368422404522 0.002319311216358115
-0.11901776474582003 0.016448867428839088 0.014367109822940127
-0.1070738845332715 0.022725366435273654 0.02641490842952212
-0.09513000432072298 0.02900186544170822 0.03846270703610412
-0.08318612410817444 0.035278364448142786 0.05051050564268612
-0.0712422438956259 0.04155486345457735 0.06255830424926812
-0.05929836368307738 0.04783136246101192 0.0746061028558501
-0.04735448347052884 0.054107861467446484 0.08665390146243211
-0.035410603257980316 0.06038436047388105 0.0987017000690141
-0.02346672304543177 0.06666085948031561 0.11074949867559612
-0.14010369601789802 0.0020200765099338508 0.015629578102227246
-0.12815981580534946 0.008296575516368417 0.027677376708809258
-0.11621593559280094 0.014573074522802983 0.03972517531539125
-0.10427205538025242 0.02084957352923755 0.05177297392197325
-0.09232817516770388 0.027126072535672115 0.06382077252855525
-0.08038429495515534 0.03340257154210668 0.07586857113513724
-0.06844041474260681 0.039679070548541244 0.08791636974171925
-0.05649653453005827 0.04595556955497581 0.09996416834830124
-0.044552654317509745 0.052232068561410376 0.11201196695488325
-0.0326087741049612 0.05850856756784494 0.12405976556146525
0.0326087741049612 -0.05850856756784494 -0.12405976556146525
0.044552654317509745 -0.052232068561410376 -0.11201196695488325
0.05649653453005827 -0.04595556955497581 -0.09996416834830125
0.0684404147426068 -0.039679070548541244 -0.08791636974171925
0.08038429495515534 -0.03340257154210668 -0.07586857113513724
0.09232817516770388 -0.027126072535672115 -0.06382077252855525
0.1042720553802524 -0.02084957352923755 -0.051772973921973255
0.11621593559280094 -0.014573074522802983 -0.039725175315391256
0.12815981580534946 -0.008296575516368417 -0.027677376708809258
0.14010369601789802 -0.0020200765099338508 -0.015629578102227246
0.02256055070639515 -0.04363087075784328 -0.12184899426247965
0.034504430918943695 -0.03735437175140872 -0.10980119565589765
0.04644831113149222 -0.031077872744974155 -0.09775339704931565
0.05839219134404075 -0.02480137373853959 -0.08570559844273365
0.07033607155658929 -0.018524874732105023 -0.07365779983615164
0.08227995176913783 -0.012248375725670457 -0.061610001229569646
0.09422383198168635 -0.00597187671923589 -0.049562202622987654
0.10616771219423489 0.0003046222871986761 -0.03751440401640565
0.11811159240678343 0.006581121293633239 -0.025466605409823657
0.13005547261933195 0.012857620300067811 -0.013418806803241647
0.012512327307829106 -0.02875317394784167 -0.11963822296349405
0.02445620752037765 -0.02247667494140709 -0.10759042435691205
0.036400087732926176 -0.016200175934972538 -0.09554262575033005
0.04834396794547471 -0.009923676928537965 -0.08349482714374805
0.060287848158023245 -0.003647177922103398 -0.07144702853716604
0.07223172837057178 0.002629321084331168 -0.05939922993058405
0.08417560858312031 0.008905820090765734 -0.047351431324002054
0.09611948879566885 0.0151823190972003 -0.035303632717420055
0.10806336900821738 0.021458818103634862 -0.023255834110838057
0.12000724922076592 0.027735317110069435 -0.011208035504256047
0.002464103909263062 -0.013875477137840025 -0.11742745166450845
0.014407984121811605 -0.007598978131405444 -0.10537965305792645
0.02635186433436013 -0.001322479124970892 -0.09333185445134445
0.038295744546908664 0.004954019881463681 -0.08128405584476245
0.0502396247594572 0.011230518887898246 -0.06923625723818044
0.06218350497200573 0.017507017894332812 -0.05718845863159845
0.07412738518455426 0.02378351690076738 -0.04514066002501645
0.0860712653971028 0.030060015907201944 -0.033092861418434455
0.09801514560965133 0.03633651491363651 -0.021045062811852457
0.10995902582219988 0.04261301392007108 -0.008997264205270446
-0.007584119489302988 0.0010022196721616208 -0.11521668036552285
0.004359760723245557 0.007278718678596194 -0.10316888175894084
0.016303640935794082 0.013555217685030752 -0.09112108315235885
0.028247521148342617 0.019831716691465318 -0.07907328454577685
0.04019140136089115 0.026108215697899888 -0.06702548593919484
0.05213528157343968 0.032384714704334454 -0.05497768733261285
0.06407916178598821 0.03866121371076902 -0.04292988872603085
0.07602304199853675 0.044937712717203586 -0.03088209011944885
0.08796692221108528 0.051214211723638145 -0.018834291512866856
0.09991080242363383 0.057490710730072725 -0.006786492906284846
-0.017632342887869037 0.015879916482163258 -0.11300590906653725
-0.005688462675320493 0.022156415488597835 -0.10095811045995524
0.006255417537228031 0.028432914495032394 -0.08891031185337325
0.018199297749776567 0.03470941350146696 -0.07686251324679125
0.030143177962325105 0.040985912507901526 -0.06481471464020924
0.04208705817487364 0.04726241151433609 -0.05276691603362725
0.054030938387422164 0.05353891052077066 -0.04071911742704525
0.0659748185999707 0.05981540952720523 -0.02867131882046325
0.07791869881251923 0.06609190853363979 -0.016623520213881256
0.08986257902506778 0.07236840754007436 -0.004575721607299245
-0.027680566286435074 0.030757613292164893 -0.11079513776755165
-0.015736686073886536 0.037034112298599466 -0.09874733916096964
-0.003792805861338012 0.043310611305034025 -0.08669954055438765
0.008151074351210527 0.04958711031146859 -0.07465174194780565
0.020094954563759062 0.055863609317903164 -0.06260394334122366
0.0320388347763076 0.06214010832433773 -0.05055614473464165
0.04398271498885613 0.06841660733077229 -0.03850834612805965
0.055926595201404666 0.07469310633720685 -0.026460547521477654
0.06787047541395319 0.08096960534364142 -0.014412748914895657
0.07981435562650173 0.08724610435007599 -0.0023649503083136444
-0.037728789685001124 0.04563531010216654 -0.10858436646856605
-0.025784909472452586 0.05191180910860111 -0.09653656786198404
-0.013841029259904061 0.05818830811503567 -0.08448876925540205
-0.0018971490473555237 0.06446480712147024 -0.07244097064882005
0.010046731165193015 0.0707413061279048 -0.06039317204223805
0.021990611377741547 0.07701780513433937 -0.04834537343565605
0.03393449159029008 0.08329430414077393 -0.03629757482907405
0.045878371802838616 0.0895708031472085 -0.024249776222492053
0.05782225201538714 0.09584730215364307 -0.012201977615910057
0.06976613222793569 0.10212380116007763 -0.0001541790093280441
-0.047777013083567174 0.06051300691216817 -0.10637359516958045
-0.035833132871018636 0.06678950591860275 -0.09432579656299844
-0.02388925265847011 0.0730660049250373 -0.08227799795641645
-0.011945372445921573 0.07934250393147187 -0.07023019934983445
-1.4922333730356187e-06 0.08561900293790643 -0.05818240074325245
0.011942387979175503 0.091895501944341 -0.04613460213667045
0.02388626819172403 0.09817200095077556 -0.03408680353008845
0.035830148404272566 0.10444849995721013 -0.022039004923506453
0.0477740286168211 0.1107249989636447 -0.009991206316924456
0.05971790882936964 0.11700149797007926 0.0020565922896575565
-0.057825236482133224 0.07539070372216983 -0.10416282387059485
-0.04588135626958467 0.0816672027286044 -0.09211502526401284
-0.03393747605703615 0.08794370173503896 -0.08006722665743085
-0.021993595844487623 0.09422020074147353 -0.06801942805084885
-0.010049715631939085 0.10049669974790809 -0.05597162944426685
0.0018941645806094525 0.10677319875434266 -0.04392383083768485
0.013838044793157981 0.11304969776077722 -0.03187603223110285
0.02578192500570652 0.11932619676721179 -0.019828233624520852
0.03772580521825505 0.12560269577364636 -0.007780435017938856
0.04966968543080359 0.13187919478008092 0.0042673635886431565
-0.04966968543080359 -0.13187919478008092 -0.0042673635886431565
-0.03772580521825505 -0.12560269577364636 0.007780435017938856
-0.025781925005706523 -0.11932619676721179 0.019828233624520845
-0.013838044793157988 -0.11304969776077722 0.031876032231102844
-0.0018941645806094525 -0.10677319875434266 0.04392383083768485
0.010049715631939085 -0.10049669974790809 0.05597162944426685
0.02199359584448761 -0.09422020074147353 0.06801942805084885
0.03393747605703615 -0.08794370173503896 0.08006722665743084
0.04588135626958467 -0.0816672027286044 0.09211502526401284
0.057825236482133224 -0.07539070372216983 0.10416282387059485
-0.05971790882936964 -0.11700149797007926 -0.0020565922896575565
-0.0477740286168211 -0.1107249989636447 0.009991206316924456
-0.03583014840427257 -0.10444849995721013 0.022039004923506446
-0.023886268191724038 -0.09817200095077556 0.034086803530088444
-0.011942387979175503 -0.091895501944341 0.04613460213667045
1.4922333730356187e-06 -0.08561900293790643 0.05818240074325245
0.01194537244592156 -0.07934250393147187 0.07023019934983445
0.023889252658470098 -0.0730660049250373 0.08227799795641645
0.035833132871018636 -0.06678950591860275 0.09432579656299844
0.047777013083567174 -0.06051300691216817 0.10637359516958045
-0.06976613222793568 -0.10212380116007765 0.0001541790093280441
-0.05782225201538714 -0.09584730215364307 0.012201977615910057
-0.045878371802838616 -0.08957080314720851 0.024249776222492046
-0.03393449159029008 -0.08329430414077395 0.036297574829074045
-0.021990611377741547 -0.07701780513433938 0.04834537343565605
-0.010046731165193008 -0.07074130612790482 0.06039317204223805
0.0018971490473555237 -0.06446480712147025 0.07244097064882005
0.013841029259904061 -0.05818830811503568 0.08448876925540204
0.025784909472452586 -0.05191180910860112 0.09653656786198404
0.037728789685001124 -0.045635310102166544 0.10858436646856605
-0.07981435562650173 -0.087246104350076 0.0023649503083136444
-0.06787047541395319 -0.08096960534364142 0.014412748914895657
-0.05592659520140466 -0.07469310633720687 0.026460547521477647
-0.04398271498885613 -0.0684166073307723 0.038508346128059645
-0.03203883477630759 -0.06214010832433774 0.05055614473464165
-0.02009495456375906 -0.05586360931790317 0.06260394334122364
-0.008151074351210527 -0.049587110311468605 0.07465174194780565
0.003792805861338012 -0.04331061130503404 0.08669954055438764
0.015736686073886536 -0.03703411229859947 0.09874733916096964
0.027680566286435088 -0.0307576132921649 0.11079513776755165
-0.08986257902506778 -0.07236840754007436 0.004575721607299245
-0.07791869881251923 -0.06609190853363979 0.016623520213881256
-0.0659748185999707 -0.05981540952720523 0.028671318820463247
-0.05403093838742217 -0.053538910520770665 0.040719117427045246
-0.04208705817487364 -0.04726241151433609 0.05276691603362725
-0.030143177962325105 -0.040985912507901526 0.06481471464020924
-0.018199297749776574 -0.03470941350146697 0.07686251324679125
-0.006255417537228038 -0.028432914495032397 0.08891031185337324
0.005688462675320493 -0.022156415488597835 0.10095811045995524
0.017632342887869037 -0.015879916482163258 0.11300590906653725
-0.09991080242363383 -0.057490710730072725 0.006786492906284846
-0.08796692221108528 -0.051214211723638145 0.018834291512866856
-0.07602304199853675 -0.044937712717203586 0.030882090119448848
-0.06407916178598823 -0.03866121371076902 0.042929888726030846
-0.05213528157343968 -0.032384714704334454 0.05497768733261285
-0.04019140136089115 -0.026108215697899888 0.06702548593919484
-0.028247521148342624 -0.01983171669146532 0.07907328454577685
-0.016303640935794086 -0.013555217685030752 0.09112108315235884
-0.004359760723245557 -0.007278718678596194 0.10316888175894084
0.007584119489302988 -0.0010022196721616208 0.11521668036552285
-0.10995902582219987 -0.04261301392007109 0.008997264205270446
-0.09801514560965133 -0.036336514913636514 0.021045062811852457
-0.0860712653971028 -0.030060015907201955 0.03309286141843445
-0.07412738518455426 -0.02378351690076739 0.045140660025016446
-0.062183504972005726 -0.01750701789433282 0.057188458631598445
-0.050239624759457195 -0.011230518887898253 0.06923625723818044
-0.038295744546908664 -0.004954019881463688 0.08128405584476245
-0.026351864334360126 0.0013224791249708781 0.09333185445134444
-0.014407984121811601 0.007598978131405444 0.10537965305792645
-0.002464103909263055 0.013875477137840011 0.11742745166450845
-0.12000724922076592 -0.027735317110069442 0.011208035504256047
-0.10806336900821738 -0.02145881810363487 0.023255834110838057
-0.09611948879566885 -0.01518231909720031 0.03530363271742005
-0.08417560858312031 -0.00890582009076574 0.04735143132400205
-0.07223172837057178 -0.002629321084331175 0.059399229930584045
-0.060287848158023245 0.003647177922103391 0.07144702853716604
-0.048343967945474714 0.009923676928537958 0.08349482714374805
-0.036400087732926176 0.016200175934972524 0.09554262575033004
-0.024456207520377648 0.02247667494140709 0.10759042435691205
-0.012512327307829103 0.028753173947841656 0.11963822296349405
-0.13005547261933195 -0.012857620300067811 0.013418806803241647
-0.11811159240678343 -0.006581121293633239 0.025466605409823657
-0.1061677121942349 -0.0003046222871986761 0.03751440401640565
-0.09422383198168637 0.00597187671923589 0.04956220262298765
-0.08227995176913783 0.012248375725670457 0.061610001229569646
-0.07033607155658929 0.018524874732105023 0.07365779983615164
-0.05839219134404076 0.02480137373853959 0.08570559844273365
-0.04644831113149222 0.031077872744974155 0.09775339704931564
-0.034504430918943695 0.03735437175140872 0.10980119565589765
-0.02256055070639515 0.04363087075784328 0.12184899426247965
-0.14010369601789802 0.0020200765099338508 0.015629578102227246
-0.12815981580534946 0.008296575516368417 0.027677376708809258
-0.11621593559280094 0.014573074522802983 0.03972517531539125
-0.10427205538025242 0.02084957352923755 0.05177297392197325
-0.09232817516770388 0.027126072535672115 0.06382077252855525
-0.08038429495515534 0.03340257154210668 0.07586857113513724
-0.06844041474260681 0.039679070548541244 0.08791636974171925
-0.05649653453005827 0.04595556955497581 0.09996416834830124
-0.044552654317509745 0.052232068561410376 0.11201196695488325
-0.0326087741049612 0.05850856756784494 0.12405976556146525
