# .PCD v0.7 - Point Cloud Data file format
VERSION 0.7
FIELDS x y z
SIZE 4 4 4
TYPE F F F
COUNT 1 1 1
WIDTH 600
HEIGHT 1
VIEWPOINT 0 0 0 1 0 0 0
POINTS 600
DATA ascii
-0.154399802079155 -0.03590795470388546 -0.017373656004234274
-0.14450706411277453 -0.02110668701693894 -0.027456595020800258
-0.13461432614639407 -0.006305419329992431 -0.03753953403736623
-0.12472158818001361 0.008495848356954088 -0.047622473053932204
-0.11482885021363315 0.02329711604390061 -0.05770541207049818
-0.10493611224725269 0.03809838373084713 -0.06778835108706416
-0.09504337428087223 0.05289965141779364 -0.07787129010363013
-0.08515063631449177 0.06770091910474016 -0.08795422912019611
-0.07525789834811131 0.08250218679168668 -0.09803716813676208
-0.06536516038173085 0.0973034544786332 -0.10812010715332807
-0.14555335848052622 -0.029930951912986507 7.98628993498288e-05
-0.13566062051414576 -0.015129684226039981 -0.010003076117216155
-0.1257678825477653 -0.00032841653909347407 -0.020086015133782126
-0.11587514458138484 0.014472851147853046 -0.030168954150348103
-0.10598240661500438 0.029274118834799568 -0.04025189316691408
-0.09608966864862392 0.044075386521746085 -0.050334832183480054
-0.08619693068224347 0.05887665420869259 -0.06041777120004603
-0.07630419271586301 0.07367792189563911 -0.07050071021661201
-0.06641145474948255 0.08847918958258563 -0.08058364923317798
-0.056518716783102094 0.10328045726953215 -0.09066658824974397
-0.13670691488189748 -0.023953949122087557 0.017533381802933914
-0.12681417691551702 -0.009152681435141028 0.0074504427863679315
-0.11692143894913655 0.005648586251805477 -0.0026324962301980384
-0.10702870098275609 0.020449853938751997 -0.012715435246764014
-0.09713596301637563 0.03525112162569852 -0.022798374263329993
-0.08724322504999517 0.05005238931264504 -0.03288131327989597
-0.07735048708361472 0.06485365699959154 -0.04296425229646194
-0.06745774911723426 0.07965492468653806 -0.053047191313027924
-0.0575650111508538 0.09445619237348458 -0.0631301303295939
-0.04767227318447334 0.1092574600604311 -0.07321306934615988
-0.12786047128326872 -0.0179769463311886 0.03498690070651801
-0.11796773331688826 -0.003175678644242075 0.02490396168995203
-0.1080749953505078 0.011625589042704432 0.014821022673386057
-0.09818225738412734 0.026426856729650953 0.004738083656820081
-0.08828951941774688 0.04122812441659747 -0.005344855359745896
-0.07839678145136642 0.05602939210354399 -0.015427794376311874
-0.06850404348498597 0.0708306597904905 -0.025510733392877846
-0.0586113055186055 0.08563192747743702 -0.035593672409443826
-0.04871856755222504 0.10043319516438354 -0.0456766114260098
-0.03882582958584458 0.11523446285133006 -0.055759550442575787
-0.11901402768463996 -0.011999943540289647 0.05244041961010211
-0.1091212897182595 0.0028013241466568807 0.042357480593536126
-0.09922855175187904 0.01760259183360339 0.032274541576970156
-0.08933581378549858 0.03240385952054991 0.02219160256040418
-0.07944307581911812 0.04720512720749643 0.012108663543838202
-0.06955033785273766 0.06200639489444295 0.002025724527272225
-0.0596575998863572 0.07680766258138945 -0.008057214489293748
-0.04976486191997674 0.09160893026833597 -0.018140153505859728
-0.03987212395359628 0.10641019795528249 -0.0282230925224257
-0.029979385987215824 0.12121146564222901 -0.03830603153899169
-0.1101675840860112 -0.006022940749390691 0.06989393851368621
-0.10027484611963074 0.008778326937555836 0.059810999497120224
-0.09038210815325028 0.02357959462450234 0.049728060480554254
-0.08048937018686982 0.03838086231144886 0.03964512146398828
-0.07059663222048936 0.05318212999839538 0.0295621824474223
-0.0607038942541089 0.06798339768534191 0.019479243430856323
-0.05081115628772845 0.08278466537228842 0.00939630441429035
-0.04091841832134799 0.09758593305923494 -0.0006866346022756302
-0.031025680354967524 0.11238720074618146 -0.010769573618841604
-0.021132942388587064 0.12718846843312798 -0.020852512635407588
-0.10132114048738244 -4.593795849174004e-05 0.08734745741727029
-0.09142840252100198 0.014755329728454787 0.07726451840070431
-0.08153566455462152 0.029556597415401294 0.06718157938413834
-0.07164292658824106 0.044357865102347814 0.05709864036757236
-0.06175018862186061 0.059159132789294334 0.047015701351006384
-0.05185745065548015 0.07396040047624086 0.03693276233444041
-0.041964712689099695 0.08876166816318737 0.026849823317874437
-0.032071974722719235 0.10356293585013389 0.016766884301308457
-0.02217923675633877 0.11836420353708041 0.006683945284742483
-0.012286498789958312 0.13316547122402692 -0.0033989937318235006
-0.09247469688875369 0.005931064832407217 0.1048009763208544
-0.08258195892237323 0.020732332519353743 0.09471803730428842
-0.07268922095599277 0.03553360020630025 0.08463509828772245
-0.06279648298961231 0.050334867893246774 0.07455215927115647
-0.05290374502323185 0.0651361355801933 0.0644692202545905
-0.04301100705685139 0.07993740326713981 0.05438628123802451
-0.033118269090470935 0.09473867095408632 0.04430334222145854
-0.023225531124090475 0.10953993864103284 0.03422040320489256
-0.013332793157710012 0.12434120632797936 0.024137464188326584
-0.003440055191329552 0.13914247401492588 0.0140545251717606
-0.08362825329012494 0.01190806762330617 0.12225449522443849
-0.07373551532374448 0.026709335310252696 0.1121715562078725
-0.06384277735736402 0.041510602997199206 0.10208861719130653
-0.05395003939098355 0.056311870684145726 0.09200567817474056
-0.04405730142460309 0.07111313837109225 0.08192273915817458
-0.03416456345822263 0.08591440605803877 0.07183980014160861
-0.02427182549184218 0.10071567374498527 0.06175686112504263
-0.014379087525461718 0.1155169414319318 0.05167392210847665
-0.004486349559081258 0.13031820911887831 0.04159098309191068
0.005406388407299203 0.14511947680582482 0.031508044075344695
-0.07478180969149617 0.017885070414205128 0.13970801412802258
-0.06488907172511571 0.03268633810115165 0.1296250751114566
-0.05499633375873525 0.04748760578809816 0.11954213609489064
-0.04510359579235479 0.06228887347504468 0.10945919707832466
-0.03521085782597433 0.0770901411619912 0.09937625806175869
-0.025318119859593872 0.09189140884893772 0.0892933190451927
-0.015425381893213417 0.10669267653588423 0.07921038002862674
-0.005532643926832956 0.12149394422283075 0.06912744101206075
0.004360094039547504 0.13629521190977728 0.05904450199549478
0.014252832005927965 0.1510964795967238 0.0489615629789288
-0.014252832005927965 -0.1510964795967238 -0.0489615629789288
-0.004360094039547504 -0.13629521190977728 -0.05904450199549478
0.005532643926832949 -0.12149394422283076 -0.06912744101206075
0.01542538189321341 -0.10669267653588424 -0.07921038002862672
0.025318119859593872 -0.09189140884893772 -0.0892933190451927
0.03521085782597433 -0.0770901411619912 -0.09937625806175869
0.04510359579235479 -0.06228887347504469 -0.10945919707832466
0.05499633375873525 -0.047487605788098165 -0.11954213609489064
0.06488907172511571 -0.03268633810115165 -0.1296250751114566
0.07478180969149617 -0.017885070414205128 -0.13970801412802258
-0.005406388407299203 -0.14511947680582482 -0.031508044075344695
0.004486349559081258 -0.13031820911887831 -0.04159098309191068
0.014379087525461711 -0.11551694143193181 -0.05167392210847665
0.02427182549184217 -0.10071567374498529 -0.061756861125042625
0.03416456345822263 -0.08591440605803877 -0.07183980014160861
0.04405730142460309 -0.07111313837109225 -0.08192273915817458
0.05395003939098355 -0.05631187068414574 -0.09200567817474055
0.06384277735736402 -0.04151060299719921 -0.10208861719130653
0.07373551532374448 -0.026709335310252696 -0.1121715562078725
0.08362825329012494 -0.01190806762330617 -0.12225449522443849
0.003440055191329549 -0.13914247401492588 -0.014054525171760606
0.013332793157710009 -0.12434120632797936 -0.02413746418832659
0.023225531124090464 -0.10953993864103286 -0.03422040320489256
0.03311826909047092 -0.09473867095408633 -0.04430334222145854
0.04301100705685138 -0.07993740326713981 -0.05438628123802452
0.05290374502323184 -0.0651361355801933 -0.0644692202545905
0.06279648298961231 -0.05033486789324679 -0.07455215927115647
0.07268922095599277 -0.03553360020630026 -0.08463509828772245
0.08258195892237323 -0.020732332519353747 -0.09471803730428842
0.09247469688875369 -0.0059310648324072185 -0.1048009763208544
0.012286498789958307 -0.13316547122402692 0.003398993731823489
0.022179236756338767 -0.11836420353708041 -0.0066839452847424945
0.03207197472271922 -0.1035629358501339 -0.016766884301308464
0.04196471268909968 -0.08876166816318738 -0.026849823317874444
0.05185745065548014 -0.07396040047624086 -0.03693276233444042
0.0617501886218606 -0.05915913278929434 -0.0470157013510064
0.07164292658824106 -0.044357865102347835 -0.057098640367572374
0.08153566455462152 -0.029556597415401304 -0.06718157938413835
0.09142840252100198 -0.01475532972845479 -0.07726451840070432
0.10132114048738244 4.593795849173599e-05 -0.0873474574172703
0.021132942388587064 -0.12718846843312798 0.020852512635407588
0.031025680354967524 -0.11238720074618146 0.010769573618841604
0.04091841832134798 -0.09758593305923495 0.0006866346022756336
0.05081115628772844 -0.08278466537228843 -0.009396304414290345
0.0607038942541089 -0.06798339768534191 -0.019479243430856323
0.07059663222048936 -0.05318212999839538 -0.0295621824474223
0.08048937018686982 -0.038380862311448875 -0.03964512146398828
0.09038210815325028 -0.023579594624502348 -0.049728060480554254
0.10027484611963074 -0.008778326937555836 -0.059810999497120224
0.1101675840860112 0.006022940749390691 -0.06989393851368621
0.029979385987215824 -0.12121146564222901 0.03830603153899169
0.03987212395359628 -0.10641019795528249 0.0282230925224257
0.049764861919976734 -0.09160893026833598 0.01814015350585973
0.059657599886357195 -0.07680766258138946 0.008057214489293753
0.06955033785273766 -0.06200639489444295 -0.002025724527272225
0.07944307581911812 -0.04720512720749643 -0.012108663543838202
0.08933581378549858 -0.03240385952054992 -0.022191602560404176
0.09922855175187904 -0.017602591833603395 -0.032274541576970156
0.1091212897182595 -0.0028013241466568807 -0.042357480593536126
0.11901402768463996 0.011999943540289647 -0.05244041961010211
0.03882582958584457 -0.11523446285133006 0.05575955044257577
0.048718567552225034 -0.10043319516438354 0.04567661142600979
0.05861130551860549 -0.08563192747743703 0.03559367240944382
0.06850404348498595 -0.07083065979049051 0.02551073339287784
0.07839678145136642 -0.056029392103544 0.015427794376311862
0.08828951941774688 -0.04122812441659748 0.005344855359745885
0.09818225738412734 -0.02642685672965097 -0.0047380836568200885
0.1080749953505078 -0.011625589042704443 -0.014821022673386069
0.11796773331688826 0.0031756786442420706 -0.02490396168995204
0.12786047128326872 0.017976946331188598 -0.034986900706518026
0.047672273184473334 -0.1092574600604311 0.07321306934615987
0.057565011150853794 -0.09445619237348458 0.06313013032959389
0.06745774911723425 -0.07965492468653808 0.053047191313027924
0.07735048708361471 -0.06485365699959156 0.04296425229646194
0.08724322504999517 -0.05005238931264504 0.03288131327989596
0.09713596301637563 -0.03525112162569852 0.022798374263329986
0.10702870098275609 -0.020449853938752014 0.012715435246764013
0.11692143894913655 -0.005648586251805486 0.0026324962301980323
0.12681417691551702 0.009152681435141027 -0.007450442786367938
0.13670691488189748 0.023953949122087554 -0.01753338180293392
0.056518716783102094 -0.10328045726953215 0.09066658824974397
0.06641145474948255 -0.08847918958258563 0.08058364923317798
0.076304192715863 -0.07367792189563913 0.07050071021661201
0.08619693068224346 -0.058876654208692605 0.06041777120004604
0.09608966864862392 -0.044075386521746085 0.050334832183480054
0.10598240661500438 -0.029274118834799568 0.04025189316691408
0.11587514458138484 -0.01447285114785306 0.030168954150348107
0.1257678825477653 0.0003284165390934671 0.020086015133782126
0.13566062051414576 0.015129684226039981 0.010003076117216155
0.14555335848052622 0.029930951912986507 -7.98628993498288e-05
0.06536516038173085 -0.0973034544786332 0.10812010715332807
0.07525789834811131 -0.08250218679168668 0.09803716813676208
0.08515063631449177 -0.06770091910474017 0.08795422912019611
0.09504337428087223 -0.05289965141779365 0.07787129010363014
0.10493611224725269 -0.03809838373084713 0.06778835108706416
0.11482885021363315 -0.02329711604390061 0.05770541207049818
0.12472158818001361 -0.008495848356954102 0.04762247305393221
0.13461432614639407 0.0063054193299924245 0.03753953403736623
0.14450706411277453 0.02110668701693894 0.027456595020800258
0.154399802079155 0.03590795470388546 0.017373656004234274
-0.154399802079155 -0.03590795470388546 -0.017373656004234274
-0.13882791651546308 -0.048706679691978616 -0.020883423445867
-0.1232560309517712 -0.061505404680071755 -0.02439319088749972
-0.10768414538807931 -0.07430412966816491 -0.027902958329132442
-0.09211225982438742 -0.08710285465625806 -0.03141272577076517
-0.07654037426069553 -0.0999015796443512 -0.0349224932123979
-0.060968488697003644 -0.11270030463244435 -0.03843226065403062
-0.04539660313331175 -0.1254990296205375 -0.041942028095663345
-0.029824717569619862 -0.13829775460863064 -0.045451795537296065
-0.014252832005927965 -0.1510964795967238 -0.0489615629789288
-0.14555335848052622 -0.029930951912986507 7.98628993498288e-05
-0.12998147291683432 -0.04272967690107966 -0.0034299045422828984
-0.11440958735314244 -0.0555284018891728 -0.006939671983915619
-0.09883770178945055 -0.06832712687726594 -0.01044943942554834
-0.08326581622575865 -0.0811258518653591 -0.013959206867181067
-0.06769393066206676 -0.09392457685345225 -0.017468974308813796
-0.05212204509837488 -0.1067233018415454 -0.020978741750446516
-0.03655015953468299 -0.11952202682963854 -0.024488509192079243
-0.020978273970991102 -0.13232075181773167 -0.027998276633711964
-0.005406388407299203 -0.14511947680582482 -0.031508044075344695
-0.13670691488189748 -0.023953949122087557 0.017533381802933914
-0.12113502931820556 -0.03675267411018071 0.014023614361301189
-0.10556314375451369 -0.04955139909827385 0.010513846919668468
-0.0899912581908218 -0.062350124086367 0.007004079478035747
-0.0744193726271299 -0.07514884907446015 0.0034943120364030198
-0.058847487063438016 -0.0879475740625533 -1.5455405229707514e-05
-0.04327560149974613 -0.10074629905064644 -0.003525222846862428
-0.027703715936054234 -0.11354502403873959 -0.007034990288495155
-0.01213183037236235 -0.12634374902683274 -0.010544757730127875
0.003440055191329549 -0.13914247401492588 -0.014054525171760606
-0.12786047128326872 -0.0179769463311886 0.03498690070651801
-0.11228858571957681 -0.030775671319281755 0.031477133264885285
-0.09671670015588493 -0.0435743963073749 0.027967365823252564
-0.08114481459219304 -0.056373121295468044 0.024457598381619844
-0.06557292902850115 -0.0691718462835612 0.020947830939987117
-0.050001043464809256 -0.08197057127165434 0.01743806349835439
-0.03442915790111738 -0.09476929625974749 0.013928296056721667
-0.018857272337425478 -0.10756802124784064 0.01041852861508894
-0.003285386773733593 -0.12036674623593378 0.00690876117345622
0.012286498789958307 -0.13316547122402692 0.003398993731823489
-0.11901402768463996 -0.011999943540289647 0.05244041961010211
-0.10344214212094806 -0.0247986685283828 0.04893065216846938
-0.08787025655725618 -0.03759739351647594 0.04542088472683666
-0.07229837099356429 -0.050396118504569085 0.04191111728520394
-0.05672648542987239 -0.06319484349266224 0.038401349843571214
-0.041154599866180495 -0.07599356848075539 0.03489158240193849
-0.025582714302488617 -0.08879229346884854 0.031381814960305766
-0.01001082873879672 -0.10159101845694168 0.02787204751867304
0.005561056824895165 -0.11438974344503483 0.02436228007704032
0.021132942388587064 -0.12718846843312798 0.020852512635407588
-0.1101675840860112 -0.006022940749390691 0.06989393851368621
-0.09459569852231929 -0.018821665737483846 0.06638417107205348
-0.07902381295862741 -0.031620390725576986 0.06287440363042077
-0.06345192739493552 -0.04441911571367013 0.05936463618878804
-0.047880041831243635 -0.057217840701763285 0.05585486874715531
-0.03230815626755174 -0.07001656568985642 0.052345101305522584
-0.016736270703859857 -0.08281529067794957 0.048835333863889864
-0.0011643851401679619 -0.09561401566604272 0.04532556642225714
0.014407500423523923 -0.10841274065413586 0.041815798980624416
0.029979385987215824 -0.12121146564222901 0.03830603153899169
-0.10132114048738244 -4.593795849174004e-05 0.08734745741727029
-0.08574925492369054 -0.012844662946584894 0.08383768997563756
-0.07017736935999866 -0.025643387934678033 0.08032792253400485
-0.054605483796306774 -0.03844211292277118 0.07681815509237212
-0.03903359823261488 -0.05124083791086433 0.0733083876507394
-0.023461712668922986 -0.06403956289895747 0.06979862020910667
-0.007889827105231105 -0.07683828788705062 0.06628885276747395
0.0076820584584607905 -0.08963701287514377 0.06277908532584123
0.023253944022152678 -0.10243573786323691 0.0592693178842085
0.03882582958584457 -0.11523446285133006 0.05575955044257577
-0.09247469688875369 0.005931064832407217 0.1048009763208544
-0.07690281132506178 -0.006867660155685937 0.10129120887922168
-0.061330925761369906 -0.019666385143779077 0.09778144143758895
-0.045759040197678014 -0.03246511013187222 0.09427167399595623
-0.03018715463398612 -0.04526383511996537 0.09076190655432351
-0.014615269070294227 -0.05806256010805852 0.08725213911269078
0.0009566164933976545 -0.07086128509615167 0.08374237167105805
0.01652850205708955 -0.08366001008424481 0.08023260422942532
0.032100387620781434 -0.09645873507233796 0.07672283678779261
0.047672273184473334 -0.1092574600604311 0.07321306934615987
-0.08362825329012494 0.01190806762330617 0.12225449522443849
-0.06805636772643303 -0.0008906573647869836 0.11874472778280576
-0.052484482162741146 -0.013689382352880123 0.11523496034117305
-0.036912596599049254 -0.02648810734097327 0.11172519289954032
-0.021340711035357365 -0.03928683232906642 0.10821542545790759
-0.005768825471665472 -0.05208555731715957 0.10470565801627486
0.00980306009202641 -0.06488428230525271 0.10119589057464215
0.025374945655718305 -0.07768300729334586 0.09768612313300942
0.040946831219410194 -0.090481732281439 0.0941763556913767
0.056518716783102094 -0.10328045726953215 0.09066658824974397
-0.07478180969149617 0.017885070414205128 0.13970801412802258
-0.059209924127804264 0.005086345426111974 0.13619824668638986
-0.043638038564112386 -0.007712379561981166 0.13268847924475716
-0.028066153000420497 -0.02051110455007431 0.12917871180312443
-0.012494267436728603 -0.03330982953816747 0.1256689443614917
0.0030776181269632896 -0.046108554526260614 0.12215917691985897
0.01864950369065517 -0.05890727951435376 0.11864940947822625
0.03422138925434707 -0.07170600450244691 0.11513964203659352
0.049793274818038954 -0.08450472949054005 0.1116298745949608
0.06536516038173085 -0.0973034544786332 0.10812010715332807
-0.06536516038173085 0.0973034544786332 -0.10812010715332807
-0.049793274818038954 0.08450472949054005 -0.1116298745949608
-0.034221389254347076 0.07170600450244691 -0.11513964203659352
-0.01864950369065518 0.05890727951435376 -0.11864940947822625
-0.0030776181269632896 0.046108554526260614 -0.12215917691985897
0.012494267436728603 0.03330982953816747 -0.1256689443614917
0.028066153000420483 0.020511104550074318 -0.12917871180312443
0.043638038564112386 0.007712379561981173 -0.13268847924475716
0.059209924127804264 -0.005086345426111974 -0.13619824668638986
0.07478180969149617 -0.017885070414205128 -0.13970801412802258
-0.056518716783102094 0.10328045726953215 -0.09066658824974397
-0.040946831219410194 0.090481732281439 -0.0941763556913767
-0.025374945655718312 0.07768300729334586 -0.09768612313300942
-0.00980306009202642 0.06488428230525271 -0.10119589057464214
0.005768825471665472 0.05208555731715957 -0.10470565801627486
0.021340711035357365 0.03928683232906642 -0.10821542545790759
0.03691259659904924 0.026488107340973278 -0.11172519289954032
0.052484482162741146 0.01368938235288013 -0.11523496034117305
0.06805636772643303 0.0008906573647869836 -0.11874472778280576
0.08362825329012494 -0.01190806762330617 -0.12225449522443849
-0.04767227318447334 0.1092574600604311 -0.07321306934615988
-0.03210038762078144 0.09645873507233796 -0.07672283678779261
-0.01652850205708956 0.08366001008424481 -0.08023260422942532
-0.000956616493397668 0.07086128509615167 -0.08374237167105805
0.014615269070294224 0.05806256010805852 -0.08725213911269078
0.030187154633986118 0.04526383511996537 -0.09076190655432351
0.04575904019767799 0.03246511013187223 -0.09427167399595622
0.0613309257613699 0.01966638514377908 -0.09778144143758895
0.07690281132506178 0.006867660155685935 -0.10129120887922168
0.09247469688875369 -0.0059310648324072185 -0.1048009763208544
-0.03882582958584458 0.11523446285133006 -0.055759550442575787
-0.02325394402215268 0.10243573786323691 -0.059269317884208514
-0.0076820584584608035 0.08963701287514377 -0.06277908532584124
0.00788982710523109 0.07683828788705062 -0.06628885276747395
0.023461712668922982 0.06403956289895747 -0.06979862020910668
0.039033598232614874 0.051240837910864326 -0.07330838765073941
0.05460548379630675 0.03844211292277118 -0.07681815509237214
0.07017736935999866 0.025643387934678036 -0.08032792253400486
0.08574925492369054 0.01284466294658489 -0.08383768997563758
0.10132114048738244 4.593795849173599e-05 -0.0873474574172703
-0.029979385987215824 0.12121146564222901 -0.03830603153899169
-0.014407500423523923 0.10841274065413586 -0.041815798980624416
0.001164385140167955 0.09561401566604272 -0.04532556642225714
0.016736270703859846 0.08281529067794957 -0.04883533386388986
0.03230815626755174 0.07001656568985642 -0.052345101305522584
0.047880041831243635 0.057217840701763285 -0.05585486874715531
0.0634519273949355 0.04441911571367014 -0.05936463618878803
0.07902381295862741 0.03162039072557699 -0.06287440363042077
0.09459569852231929 0.018821665737483846 -0.06638417107205348
0.1101675840860112 0.006022940749390691 -0.06989393851368621
-0.021132942388587064 0.12718846843312798 -0.020852512635407588
-0.005561056824895165 0.11438974344503483 -0.02436228007704032
0.010010828738796712 0.10159101845694168 -0.02787204751867304
0.025582714302488607 0.08879229346884854 -0.03138181496030576
0.041154599866180495 0.07599356848075539 -0.03489158240193849
0.05672648542987239 0.06319484349266224 -0.038401349843571214
0.07229837099356427 0.05039611850456909 -0.041911117285203935
0.08787025655725618 0.037597393516475945 -0.04542088472683666
0.10344214212094806 0.0247986685283828 -0.04893065216846938
0.11901402768463996 0.011999943540289647 -0.05244041961010211
-0.012286498789958312 0.13316547122402692 -0.0033989937318235006
0.003285386773733587 0.12036674623593378 -0.006908761173456231
0.018857272337425467 0.10756802124784064 -0.010418528615088952
0.034429157901117356 0.09476929625974749 -0.013928296056721672
0.05000104346480925 0.08197057127165434 -0.0174380634983544
0.06557292902850115 0.0691718462835612 -0.020947830939987127
0.08114481459219303 0.056373121295468044 -0.024457598381619847
0.09671670015588493 0.0435743963073749 -0.027967365823252575
0.11228858571957681 0.03077567131928175 -0.0314771332648853
0.12786047128326872 0.017976946331188598 -0.034986900706518026
-0.003440055191329552 0.13914247401492588 0.0140545251717606
0.012131830372362347 0.12634374902683274 0.01054475773012787
0.027703715936054224 0.11354502403873959 0.007034990288495149
0.043275601499746116 0.10074629905064644 0.003525222846862429
0.05884748706343801 0.0879475740625533 1.5455405229701595e-05
0.0744193726271299 0.07514884907446015 -0.003494312036403026
0.08999125819082178 0.062350124086367004 -0.007004079478035746
0.10556314375451369 0.04955139909827386 -0.010513846919668474
0.12113502931820556 0.03675267411018071 -0.014023614361301194
0.13670691488189748 0.023953949122087554 -0.01753338180293392
0.005406388407299203 0.14511947680582482 0.031508044075344695
0.020978273970991102 0.13232075181773167 0.027998276633711964
0.036550159534682984 0.11952202682963854 0.024488509192079243
0.052122045098374876 0.1067233018415454 0.020978741750446523
0.06769393066206676 0.09392457685345225 0.017468974308813796
0.08326581622575865 0.0811258518653591 0.013959206867181067
0.09883770178945053 0.06832712687726596 0.010449439425548346
0.11440958735314244 0.05552840188917281 0.006939671983915619
0.12998147291683432 0.04272967690107966 0.0034299045422828984
0.14555335848052622 0.029930951912986507 -7.98628993498288e-05
0.014252832005927965 0.1510964795967238 0.0489615629789288
0.029824717569619862 0.13829775460863064 0.045451795537296065
0.045396603133311744 0.1254990296205375 0.041942028095663345
0.06096848869700364 0.11270030463244435 0.038432260654030624
0.07654037426069553 0.0999015796443512 0.0349224932123979
0.09211225982438742 0.08710285465625806 0.03141272577076517
0.1076841453880793 0.07430412966816491 0.02790295832913245
0.1232560309517712 0.06150540468007176 0.02439319088749972
0.13882791651546308 0.048706679691978616 0.020883423445867
0.154399802079155 0.03590795470388546 0.017373656004234274
-0.154399802079155 -0.03590795470388546 -0.017373656004234274
-0.13882791651546308 -0.048706679691978616 -0.020883423445867
-0.1232560309517712 -0.061505404680071755 -0.02439319088749972
-0.10768414538807931 -0.07430412966816491 -0.027902958329132442
-0.09211225982438742 -0.08710285465625806 -0.03141272577076517
-0.07654037426069553 -0.0999015796443512 -0.0349224932123979
-0.060968488697003644 -0.11270030463244435 -0.03843226065403062
-0.04539660313331175 -0.1254990296205375 -0.041942028095663345
-0.029824717569619862 -0.13829775460863064 -0.045451795537296065
-0.014252832005927965 -0.1510964795967238 -0.0489615629789288
-0.14450706411277453 -0.02110668701693894 -0.027456595020800258
-0.12893517854908262 -0.03390541200503209 -0.030966362462432985
-0.11336329298539075 -0.04670413699312523 -0.034476129904065705
-0.09779140742169885 -0.059502861981218375 -0.037985897345698426
-0.08221952185800696 -0.07230158696931153 -0.04149566478733115
-0.06664763629431507 -0.08510031195740468 -0.04500543222896388
-0.05107575073062318 -0.09789903694549781 -0.0485151996705966
-0.03550386516693129 -0.11069776193359096 -0.05202496711222933
-0.019931979603239402 -0.1234964869216841 -0.055534734553862056
-0.004360094039547504 -0.13629521190977728 -0.05904450199549478
-0.13461432614639407 -0.006305419329992431 -0.03753953403736623
-0.11904244058270216 -0.019104144318085586 -0.041049301478998955
-0.10347055501901029 -0.03190286930617872 -0.044559068920631675
-0.08789866945531839 -0.04470159429427187 -0.0480688363622644
-0.0723267838916265 -0.05750031928236502 -0.05157860380389712
-0.05675489832793461 -0.07029904427045817 -0.05508837124552985
-0.04118301276424273 -0.08309776925855131 -0.05859813868716257
-0.02561112720055083 -0.09589649424664445 -0.0621079061287953
-0.010039241636858947 -0.1086952192347376 -0.06561767357042803
0.005532643926832949 -0.12149394422283076 -0.06912744101206075
-0.12472158818001361 0.008495848356954088 -0.047622473053932204
-0.1091497026163217 -0.004302876631139064 -0.05113224049556493
-0.09357781705262982 -0.017101601619232205 -0.05464200793719765
-0.07800593148893793 -0.02990032660732535 -0.05815177537883038
-0.06243404592524605 -0.0426990515954185 -0.06166154282046311
-0.046862160361554155 -0.05549777658351165 -0.06517131026209583
-0.03129027479786227 -0.06829650157160479 -0.06868107770372855
-0.015718389234170373 -0.08109522655969795 -0.07219084514536128
-0.00014650367047848946 -0.0938939515477911 -0.075700612586994
0.01542538189321341 -0.10669267653588424 -0.07921038002862672
-0.11482885021363315 0.02329711604390061 -0.05770541207049818
-0.09925696464994124 0.010498391055807455 -0.06121517951213091
-0.08368507908624936 -0.0023003339322856834 -0.06472494695376363
-0.06811319352255747 -0.01509905892037883 -0.06823471439539636
-0.052541307958865587 -0.02789778390847198 -0.07174448183702908
-0.036969422395173694 -0.040696508896565134 -0.07525424927866181
-0.02139753683148181 -0.05349523388465827 -0.07876401672029452
-0.005825651267789915 -0.06629395887275143 -0.08227378416192725
0.00974623429590197 -0.07909268386084457 -0.08578355160355998
0.025318119859593872 -0.09189140884893772 -0.0892933190451927
-0.10493611224725269 0.03809838373084713 -0.06778835108706416
-0.08936422668356078 0.025299658742753976 -0.07129811852869689
-0.0737923411198689 0.012500933754660836 -0.07480788597032961
-0.05822045555617702 -0.0002977912334323095 -0.07831765341196234
-0.042648569992485126 -0.013096516221525462 -0.08182742085359505
-0.02707668442879323 -0.02589524120961861 -0.08533718829522778
-0.01150479886510135 -0.03869396619771175 -0.08884695573686051
0.004067086698590546 -0.0514926911858049 -0.09235672317849324
0.019638972262282433 -0.06429141617389805 -0.09586649062012596
0.03521085782597433 -0.0770901411619912 -0.09937625806175869
-0.09504337428087223 0.05289965141779364 -0.07787129010363013
-0.07947148871718034 0.04010092642970049 -0.08138105754526286
-0.06389960315348846 0.027302201441607343 -0.08489082498689558
-0.048327717589796565 0.014503476453514196 -0.08840059242852831
-0.03275583202610467 0.0017047514654210507 -0.09191035987016104
-0.017183946462412777 -0.011093973522672104 -0.09542012731179376
-0.0016120608987208998 -0.023892698510765243 -0.09892989475342648
0.013959824664971 -0.03669142349885839 -0.1024396621950592
0.029531710228662886 -0.04949014848695154 -0.10594942963669193
0.04510359579235479 -0.06228887347504469 -0.10945919707832466
-0.08515063631449177 0.06770091910474016 -0.08795422912019611
-0.06957875075079988 0.05490219411664701 -0.09146399656182884
-0.054006865187108 0.042103469128553866 -0.09497376400346157
-0.038434979623416105 0.029304744140460724 -0.0984835314450943
-0.02286309405972421 0.01650601915236757 -0.10199329888672701
-0.007291208496032318 0.0037072941642744247 -0.10550306632835973
0.00828067706765956 -0.00909143082381872 -0.10901283376999246
0.02385256263135147 -0.02189015581191187 -0.11252260121162519
0.03942444819504334 -0.03468888080000501 -0.11603236865325792
0.05499633375873525 -0.047487605788098165 -0.11954213609489064
-0.07525789834811131 0.08250218679168668 -0.09803716813676208
-0.059686012784419415 0.06970346180359352 -0.10154693557839481
-0.044114127220727536 0.05690473681550039 -0.10505670302002754
-0.02854224165703564 0.04410601182740724 -0.10856647046166026
-0.01297035609334375 0.03130728683931409 -0.11207623790329299
0.0026015294703481424 0.018508561851220937 -0.11558600534492572
0.018173415034040023 0.005709836863127799 -0.11909577278655843
0.033745300597731925 -0.007088888124965355 -0.12260554022819116
0.049317186161423804 -0.019887613113058502 -0.12611530766982387
0.06488907172511571 -0.03268633810115165 -0.1296250751114566
-0.06536516038173085 0.0973034544786332 -0.10812010715332807
-0.049793274818038954 0.08450472949054005 -0.1116298745949608
-0.034221389254347076 0.07170600450244691 -0.11513964203659352
-0.01864950369065518 0.05890727951435376 -0.11864940947822625
-0.0030776181269632896 0.046108554526260614 -0.12215917691985897
0.012494267436728603 0.03330982953816747 -0.1256689443614917
0.028066153000420483 0.020511104550074318 -0.12917871180312443
0.043638038564112386 0.007712379561981173 -0.13268847924475716
0.059209924127804264 -0.005086345426111974 -0.13619824668638986
0.07478180969149617 -0.017885070414205128 -0.13970801412802258
-0.07478180969149617 0.017885070414205128 0.13970801412802258
-0.059209924127804264 0.005086345426111974 0.13619824668638986
-0.043638038564112386 -0.007712379561981166 0.13268847924475716
-0.028066153000420497 -0.02051110455007431 0.12917871180312443
-0.012494267436728603 -0.03330982953816747 0.1256689443614917
0.0030776181269632896 -0.046108554526260614 0.12215917691985897
0.01864950369065517 -0.05890727951435376 0.11864940947822625
0.03422138925434707 -0.07170600450244691 0.11513964203659352
0.049793274818038954 -0.08450472949054005 0.1116298745949608
0.06536516038173085 -0.0973034544786332 0.10812010715332807
-0.06488907172511571 0.03268633810115165 0.1296250751114566
-0.049317186161423804 0.019887613113058502 0.12611530766982387
-0.033745300597731925 0.007088888124965362 0.12260554022819116
-0.018173415034040036 -0.005709836863127785 0.11909577278655845
-0.0026015294703481424 -0.018508561851220937 0.11558600534492572
0.01297035609334375 -0.03130728683931409 0.11207623790329299
0.02854224165703563 -0.04410601182740723 0.10856647046166026
0.04411412722072753 -0.05690473681550037 0.10505670302002754
0.059686012784419415 -0.06970346180359352 0.10154693557839481
0.07525789834811131 -0.08250218679168668 0.09803716813676208
-0.05499633375873525 0.04748760578809816 0.11954213609489064
-0.03942444819504334 0.034688880800005005 0.11603236865325792
-0.02385256263135147 0.02189015581191187 0.11252260121162519
-0.008280677067659574 0.009091430823818723 0.10901283376999246
0.007291208496032318 -0.0037072941642744316 0.10550306632835975
0.022863094059724205 -0.016506019152367577 0.10199329888672702
0.03843497962341609 -0.029304744140460717 0.0984835314450943
0.05400686518710798 -0.042103469128553866 0.09497376400346157
0.06957875075079988 -0.05490219411664701 0.09146399656182884
0.08515063631449177 -0.06770091910474017 0.08795422912019611
-0.04510359579235479 0.06228887347504468 0.10945919707832466
-0.029531710228662886 0.049490148486951525 0.10594942963669193
-0.013959824664971013 0.036691423498858386 0.10243966219505922
0.001612060898720879 0.023892698510765243 0.09892989475342649
0.01718394646241277 0.01109397352267209 0.09542012731179376
0.032755832026104666 -0.0017047514654210576 0.09191035987016104
0.048327717589796544 -0.014503476453514196 0.08840059242852831
0.06389960315348844 -0.02730220144160735 0.08489082498689558
0.07947148871718032 -0.040100926429700506 0.08138105754526287
0.09504337428087223 -0.05289965141779365 0.07787129010363014
-0.03521085782597433 0.0770901411619912 0.09937625806175869
-0.019638972262282433 0.06429141617389805 0.09586649062012596
-0.004067086698590553 0.051492691185804906 0.09235672317849324
0.01150479886510134 0.03869396619771176 0.08884695573686051
0.02707668442879323 0.02589524120961861 0.08533718829522778
0.042648569992485126 0.013096516221525462 0.08182742085359505
0.058220455556177005 0.0002977912334323199 0.07831765341196234
0.0737923411198689 -0.01250093375466083 0.07480788597032961
0.08936422668356078 -0.025299658742753976 0.07129811852869689
0.10493611224725269 -0.03809838373084713 0.06778835108706416
-0.025318119859593872 0.09189140884893772 0.0892933190451927
-0.00974623429590197 0.07909268386084457 0.08578355160355998
0.005825651267789908 0.06629395887275143 0.08227378416192725
0.0213975368314818 0.05349523388465828 0.07876401672029454
0.036969422395173694 0.040696508896565134 0.07525424927866181
0.052541307958865587 0.02789778390847198 0.07174448183702908
0.06811319352255747 0.015099058920378841 0.06823471439539636
0.08368507908624936 0.0023003339322856904 0.06472494695376363
0.09925696464994124 -0.010498391055807455 0.06121517951213091
0.11482885021363315 -0.02329711604390061 0.05770541207049818
-0.015425381893213417 0.10669267653588423 0.07921038002862674
0.00014650367047848252 0.09389395154779108 0.07570061258699401
0.01571838923417036 0.08109522655969793 0.07219084514536128
0.031290274797862255 0.06829650157160479 0.06868107770372855
0.04686216036155415 0.05549777658351164 0.06517131026209583
0.06243404592524604 0.04269905159541849 0.06166154282046311
0.07800593148893792 0.02990032660732535 0.058151775378830386
0.09357781705262981 0.0171016016192322 0.05464200793719766
0.1091497026163217 0.004302876631139054 0.05113224049556494
0.12472158818001361 -0.008495848356954102 0.04762247305393221
-0.005532643926832956 0.12149394422283075 0.06912744101206075
0.010039241636858943 0.1086952192347376 0.06561767357042803
0.02561112720055082 0.09589649424664445 0.062107906128795305
0.041183012764242716 0.08309776925855132 0.05859813868716258
0.05675489832793461 0.07029904427045816 0.05508837124552986
0.0723267838916265 0.057500319282365014 0.05157860380389713
0.08789866945531838 0.044701594294271875 0.0480688363622644
0.10347055501901029 0.03190286930617872 0.04455906892063168
0.11904244058270216 0.01910414431808558 0.041049301478998955
0.13461432614639407 0.0063054193299924245 0.03753953403736623
0.004360094039547504 0.13629521190977728 0.05904450199549478
0.019931979603239402 0.1234964869216841 0.055534734553862056
0.035503865166931284 0.11069776193359097 0.05202496711222933
0.051075750730623176 0.09789903694549783 0.04851519967059661
0.06664763629431507 0.08510031195740468 0.04500543222896388
0.08221952185800696 0.07230158696931153 0.04149566478733115
0.09779140742169884 0.05950286198121839 0.03798589734569843
0.11336329298539075 0.046704136993125235 0.034476129904065705
0.12893517854908262 0.03390541200503209 0.030966362462432985
0.14450706411277453 0.02110668701693894 0.027456595020800258
0.014252832005927965 0.1510964795967238 0.0489615629789288
0.029824717569619862 0.13829775460863064 0.045451795537296065
0.045396603133311744 0.1254990296205375 0.041942028095663345
0.06096848869700364 0.11270030463244435 0.038432260654030624
0.07654037426069553 0.0999015796443512 0.0349224932123979
0.09211225982438742 0.08710285465625806 0.03141272577076517
0.1076841453880793 0.07430412966816491 0.02790295832913245
0.1232560309517712 0.06150540468007176 0.02439319088749972
0.13882791651546308 0.048706679691978616 0.020883423445867
0.154399802079155 0.03590795470388546 0.017373656004234274
