# .PCD v0.7 - Point Cloud Data file format
VERSION 0.7
FIELDS x y z
SIZE 4 4 4
TYPE F F F
COUNT 1 1 1
WIDTH 600
HEIGHT 1
VIEWPOINT 0 0 0 1 0 0 0
POINTS 600
DATA ascii
-0.1957653659589543 -0.10192239684083772 -0.010948012996149722
-0.19198745035334985 -0.07387945399841976 -0.009175587567059783
-0.1882095347477454 -0.045836511156001805 -0.007403162137969859
-0.18443161914214096 -0.017793568313583853 -0.005630736708879921
-0.18065370353653648 0.010249374528834098 -0.003858311279789983
-0.17687578793093203 0.03829231737125205 -0.0020858858507000586
-0.17309787232532758 0.06633526021366999 -0.0003134604216101202
-0.16931995671972314 0.09437820305608793 0.001458965007479804
-0.16554204111411866 0.1224211458985059 0.0032313904365697424
-0.1617641255085142 0.15046408874092387 0.005003815865659681
-0.17639784249344725 -0.10581688495385363 0.009387984118289639
-0.1726199268878428 -0.07777394211143568 0.011160409547379577
-0.16884201128223836 -0.049730999269017716 0.012932834976469501
-0.1650640956766339 -0.021688056426599767 0.01470526040555944
-0.16128618007102943 0.006354886415818184 0.016477685834649376
-0.15750826446542499 0.03439782925823614 0.0182501112637393
-0.15373034885982054 0.062440772100654074 0.02002253669282924
-0.1499524332542161 0.09048371494307202 0.021794962121919163
-0.1461745176486116 0.11852665778548999 0.0235673875510091
-0.14239660204300716 0.14656960062790794 0.02533981298009904
-0.1570303190279402 -0.10971137306686954 0.029723981232729
-0.15325240342233576 -0.08166843022445158 0.03149640666181894
-0.14947448781673128 -0.05362548738203363 0.03326883209090886
-0.14569657221112683 -0.02558254453961568 0.0350412575199988
-0.1419186566055224 0.00246039830280227 0.03681368294908874
-0.13814074099991794 0.030503341145220225 0.03858610837817866
-0.13436282539431346 0.058546283987638156 0.0403585338072686
-0.130584909788709 0.08658922683005611 0.042130959236358526
-0.12680699418310457 0.11463216967247408 0.043903384665448464
-0.12302907857750012 0.14267511251489204 0.0456758100945384
-0.13766279556243316 -0.11360586117988546 0.050059978347168355
-0.1338848799568287 -0.0855629183374675 0.05183240377625829
-0.13010696435122424 -0.057519975495049544 0.05360482920534822
-0.1263290487456198 -0.029477032652631595 0.055377254634438156
-0.12255113314001534 -0.0014340898102136426 0.057149680063528094
-0.11877321753441089 0.02660885303220431 0.05892210549261802
-0.11499530192880643 0.054651795874622246 0.060694530921707956
-0.11121738632320198 0.0826947387170402 0.06246695635079788
-0.10743947071759752 0.11073768155945816 0.06423938177988782
-0.10366155511199307 0.13878062440187613 0.06601180720897776
-0.1182952720969261 -0.11750034929290137 0.07039597546160771
-0.11451735649132165 -0.08945740645048342 0.07216840089069765
-0.11073944088571719 -0.061414463608065455 0.07394082631978757
-0.10696152528011274 -0.033371520765647505 0.07571325174887751
-0.10318360967450828 -0.005328577923229556 0.07748567717796745
-0.09940569406890383 0.022714364919188396 0.07925810260705737
-0.09562777846329937 0.050757307761606335 0.08103052803614731
-0.09184986285769492 0.07880025060402428 0.08280295346523724
-0.08807194725209046 0.10684319344644225 0.08457537889432717
-0.08429403164648601 0.1348861362888602 0.08634780432341711
-0.09892774863141905 -0.12139483740591728 0.09073197257604708
-0.0951498330258146 -0.09335189456349932 0.09250439800513702
-0.09137191742021014 -0.06530895172108137 0.09427682343422694
-0.0875940018146057 -0.03726600887866342 0.09604924886331688
-0.08381608620900123 -0.00922306603624547 0.09782167429240682
-0.08003817060339678 0.018819876806172486 0.09959409972149674
-0.07626025499779232 0.04686281964859042 0.10136652515058668
-0.07248233939218787 0.07490576249100837 0.1031389505796766
-0.06870442378658341 0.10294870533342634 0.10491137600876654
-0.06492650818097896 0.1309916481758443 0.10668380143785648
-0.079560225165912 -0.12528932551893318 0.11106796969048642
-0.07578230956030756 -0.09724638267651524 0.11284039511957636
-0.0720043939547031 -0.06920343983409728 0.11461282054866628
-0.06822647834909865 -0.041160496991679334 0.11638524597775622
-0.06444856274349418 -0.013117554149261383 0.11815767140684616
-0.060670647137889736 0.014925388693156572 0.11993009683593608
-0.05689273153228527 0.04296833153557451 0.12170252226502602
-0.053114815926680825 0.07101127437799246 0.12347494769411595
-0.04933690032107636 0.09905421722041043 0.12524737312320589
-0.045558984715471915 0.1270971600628284 0.12701979855229584
-0.06019270170040496 -0.1291838136319491 0.13140396680492578
-0.05641478609480051 -0.10114087078953116 0.13317639223401573
-0.05263687048919605 -0.0730979279471132 0.13494881766310565
-0.0488589548835916 -0.045054985104695244 0.13672124309219558
-0.04508103927798714 -0.017012042262277295 0.13849366852128553
-0.04130312367238269 0.01103090058014066 0.14026609395037545
-0.037525208066778226 0.039073843422558596 0.14203851937946538
-0.03374729246117378 0.06711678626497654 0.1438109448085553
-0.029969376855569312 0.09515972910739451 0.14558337023764525
-0.026191461249964864 0.12320267194981246 0.14735579566673518
-0.04082517823489789 -0.13307830174496502 0.15173996391936515
-0.03704726262929344 -0.10503535890254706 0.1535123893484551
-0.03326934702368898 -0.0769924160601291 0.15528481477754502
-0.029491431418084534 -0.04894947321771116 0.15705724020663495
-0.025713515812480072 -0.02090653037529321 0.1588296656357249
-0.021935600206875624 0.007136412467124743 0.16060209106481482
-0.01815768460127116 0.03517935530954268 0.16237451649390475
-0.014379768995666712 0.06322229815196063 0.16414694192299467
-0.01060185339006225 0.0912652409943786 0.16591936735208462
-0.006823937784457801 0.11930818383679656 0.16769179278117455
-0.02145765476939084 -0.13697278985798095 0.17207596103380451
-0.01767973916378639 -0.10892984701556298 0.17384838646289444
-0.013901823558181927 -0.08088690417314502 0.17562081189198436
-0.010123907952577478 -0.05284396133072707 0.17739323732107432
-0.006345992346973017 -0.024801018488309123 0.17916566275016424
-0.0025680767413685684 0.00324192435410883 0.18093808817925416
0.0012098388642358938 0.03128486719652677 0.18271051360834412
0.004987754469840342 0.05932781003894472 0.18448293903743404
0.008765670075444805 0.08737075288136269 0.18625536446652396
0.012543585681049253 0.11541369572378064 0.18802778989561392
-0.012543585681049253 -0.11541369572378064 -0.18802778989561392
-0.008765670075444805 -0.08737075288136269 -0.18625536446652396
-0.004987754469840342 -0.05932781003894473 -0.18448293903743404
-0.0012098388642358938 -0.03128486719652678 -0.18271051360834412
0.0025680767413685684 -0.00324192435410883 -0.18093808817925416
0.006345992346973017 0.024801018488309123 -0.17916566275016424
0.010123907952577478 0.05284396133072706 -0.17739323732107432
0.013901823558181927 0.08088690417314501 -0.1756208118919844
0.01767973916378639 0.10892984701556298 -0.17384838646289444
0.02145765476939084 0.13697278985798095 -0.17207596103380451
0.006823937784457801 -0.11930818383679656 -0.16769179278117455
0.01060185339006225 -0.0912652409943786 -0.16591936735208462
0.014379768995666712 -0.06322229815196065 -0.1641469419229947
0.01815768460127116 -0.03517935530954269 -0.16237451649390475
0.021935600206875624 -0.007136412467124743 -0.16060209106481482
0.025713515812480072 0.02090653037529321 -0.1588296656357249
0.029491431418084534 0.04894947321771115 -0.15705724020663495
0.03326934702368898 0.07699241606012909 -0.15528481477754502
0.03704726262929344 0.10503535890254706 -0.1535123893484551
0.04082517823489789 0.13307830174496502 -0.15173996391936515
0.026191461249964857 -0.12320267194981246 -0.1473557956667352
0.029969376855569305 -0.09515972910739451 -0.14558337023764525
0.033747292461173764 -0.06711678626497655 -0.14381094480855533
0.03752520806677821 -0.03907384342255861 -0.1420385193794654
0.041303123672382674 -0.011030900580140657 -0.14026609395037545
0.04508103927798712 0.017012042262277295 -0.13849366852128553
0.048858954883591585 0.04505498510469523 -0.1367212430921956
0.05263687048919603 0.07309792794711319 -0.13494881766310568
0.056414786094800495 0.10114087078953116 -0.13317639223401573
0.060192701700404944 0.1291838136319491 -0.1314039668049258
0.04555898471547191 -0.12709716006282837 -0.12701979855229584
0.049336900321076356 -0.09905421722041043 -0.1252473731232059
0.05311481592668082 -0.07101127437799247 -0.12347494769411597
0.056892731532285266 -0.04296833153557452 -0.12170252226502604
0.06067064713788973 -0.01492538869315657 -0.1199300968359361
0.06444856274349417 0.013117554149261385 -0.11815767140684617
0.06822647834909863 0.04116049699167932 -0.11638524597775624
0.07200439395470308 0.06920343983409727 -0.11461282054866631
0.07578230956030754 0.09724638267651524 -0.11284039511957637
0.07956022516591199 0.1252893255189332 -0.11106796969048643
0.06492650818097896 -0.1309916481758443 -0.10668380143785648
0.06870442378658341 -0.10294870533342634 -0.10491137600876654
0.07248233939218787 -0.07490576249100839 -0.10313895057967662
0.07626025499779232 -0.04686281964859043 -0.10136652515058668
0.08003817060339678 -0.018819876806172486 -0.09959409972149674
0.08381608620900123 0.00922306603624547 -0.09782167429240682
0.0875940018146057 0.03726600887866341 -0.09604924886331688
0.09137191742021014 0.06530895172108135 -0.09427682343422696
0.0951498330258146 0.09335189456349932 -0.09250439800513702
0.09892774863141905 0.12139483740591728 -0.09073197257604708
0.08429403164648601 -0.1348861362888602 -0.08634780432341711
0.08807194725209046 -0.10684319344644225 -0.08457537889432717
0.09184986285769492 -0.07880025060402429 -0.08280295346523725
0.09562777846329937 -0.05075730776160635 -0.08103052803614731
0.09940569406890383 -0.022714364919188396 -0.07925810260705737
0.10318360967450828 0.005328577923229556 -0.07748567717796745
0.10696152528011274 0.03337152076564749 -0.07571325174887751
0.11073944088571719 0.06141446360806544 -0.07394082631978759
0.11451735649132165 0.08945740645048342 -0.07216840089069765
0.1182952720969261 0.11750034929290137 -0.07039597546160771
0.10366155511199306 -0.1387806244018761 -0.06601180720897777
0.1074394707175975 -0.11073768155945816 -0.06423938177988783
0.11121738632320197 -0.08269473871704021 -0.0624669563507979
0.11499530192880641 -0.05465179587462226 -0.06069453092170796
0.11877321753441088 -0.02660885303220431 -0.058922105492618025
0.12255113314001533 0.0014340898102136446 -0.0571496800635281
0.1263290487456198 0.02947703265263158 -0.05537725463443816
0.13010696435122424 0.05751997549504953 -0.05360482920534824
0.1338848799568287 0.0855629183374675 -0.0518324037762583
0.13766279556243316 0.11360586117988546 -0.05005997834716836
0.1230290785775001 -0.14267511251489204 -0.04567581009453841
0.12680699418310457 -0.11463216967247408 -0.04390338466544847
0.130584909788709 -0.08658922683005613 -0.042130959236358546
0.13436282539431346 -0.05854628398763817 -0.04035853380726861
0.13814074099991794 -0.03050334114522022 -0.03858610837817867
0.1419186566055224 -0.0024603983028022684 -0.036813682949088745
0.14569657221112683 0.02558254453961567 -0.03504125751999881
0.14947448781673128 0.05362548738203362 -0.03326883209090888
0.15325240342233576 0.08166843022445158 -0.031496406661818944
0.1570303190279402 0.10971137306686954 -0.02972398123272901
0.14239660204300716 -0.14656960062790794 -0.02533981298009904
0.1461745176486116 -0.11852665778548999 -0.0235673875510091
0.1499524332542161 -0.09048371494307203 -0.021794962121919177
0.15373034885982054 -0.06244077210065409 -0.02002253669282924
0.15750826446542499 -0.03439782925823614 -0.0182501112637393
0.16128618007102943 -0.006354886415818184 -0.016477685834649376
0.1650640956766339 0.021688056426599753 -0.01470526040555944
0.16884201128223836 0.0497309992690177 -0.012932834976469515
0.1726199268878428 0.07777394211143568 -0.011160409547379577
0.17639784249344725 0.10581688495385363 -0.009387984118289639
0.1617641255085142 -0.15046408874092387 -0.005003815865659681
0.16554204111411866 -0.1224211458985059 -0.0032313904365697424
0.16931995671972314 -0.09437820305608795 -0.001458965007479818
0.17309787232532758 -0.06633526021367 0.0003134604216101202
0.17687578793093203 -0.03829231737125205 0.0020858858507000586
0.18065370353653648 -0.010249374528834098 0.003858311279789983
0.18443161914214096 0.01779356831358384 0.005630736708879921
0.1882095347477454 0.04583651115600179 0.007403162137969845
0.19198745035334985 0.07387945399841976 0.009175587567059783
0.1957653659589543 0.10192239684083772 0.010948012996149722
-0.1957653659589543 -0.10192239684083772 -0.010948012996149722
-0.1754073903725204 -0.1034214300500536 -0.030623543762756857
-0.15504941478608653 -0.10492046325926947 -0.05029907452936398
-0.13469143919965262 -0.10641949646848536 -0.06997460529597112
-0.11433346361321874 -0.10791852967770123 -0.08965013606257825
-0.09397548802678483 -0.10941756288691713 -0.10932566682918539
-0.07361751244035096 -0.11091659609613301 -0.1290011975957925
-0.05325953685391707 -0.11241562930534889 -0.14867672836239965
-0.032901561267483156 -0.11391466251456477 -0.16835225912900678
-0.012543585681049253 -0.11541369572378064 -0.18802778989561392
-0.17639784249344725 -0.10581688495385363 0.009387984118289639
-0.15603986690701335 -0.10731591816306951 -0.010287546648317497
-0.13568189132057948 -0.10881495137228539 -0.02996307741492462
-0.11532391573414558 -0.11031398458150128 -0.04963860818153175
-0.09496594014771167 -0.11181301779071715 -0.06931413894813888
-0.07460796456127779 -0.11331205099993305 -0.08898966971474602
-0.0542499889748439 -0.11481108420914893 -0.10866520048135314
-0.03389201338841002 -0.1163101174183648 -0.12834073124796028
-0.0135340378019761 -0.11780915062758068 -0.1480162620145674
0.006823937784457801 -0.11930818383679656 -0.16769179278117455
-0.1570303190279402 -0.10971137306686954 0.029723981232729
-0.1366723434415063 -0.11121040627608542 0.010048450466121864
-0.11631436785507242 -0.1127094394853013 -0.009627080300485258
-0.09595639226863852 -0.11420847269451719 -0.02930261106709239
-0.07559841668220463 -0.11570750590373305 -0.04897814183369953
-0.05524044109577073 -0.11720653911294895 -0.06865367260030666
-0.034882465509336845 -0.11870557232216483 -0.08832920336691379
-0.014524489922902962 -0.12020460553138071 -0.10800473413352092
0.0058334856635309535 -0.12170363874059659 -0.12768026490012807
0.026191461249964857 -0.12320267194981246 -0.1473557956667352
-0.13766279556243316 -0.11360586117988546 0.050059978347168355
-0.11730481997599926 -0.11510489438910133 0.03038444758056122
-0.09694684438956537 -0.11660392759831721 0.010708916813954097
-0.07658886880313147 -0.1181029608075331 -0.008966613952653035
-0.056230893216697574 -0.11960199401674897 -0.02864214471926017
-0.03587291763026368 -0.12110102722596487 -0.04831767548586731
-0.015514942043829798 -0.12260006043518075 -0.06799320625247443
0.004843033542604087 -0.12409909364439663 -0.08766873701908157
0.025201009129038002 -0.1255981268536125 -0.1073442677856887
0.04555898471547191 -0.12709716006282837 -0.12701979855229584
-0.1182952720969261 -0.11750034929290137 0.07039597546160771
-0.0979372965104922 -0.11899938250211725 0.05072044469500058
-0.07757932092405831 -0.12049841571133313 0.031044913928393456
-0.057221345337624414 -0.12199744892054902 0.011369383161786326
-0.03686336975119052 -0.12349648212976488 -0.00830614760482081
-0.016505394164756628 -0.12499551533898079 -0.027981678371427947
0.0038525814216772564 -0.12649454854819667 -0.04765720913803507
0.02421055700811114 -0.12799358175741254 -0.06733273990464221
0.04456853259454506 -0.12949261496662842 -0.08700827067124935
0.06492650818097896 -0.1309916481758443 -0.10668380143785648
-0.09892774863141905 -0.12139483740591728 0.09073197257604708
-0.07856977304498515 -0.12289387061513316 0.07105644180943994
-0.05821179745855126 -0.12439290382434903 0.051380911042832815
-0.03785382187211737 -0.12589193703356494 0.031705380276225686
-0.01749584628568347 -0.1273909702427808 0.01202984950961855
0.002862129300750426 -0.1288900034519967 -0.0076456812569885855
0.02322010488718431 -0.13038903666121257 -0.02732121202359571
0.04357808047361819 -0.13188806987042845 -0.04699674279020285
0.06393605606005211 -0.13338710307964433 -0.06667227355680998
0.08429403164648601 -0.1348861362888602 -0.08634780432341711
-0.079560225165912 -0.12528932551893318 0.11106796969048642
-0.0592022495794781 -0.12678835872814906 0.09139243892387929
-0.038844273993044215 -0.12828739193736494 0.07171690815727216
-0.01848629840661032 -0.12978642514658084 0.052041377390665035
0.0018716771798235755 -0.1312854583557967 0.0323658466240579
0.02222965276625747 -0.1327844915650126 0.012690315857450766
0.04258762835269136 -0.13428352477422847 -0.0069852149091563604
0.06294560393912524 -0.13578255798344435 -0.026660745675763497
0.08330357952555915 -0.13728159119266023 -0.04633627644237063
0.10366155511199306 -0.1387806244018761 -0.06601180720897777
-0.06019270170040496 -0.1291838136319491 0.13140396680492578
-0.039834726113971056 -0.130682846841165 0.11172843603831864
-0.019476750527537164 -0.13218188005038087 0.09205290527171152
0.0008812250588967297 -0.13368091325959675 0.0723773745051044
0.021239200645330625 -0.13517994646881262 0.052701843738497255
0.04159717623176452 -0.13667897967802853 0.03302631297189012
0.061955151818198405 -0.1381780128872444 0.013350782205282996
0.08231312740463229 -0.13967704609646028 -0.006324748561324141
0.1026711029910662 -0.14117607930567616 -0.026000279327931277
0.1230290785775001 -0.14267511251489204 -0.04567581009453841
-0.04082517823489789 -0.13307830174496502 0.15173996391936515
-0.02046720264846399 -0.1345773349541809 0.132064433152758
-0.00010922706203010177 -0.13607636816339677 0.11238890238615089
0.02024874852440379 -0.13757540137261268 0.09271337161954377
0.04060672411083769 -0.13907443458182853 0.07303784085293663
0.060964699697271585 -0.14057346779104443 0.05336231008632949
0.08132267528370547 -0.1420725010002603 0.03368677931972237
0.10168065087013935 -0.1435715342094762 0.01401124855311523
0.12203862645657326 -0.14507056741869206 -0.005664282213491905
0.14239660204300716 -0.14656960062790794 -0.02533981298009904
-0.02145765476939084 -0.13697278985798095 0.17207596103380451
-0.0010996791829569357 -0.13847182306719683 0.15240043026719738
0.01925829640347695 -0.1399708562764127 0.13272489950059024
0.03961627198991085 -0.14146988948562858 0.11304936873398312
0.059974247576344744 -0.14296892269484446 0.09337383796737599
0.08033222316277863 -0.14446795590406036 0.07369830720076885
0.10069019874921252 -0.14596698911327624 0.05402277643416173
0.12104817433564641 -0.14746602232249212 0.03434724566755459
0.1414061499220803 -0.148965055531708 0.014671714900947454
0.1617641255085142 -0.15046408874092387 -0.005003815865659681
-0.1617641255085142 0.15046408874092387 0.005003815865659681
-0.1414061499220803 0.148965055531708 -0.014671714900947454
-0.12104817433564642 0.14746602232249212 -0.03434724566755459
-0.10069019874921253 0.14596698911327624 -0.054022776434161715
-0.08033222316277863 0.14446795590406036 -0.07369830720076885
-0.059974247576344744 0.14296892269484446 -0.09337383796737599
-0.039616271989910856 0.14146988948562858 -0.11304936873398311
-0.019258296403476965 0.1399708562764127 -0.13272489950059024
0.0010996791829569357 0.13847182306719683 -0.15240043026719738
0.02145765476939084 0.13697278985798095 -0.17207596103380451
-0.14239660204300716 0.14656960062790794 0.02533981298009904
-0.12203862645657326 0.14507056741869206 0.005664282213491905
-0.10168065087013936 0.1435715342094762 -0.01401124855311523
-0.08132267528370547 0.1420725010002603 -0.03368677931972235
-0.060964699697271585 0.14057346779104443 -0.05336231008632949
-0.04060672411083769 0.13907443458182853 -0.07303784085293663
-0.0202487485244038 0.13757540137261268 -0.09271337161954375
0.0001092270620300879 0.13607636816339677 -0.11238890238615087
0.02046720264846399 0.1345773349541809 -0.132064433152758
0.04082517823489789 0.13307830174496502 -0.15173996391936515
-0.12302907857750012 0.14267511251489204 0.0456758100945384
-0.10267110299106622 0.14117607930567616 0.026000279327931267
-0.08231312740463231 0.13967704609646028 0.00632474856132413
-0.061955151818198426 0.1381780128872444 -0.01335078220528299
-0.04159717623176453 0.13667897967802853 -0.03302631297189013
-0.021239200645330632 0.13517994646881262 -0.05270184373849727
-0.0008812250588967461 0.13368091325959675 -0.0723773745051044
0.019476750527537143 0.13218188005038087 -0.09205290527171152
0.03983472611397104 0.130682846841165 -0.11172843603831865
0.060192701700404944 0.1291838136319491 -0.1314039668049258
-0.10366155511199307 0.13878062440187613 0.06601180720897776
-0.08330357952555917 0.13728159119266026 0.04633627644237062
-0.06294560393912527 0.13578255798344438 0.026660745675763486
-0.04258762835269137 0.1342835247742285 0.006985214909156364
-0.02222965276625748 0.13278449156501262 -0.012690315857450774
-0.0018716771798235848 0.13128545835579672 -0.03236584662405791
0.018486298406610303 0.12978642514658084 -0.052041377390665035
0.038844273993044194 0.12828739193736496 -0.07171690815727216
0.059202249579478096 0.1267883587281491 -0.0913924389238793
0.07956022516591199 0.1252893255189332 -0.11106796969048643
-0.08429403164648601 0.1348861362888602 0.08634780432341711
-0.06393605606005211 0.13338710307964433 0.06667227355680998
-0.043578080473618205 0.13188806987042845 0.04699674279020285
-0.02322010488718432 0.13038903666121257 0.027321212023595724
-0.002862129300750426 0.1288900034519967 0.0076456812569885855
0.01749584628568347 0.1273909702427808 -0.01202984950961855
0.03785382187211736 0.12589193703356494 -0.03170538027622567
0.05821179745855125 0.12439290382434903 -0.0513809110428328
0.07856977304498515 0.12289387061513316 -0.07105644180943994
0.09892774863141905 0.12139483740591728 -0.09073197257604708
-0.06492650818097896 0.1309916481758443 0.10668380143785648
-0.04456853259454506 0.12949261496662842 0.08700827067124935
-0.024210557008111155 0.12799358175741254 0.06733273990464221
-0.0038525814216772668 0.12649454854819667 0.04765720913803508
0.016505394164756628 0.12499551533898079 0.027981678371427947
0.03686336975119052 0.12349648212976488 0.00830614760482081
0.05722134533762441 0.12199744892054902 -0.011369383161786316
0.0775793209240583 0.12049841571133313 -0.031044913928393442
0.0979372965104922 0.11899938250211725 -0.05072044469500058
0.1182952720969261 0.11750034929290137 -0.07039597546160771
-0.045558984715471915 0.1270971600628284 0.12701979855229584
-0.025201009129038013 0.12559812685361252 0.10734426778568869
-0.00484303354260411 0.12409909364439663 0.08766873701908155
0.015514942043829777 0.12260006043518075 0.06799320625247443
0.03587291763026367 0.12110102722596487 0.048317675485867295
0.05623089321669757 0.11960199401674897 0.02864214471926016
0.07658886880313145 0.1181029608075331 0.008966613952653036
0.09694684438956534 0.11660392759831721 -0.010708916813954092
0.11730481997599924 0.11510489438910133 -0.03038444758056123
0.13766279556243316 0.11360586117988546 -0.05005997834716836
-0.026191461249964864 0.12320267194981246 0.14735579566673518
-0.005833485663530963 0.12170363874059659 0.12768026490012804
0.014524489922902938 0.12020460553138071 0.10800473413352091
0.034882465509336824 0.11870557232216483 0.08832920336691379
0.05524044109577072 0.11720653911294895 0.06865367260030665
0.07559841668220461 0.11570750590373305 0.048978141833699515
0.0959563922686385 0.11420847269451719 0.02930261106709239
0.11631436785507239 0.1127094394853013 0.009627080300485263
0.1366723434415063 0.11121040627608542 -0.010048450466121872
0.1570303190279402 0.10971137306686954 -0.02972398123272901
-0.006823937784457801 0.11930818383679656 0.16769179278117455
0.0135340378019761 0.11780915062758068 0.1480162620145674
0.033892013388410004 0.1163101174183648 0.12834073124796028
0.05424998897484389 0.11481108420914893 0.10866520048135316
0.07460796456127779 0.11331205099993305 0.08898966971474602
0.09496594014771167 0.11181301779071715 0.06931413894813888
0.11532391573414556 0.11031398458150128 0.04963860818153176
0.13568189132057945 0.10881495137228539 0.029963077414924634
0.15603986690701335 0.10731591816306951 0.010287546648317497
0.17639784249344725 0.10581688495385363 -0.009387984118289639
0.012543585681049253 0.11541369572378064 0.18802778989561392
0.032901561267483156 0.11391466251456477 0.16835225912900678
0.05325953685391706 0.11241562930534889 0.14867672836239965
0.07361751244035095 0.11091659609613301 0.1290011975957925
0.09397548802678483 0.10941756288691713 0.10932566682918539
0.11433346361321874 0.10791852967770123 0.08965013606257825
0.13469143919965262 0.10641949646848536 0.06997460529597112
0.1550494147860865 0.10492046325926947 0.050299074529363996
0.1754073903725204 0.1034214300500536 0.030623543762756857
0.1957653659589543 0.10192239684083772 0.010948012996149722
-0.1957653659589543 -0.10192239684083772 -0.010948012996149722
-0.1754073903725204 -0.1034214300500536 -0.030623543762756857
-0.15504941478608653 -0.10492046325926947 -0.05029907452936398
-0.13469143919965262 -0.10641949646848536 -0.06997460529597112
-0.11433346361321874 -0.10791852967770123 -0.08965013606257825
-0.09397548802678483 -0.10941756288691713 -0.10932566682918539
-0.07361751244035096 -0.11091659609613301 -0.1290011975957925
-0.05325953685391707 -0.11241562930534889 -0.14867672836239965
-0.032901561267483156 -0.11391466251456477 -0.16835225912900678
-0.012543585681049253 -0.11541369572378064 -0.18802778989561392
-0.19198745035334985 -0.07387945399841976 -0.009175587567059783
-0.17162947476691595 -0.07537848720763564 -0.02885111833366692
-0.15127149918048205 -0.07687752041685152 -0.04852664910027405
-0.13091352359404818 -0.07837655362606741 -0.06820217986688118
-0.11055554800761427 -0.07987558683528329 -0.08787771063348832
-0.09019757242118039 -0.08137462004449916 -0.10755324140009545
-0.0698395968347465 -0.08287365325371504 -0.1272287721667026
-0.04948162124831261 -0.08437268646293093 -0.1469043029333097
-0.029123645661878698 -0.08587171967214681 -0.16657983369991683
-0.008765670075444805 -0.08737075288136269 -0.18625536446652396
-0.1882095347477454 -0.045836511156001805 -0.007403162137969859
-0.1678515591613115 -0.04733554436521768 -0.027078692904576995
-0.1474935835748776 -0.04883457757443356 -0.04675422367118412
-0.12713560798844373 -0.05033361078364945 -0.06642975443779124
-0.10677763240200983 -0.05183264399286533 -0.08610528520439838
-0.08641965681557592 -0.05333167720208121 -0.10578081597100551
-0.06606168122914204 -0.054830710411297084 -0.12545634673761263
-0.045703705642708155 -0.056329743620512976 -0.14513187750421977
-0.025345730056274243 -0.057828776829728853 -0.1648074082708269
-0.004987754469840342 -0.05932781003894473 -0.18448293903743404
-0.18443161914214096 -0.017793568313583853 -0.005630736708879921
-0.16407364355570705 -0.019292601522799737 -0.025306267475487056
-0.14371566796927315 -0.020791634732015615 -0.04498179824209419
-0.12335769238283927 -0.022290667941231492 -0.06465732900870132
-0.10299971679640536 -0.023789701150447377 -0.08433285977530845
-0.08264174120997148 -0.025288734359663254 -0.10400839054191559
-0.06228376562353759 -0.02678776756887914 -0.12368392130852271
-0.0419257900371037 -0.028286800778095016 -0.14335945207512985
-0.021567814450669794 -0.029785833987310894 -0.16303498284173698
-0.0012098388642358938 -0.03128486719652678 -0.18271051360834412
-0.18065370353653648 0.010249374528834098 -0.003858311279789983
-0.16029572795010258 0.008750341319618217 -0.023533842046397118
-0.1399377523636687 0.007251308110402335 -0.04320937281300426
-0.1195797767772348 0.005752274901186456 -0.06288490357961138
-0.09922180119080092 0.004253241691970575 -0.08256043434621851
-0.07886382560436701 0.002754208482754694 -0.10223596511282565
-0.05850585001793313 0.0012551752735388132 -0.12191149587943277
-0.03814787443149925 -0.00024385793567706786 -0.14158702664603992
-0.017789898845065332 -0.0017428911448929454 -0.16126255741264703
0.0025680767413685684 -0.00324192435410883 -0.18093808817925416
-0.17687578793093203 0.03829231737125205 -0.0020858858507000586
-0.15651781234449813 0.036793284162036165 -0.021761416617307194
-0.13615983675806423 0.03529425095282029 -0.04143694738391432
-0.11580186117163035 0.03379521774360441 -0.06111247815052145
-0.09544388558519645 0.032296184534388525 -0.08078800891712859
-0.07508590999876256 0.030797151325172648 -0.10046353968373573
-0.05472793441232868 0.029298118115956766 -0.12013907045034285
-0.03436995882589479 0.027799084906740885 -0.13981460121694997
-0.014011983239460886 0.026300051697525004 -0.1594901319835571
0.006345992346973017 0.024801018488309123 -0.17916566275016424
-0.17309787232532758 0.06633526021366999 -0.0003134604216101202
-0.15273989673889368 0.0648362270044541 -0.019988991188217255
-0.13238192115245978 0.06333719379523822 -0.03966452195482439
-0.11202394556602589 0.061838160586022345 -0.059340052721431516
-0.091665969979592 0.06033912737680646 -0.07901558348803865
-0.0713079943931581 0.05884009416759058 -0.09869111425464579
-0.05095001880672423 0.0573410609583747 -0.11836664502125291
-0.030592043220290337 0.05584202774915882 -0.13804217578786004
-0.010234067633856423 0.05434299453994294 -0.15771770655446718
0.010123907952577478 0.05284396133072706 -0.17739323732107432
-0.16931995671972314 0.09437820305608793 0.001458965007479804
-0.14896198113328923 0.09287916984687206 -0.01821656575912733
-0.12860400554685533 0.09138013663765618 -0.037892096525734456
-0.10824602996042144 0.08988110342844029 -0.057567627292341585
-0.08788805437398756 0.08838207021922441 -0.07724315805894871
-0.06753007878755365 0.08688303701000853 -0.09691868882555585
-0.047172103201119774 0.08538400380079265 -0.11659421959216298
-0.026814127614685882 0.08388497059157678 -0.13626975035877012
-0.006456152028251974 0.08238593738236089 -0.15594528112537726
0.013901823558181927 0.08088690417314501 -0.1756208118919844
-0.16554204111411866 0.1224211458985059 0.0032313904365697424
-0.14518406552768479 0.12092211268929003 -0.016444140330037393
-0.12482608994125088 0.11942307948007415 -0.036119671096644525
-0.10446811435481698 0.11792404627085826 -0.05579520186325165
-0.0841101387683831 0.11642501306164238 -0.07547073262985879
-0.06375216318194919 0.1149259798524265 -0.09514626339646592
-0.04339418759551532 0.11342694664321062 -0.11482179416307305
-0.023036212009081427 0.11192791343399473 -0.13449732492968017
-0.0026782364226475125 0.11042888022477886 -0.1541728556962873
0.01767973916378639 0.10892984701556298 -0.17384838646289444
-0.1617641255085142 0.15046408874092387 0.005003815865659681
-0.1414061499220803 0.148965055531708 -0.014671714900947454
-0.12104817433564642 0.14746602232249212 -0.03434724566755459
-0.10069019874921253 0.14596698911327624 -0.054022776434161715
-0.08033222316277863 0.14446795590406036 -0.07369830720076885
-0.059974247576344744 0.14296892269484446 -0.09337383796737599
-0.039616271989910856 0.14146988948562858 -0.11304936873398311
-0.019258296403476965 0.1399708562764127 -0.13272489950059024
0.0010996791829569357 0.13847182306719683 -0.15240043026719738
0.02145765476939084 0.13697278985798095 -0.17207596103380451
-0.02145765476939084 -0.13697278985798095 0.17207596103380451
-0.0010996791829569357 -0.13847182306719683 0.15240043026719738
0.01925829640347695 -0.1399708562764127 0.13272489950059024
0.03961627198991085 -0.14146988948562858 0.11304936873398312
0.059974247576344744 -0.14296892269484446 0.09337383796737599
0.08033222316277863 -0.14446795590406036 0.07369830720076885
0.10069019874921252 -0.14596698911327624 0.05402277643416173
0.12104817433564641 -0.14746602232249212 0.03434724566755459
0.1414061499220803 -0.148965055531708 0.014671714900947454
0.1617641255085142 -0.15046408874092387 -0.005003815865659681
-0.01767973916378639 -0.10892984701556298 0.17384838646289444
0.0026782364226475125 -0.11042888022477886 0.1541728556962873
0.023036212009081413 -0.11192791343399473 0.1344973249296802
0.043394187595515304 -0.11342694664321062 0.11482179416307306
0.06375216318194919 -0.1149259798524265 0.09514626339646592
0.0841101387683831 -0.11642501306164238 0.07547073262985879
0.10446811435481698 -0.11792404627085826 0.05579520186325166
0.12482608994125087 -0.11942307948007415 0.03611967109664453
0.14518406552768479 -0.12092211268929003 0.016444140330037393
0.16554204111411866 -0.1224211458985059 -0.0032313904365697424
-0.013901823558181927 -0.08088690417314502 0.17562081189198436
0.006456152028251974 -0.0823859373823609 0.15594528112537723
0.02681412761468587 -0.08388497059157678 0.13626975035877012
0.04717210320111976 -0.08538400380079267 0.11659421959216298
0.06753007878755365 -0.08688303701000855 0.09691868882555585
0.08788805437398754 -0.08838207021922442 0.07724315805894871
0.10824602996042143 -0.0898811034284403 0.05756762729234159
0.12860400554685533 -0.09138013663765619 0.03789209652573446
0.14896198113328923 -0.09287916984687207 0.018216565759127317
0.16931995671972314 -0.09437820305608795 -0.001458965007479818
-0.010123907952577478 -0.05284396133072707 0.17739323732107432
0.010234067633856423 -0.05434299453994296 0.15771770655446718
0.030592043220290323 -0.055842027749158835 0.13804217578786004
0.050950018806724215 -0.05734106095837471 0.11836664502125292
0.0713079943931581 -0.0588400941675906 0.09869111425464579
0.091665969979592 -0.060339127376806474 0.07901558348803865
0.11202394556602589 -0.06183816058602236 0.05934005272143153
0.13238192115245978 -0.06333719379523824 0.039664521954824394
0.15273989673889368 -0.06483622700445411 0.019988991188217255
0.17309787232532758 -0.06633526021367 0.0003134604216101202
-0.006345992346973017 -0.024801018488309123 0.17916566275016424
0.014011983239460886 -0.026300051697525004 0.1594901319835571
0.034369958825894775 -0.027799084906740885 0.13981460121694997
0.05472793441232867 -0.029298118115956766 0.12013907045034286
0.07508590999876256 -0.030797151325172648 0.10046353968373573
0.09544388558519645 -0.032296184534388525 0.08078800891712859
0.11580186117163034 -0.03379521774360441 0.06111247815052146
0.13615983675806423 -0.03529425095282029 0.041436947383914326
0.15651781234449813 -0.036793284162036165 0.021761416617307194
0.17687578793093203 -0.03829231737125205 0.0020858858507000586
-0.0025680767413685684 0.00324192435410883 0.18093808817925416
0.017789898845065332 0.0017428911448929454 0.16126255741264703
0.03814787443149924 0.00024385793567706786 0.14158702664603992
0.058505850017933125 -0.0012551752735388132 0.12191149587943279
0.07886382560436701 -0.002754208482754694 0.10223596511282565
0.09922180119080092 -0.004253241691970575 0.08256043434621851
0.1195797767772348 -0.005752274901186454 0.06288490357961139
0.13993775236366868 -0.007251308110402335 0.043209372813004264
0.16029572795010258 -0.008750341319618217 0.023533842046397118
0.18065370353653648 -0.010249374528834098 0.003858311279789983
0.0012098388642358938 0.03128486719652677 0.18271051360834412
0.021567814450669794 0.02978583398731088 0.16303498284173698
0.041925790037103686 0.028286800778095002 0.14335945207512985
0.06228376562353758 0.026787767568879125 0.12368392130852272
0.08264174120997148 0.02528873435966324 0.10400839054191559
0.10299971679640536 0.023789701150447363 0.08433285977530845
0.12335769238283925 0.02229066794123148 0.06465732900870132
0.14371566796927313 0.0207916347320156 0.044981798242094195
0.16407364355570705 0.019292601522799723 0.025306267475487056
0.18443161914214096 0.01779356831358384 0.005630736708879921
0.004987754469840342 0.05932781003894472 0.18448293903743404
0.025345730056274243 0.05782877682972884 0.1648074082708269
0.04570370564270814 0.05632974362051296 0.14513187750421977
0.06606168122914204 0.05483071041129707 0.12545634673761266
0.08641965681557592 0.05333167720208119 0.10578081597100551
0.10677763240200983 0.051832643992865315 0.08610528520439838
0.1271356079884437 0.05033361078364944 0.06642975443779126
0.1474935835748776 0.04883457757443356 0.04675422367118413
0.1678515591613115 0.04733554436521767 0.02707869290457698
0.1882095347477454 0.04583651115600179 0.007403162137969845
0.008765670075444805 0.08737075288136269 0.18625536446652396
0.029123645661878698 0.08587171967214681 0.16657983369991683
0.049481621248312596 0.08437268646293093 0.14690430293330972
0.06983959683474648 0.08287365325371504 0.1272287721667026
0.09019757242118039 0.08137462004449916 0.10755324140009545
0.11055554800761427 0.07987558683528329 0.08787771063348832
0.13091352359404815 0.07837655362606741 0.0682021798668812
0.15127149918048205 0.07687752041685152 0.04852664910027406
0.17162947476691595 0.07537848720763564 0.02885111833366692
0.19198745035334985 0.07387945399841976 0.009175587567059783
0.012543585681049253 0.11541369572378064 0.18802778989561392
0.032901561267483156 0.11391466251456477 0.16835225912900678
0.05325953685391706 0.11241562930534889 0.14867672836239965
0.07361751244035095 0.11091659609613301 0.1290011975957925
0.09397548802678483 0.10941756288691713 0.10932566682918539
0.11433346361321874 0.10791852967770123 0.08965013606257825
0.13469143919965262 0.10641949646848536 0.06997460529597112
0.1550494147860865 0.10492046325926947 0.050299074529363996
0.1754073903725204 0.1034214300500536 0.030623543762756857
0.1957653659589543 0.10192239684083772 0.010948012996149722
