# .PCD v0.7 - Point Cloud Data file format
VERSION 0.7
FIELDS x y z
SIZE 4 4 4
TYPE F F F
COUNT 1 1 1
WIDTH 600
HEIGHT 1
VIEWPOINT 0 0 0 1 0 0 0
POINTS 600
DATA ascii
-0.0837634786936167 -0.10461880606253823 -0.11142935633393176
-0.09221190056288105 -0.08600721942681769 -0.10235846787864948
-0.10066032243214541 -0.06739563279109714 -0.0932875794233672
-0.10910874430140978 -0.048784046155376584 -0.08421669096808491
-0.11755716617067415 -0.030172459519656043 -0.07514580251280262
-0.12600558803993853 -0.011560872883935482 -0.06607491405752033
-0.13445400990920287 0.007050713751785055 -0.05700402560223805
-0.14290243177846726 0.025662300387505606 -0.04793313714695576
-0.15135085364773163 0.04427388702322616 -0.03886224869167347
-0.15979927551699596 0.0628854736589467 -0.029791360236391187
-0.07582157754633781 -0.11075326913140364 -0.09144579870342598
-0.08426999941560218 -0.0921416824956831 -0.0823749102481437
-0.09271842128486654 -0.07353009585996255 -0.0733040217928614
-0.10116684315413091 -0.05491850922424199 -0.06423313333757912
-0.10961526502339528 -0.036306922588521445 -0.05516224488229683
-0.11806368689265964 -0.017695335952800886 -0.04609135642701454
-0.12651210876192398 0.0009162506829196531 -0.03702046797173226
-0.13496053063118837 0.019527837318640204 -0.027949579516449972
-0.14340895250045274 0.038139423954360756 -0.01887869106116768
-0.15185737436971708 0.0567510105900813 -0.009807802605885398
-0.06787967639905894 -0.11688773220026905 -0.07146224107292018
-0.07632809826832329 -0.0982761455645485 -0.062391352617637896
-0.08477652013758766 -0.07966455892882796 -0.053320464162355606
-0.09322494200685202 -0.061052972293107396 -0.04424957570707332
-0.10167336387611639 -0.04244138565738685 -0.03517868725179103
-0.11012178574538076 -0.02382979902166629 -0.026107798796508742
-0.11857020761464511 -0.005218212385945751 -0.017036910341226463
-0.1270186294839095 0.013393374249774801 -0.007966021885944174
-0.13546705135317386 0.03200496088549535 0.0011048665693381165
-0.14391547322243822 0.050616547521215895 0.0101757550246204
-0.059937775251780054 -0.12302219526913445 -0.05147868344241438
-0.06838619712104442 -0.1044106086334139 -0.0424077949871321
-0.07683461899030879 -0.08579902199769336 -0.03333690653184981
-0.08528304085957315 -0.0671874353619728 -0.024266018076567523
-0.09373146272883752 -0.04857584872625225 -0.015195129621285237
-0.10217988459810189 -0.029964262090531695 -0.0061242411660029465
-0.11062830646736624 -0.011352675454811155 0.0029466472892793333
-0.11907672833663062 0.007258911180909397 0.012017535744561623
-0.12752515020589497 0.025870497816629947 0.021088424199843914
-0.13597357207515934 0.044482084452350495 0.030159312655126197
-0.051995874104501176 -0.12915665833799986 -0.03149512581190858
-0.060444295973765536 -0.11054507170227931 -0.022424237356626298
-0.0688927178430299 -0.09193348506655877 -0.01335334890134401
-0.07734113971229427 -0.07332189843083821 -0.004282460446061725
-0.08578956158155863 -0.05471031179511766 0.004788428009220562
-0.094237983450823 -0.0360987251593971 0.013859316464502853
-0.10268640532008735 -0.01748713852367656 0.022930204919785133
-0.11113482718935173 0.0011244481120439918 0.03200109337506742
-0.1195832490586161 0.019736034747764544 0.04107198183034971
-0.12803167092788045 0.03834762138348509 0.050142870285631996
-0.04405397295722229 -0.13529112140686525 -0.011511568181402781
-0.05250239482648665 -0.1166795347711447 -0.0024406797261204978
-0.06095081669575102 -0.09806794813542416 0.006630208729161789
-0.06939923856501538 -0.0794563614997036 0.015701097184444075
-0.07784766043427975 -0.06084477486398306 0.024771985639726362
-0.08629608230354412 -0.042233188228262504 0.033842874095008656
-0.09474450417280847 -0.023621601592541966 0.04291376255029093
-0.10319292604207285 -0.005010014956821413 0.05198465100557322
-0.11164134791133722 0.013601571678899138 0.06105553946085551
-0.12008976978060157 0.03221315831461968 0.0701264279161378
-0.03611207180994342 -0.14142558447573067 0.008471989449103006
-0.04456049367920778 -0.12281399784001011 0.017542877904385287
-0.053008915548472146 -0.10420241120428957 0.026613766359667574
-0.06145733741773651 -0.08559082456856901 0.03568465481494986
-0.06990575928700088 -0.06697923793284846 0.04475554327023215
-0.07835418115626525 -0.0483676512971279 0.05382643172551444
-0.0868026030255296 -0.029756064661407365 0.06289732018079672
-0.09525102489479398 -0.011144478025686815 0.07196820863607901
-0.10369944676405835 0.007467108610033738 0.0810390970913613
-0.1121478686333227 0.026078695245754284 0.09010998554664358
-0.028170170662664536 -0.14756004754459606 0.02845554707960881
-0.036618592531928895 -0.12894846090887552 0.037526435534891094
-0.04506701440119326 -0.11033687427315497 0.04659732399017338
-0.05351543627045763 -0.09172528763743441 0.05566821244545567
-0.061963858139721995 -0.07311370100171387 0.06473910090073795
-0.07041228000898636 -0.05450211436599331 0.07380998935602025
-0.07886070187825071 -0.03589052773027277 0.08288087781130252
-0.0873091237475151 -0.01727894109455222 0.09195176626658481
-0.09575754561677946 0.0013326455411683314 0.1010226547218671
-0.10420596748604381 0.019944232176888878 0.11009354317714938
-0.02022826951538565 -0.15369451061346148 0.04843910471011461
-0.02867669138465001 -0.13508292397774094 0.05750999316539689
-0.03712511325391438 -0.11647133734202038 0.06658088162067918
-0.04557353512317874 -0.09785975070629982 0.07565177007596147
-0.05402195699244311 -0.07924816407057927 0.08472265853124375
-0.062470378861707476 -0.060636577434858716 0.09379354698652605
-0.07091880073097183 -0.04202499079913818 0.10286443544180833
-0.07936722260023621 -0.023413404163417625 0.11193532389709061
-0.08781564446950058 -0.004801817527697074 0.12100621235237291
-0.09626406633876493 0.01380976910802347 0.1300771008076552
-0.012286368368106775 -0.15982897368232687 0.0684226623406204
-0.020734790237371133 -0.14121738704660633 0.07749355079590269
-0.0291832121066355 -0.12260580041088578 0.08656443925118497
-0.037631633975899866 -0.10399421377516523 0.09563532770646727
-0.04608005584516423 -0.08538262713944468 0.10470621616174955
-0.0545284777144286 -0.06677104050372412 0.11377710461703183
-0.06297689958369296 -0.048159453868003584 0.12284799307231412
-0.07142532145295734 -0.029547867232283028 0.1319188815275964
-0.0798737433222217 -0.010936280596562478 0.1409897699828787
-0.08832216519148606 0.007675306039158068 0.150060658438161
0.08832216519148606 -0.007675306039158068 -0.150060658438161
0.0798737433222217 0.010936280596562478 -0.1409897699828787
0.07142532145295734 0.02954786723228302 -0.13191888152759643
0.06297689958369297 0.04815945386800357 -0.12284799307231413
0.0545284777144286 0.06677104050372412 -0.11377710461703183
0.04608005584516423 0.08538262713944468 -0.10470621616174955
0.03763163397589988 0.10399421377516521 -0.09563532770646727
0.0291832121066355 0.12260580041088577 -0.08656443925118498
0.020734790237371133 0.14121738704660633 -0.07749355079590269
0.012286368368106775 0.15982897368232687 -0.0684226623406204
0.09626406633876493 -0.01380976910802347 -0.1300771008076552
0.08781564446950058 0.004801817527697074 -0.12100621235237291
0.07936722260023621 0.02341340416341762 -0.11193532389709063
0.07091880073097184 0.04202499079913817 -0.10286443544180833
0.062470378861707476 0.060636577434858716 -0.09379354698652605
0.05402195699244311 0.07924816407057927 -0.08472265853124375
0.04557353512317876 0.0978597507062998 -0.07565177007596148
0.03712511325391438 0.11647133734202036 -0.06658088162067918
0.02867669138465001 0.13508292397774094 -0.05750999316539689
0.02022826951538565 0.15369451061346148 -0.04843910471011461
0.10420596748604381 -0.019944232176888874 -0.1100935431771494
0.09575754561677946 -0.0013326455411683295 -0.10102265472186711
0.0873091237475151 0.017278941094552216 -0.09195176626658483
0.07886070187825073 0.035890527730272764 -0.08288087781130253
0.07041228000898636 0.05450211436599331 -0.07380998935602025
0.06196385813972199 0.07311370100171387 -0.06473910090073796
0.053515436270457635 0.0917252876374344 -0.05566821244545568
0.045067014401193255 0.11033687427315496 -0.04659732399017339
0.03661859253192889 0.12894846090887552 -0.0375264355348911
0.028170170662664532 0.14756004754459606 -0.028455547079608814
0.11214786863332268 -0.02607869524575428 -0.0901099855466436
0.10369944676405833 -0.007467108610033734 -0.08103909709136131
0.09525102489479396 0.011144478025686811 -0.07196820863607903
0.0868026030255296 0.029756064661407358 -0.06289732018079673
0.07835418115626523 0.04836765129712791 -0.05382643172551445
0.06990575928700087 0.06697923793284846 -0.04475554327023216
0.06145733741773652 0.085590824568569 -0.03568465481494988
0.05300891554847214 0.10420241120428955 -0.02661376635966759
0.04456049367920777 0.12281399784001011 -0.0175428779043853
0.036112071809943413 0.14142558447573067 -0.008471989449103018
0.12008976978060157 -0.03221315831461968 -0.0701264279161378
0.11164134791133722 -0.013601571678899138 -0.06105553946085551
0.10319292604207285 0.005010014956821406 -0.05198465100557323
0.09474450417280848 0.023621601592541955 -0.04291376255029094
0.08629608230354412 0.042233188228262504 -0.033842874095008656
0.07784766043427975 0.06084477486398306 -0.024771985639726362
0.0693992385650154 0.07945636149970359 -0.015701097184444082
0.06095081669575102 0.09806794813542415 -0.006630208729161793
0.05250239482648665 0.1166795347711447 0.0024406797261204978
0.04405397295722229 0.13529112140686525 0.011511568181402781
0.12803167092788045 -0.03834762138348509 -0.050142870285631996
0.1195832490586161 -0.019736034747764544 -0.04107198183034971
0.11113482718935173 -0.0011244481120439988 -0.03200109337506743
0.10268640532008737 0.01748713852367655 -0.02293020491978514
0.094237983450823 0.0360987251593971 -0.013859316464502853
0.08578956158155863 0.05471031179511766 -0.004788428009220562
0.07734113971229428 0.0733218984308382 0.004282460446061718
0.0688927178430299 0.09193348506655875 0.013353348901344007
0.060444295973765536 0.11054507170227931 0.022424237356626298
0.051995874104501176 0.12915665833799986 0.03149512581190858
0.13597357207515934 -0.04448208445235049 -0.03015931265512621
0.12752515020589497 -0.025870497816629943 -0.021088424199843928
0.1190767283366306 -0.007258911180909399 -0.012017535744561643
0.11062830646736624 0.011352675454811148 -0.002946647289279353
0.10217988459810187 0.0299642620905317 0.006124241166002934
0.0937314627288375 0.04857584872625226 0.015195129621285225
0.08528304085957315 0.06718743536197279 0.024266018076567503
0.07683461899030877 0.08579902199769335 0.03333690653184979
0.0683861971210444 0.1044106086334139 0.04240779498713208
0.05993777525178005 0.12302219526913445 0.051478683442414366
0.14391547322243822 -0.050616547521215895 -0.010175755024620406
0.13546705135317386 -0.03200496088549535 -0.0011048665693381226
0.1270186294839095 -0.013393374249774806 0.00796602188594416
0.11857020761464512 0.005218212385945743 0.017036910341226452
0.11012178574538076 0.023829799021666292 0.02610779879650874
0.10167336387611639 0.04244138565738685 0.035178687251791026
0.09322494200685204 0.06105297229310738 0.04424957570707331
0.08477652013758766 0.07966455892882794 0.0533204641623556
0.07632809826832329 0.0982761455645485 0.06239135261763789
0.06787967639905894 0.11688773220026905 0.07146224107292017
0.15185737436971708 -0.0567510105900813 0.009807802605885398
0.14340895250045274 -0.038139423954360756 0.01887869106116768
0.13496053063118837 -0.01952783731864021 0.027949579516449965
0.126512108761924 -0.0009162506829196635 0.03702046797173225
0.11806368689265964 0.017695335952800886 0.04609135642701454
0.10961526502339528 0.036306922588521445 0.05516224488229683
0.10116684315413092 0.054918509224241976 0.06423313333757912
0.09271842128486654 0.07353009585996254 0.0733040217928614
0.08426999941560218 0.0921416824956831 0.0823749102481437
0.07582157754633781 0.11075326913140364 0.09144579870342598
0.15979927551699596 -0.0628854736589467 0.029791360236391187
0.15135085364773163 -0.04427388702322616 0.03886224869167347
0.14290243177846726 -0.025662300387505613 0.047933137146955754
0.1344540099092029 -0.007050713751785066 0.057004025602238044
0.12600558803993853 0.011560872883935482 0.06607491405752033
0.11755716617067415 0.030172459519656043 0.07514580251280262
0.1091087443014098 0.04878404615537657 0.0842166909680849
0.10066032243214541 0.06739563279109713 0.0932875794233672
0.09221190056288105 0.08600721942681769 0.10235846787864948
0.0837634786936167 0.10461880606253823 0.11142935633393176
-0.0837634786936167 -0.10461880606253823 -0.11142935633393176
-0.06464285159527194 -0.09384730605994043 -0.11572172323440168
-0.0455222244969272 -0.08307580605734263 -0.12001409013487159
-0.026401597398582447 -0.07230430605474483 -0.1243064570353415
-0.007280970300237693 -0.061532806052147046 -0.12859882393581143
0.011839656798107058 -0.050761306049549246 -0.13289119083628134
0.0309602838964518 -0.03998980604695146 -0.13718355773675125
0.05008091099479655 -0.029218306044353663 -0.14147592463722117
0.06920153809314131 -0.018446806041755862 -0.14576829153769108
0.08832216519148606 -0.007675306039158068 -0.150060658438161
-0.07582157754633781 -0.11075326913140364 -0.09144579870342598
-0.056700950447993066 -0.09998176912880584 -0.09573816560389589
-0.03758032334964832 -0.08921026912620804 -0.1000305325043658
-0.01845969625130357 -0.07843876912361024 -0.10432289940483572
0.0006609308470411852 -0.06766726912101245 -0.10861526630530563
0.019781557945385934 -0.05689576911841465 -0.11290763320577554
0.03890218504373068 -0.046124269115816866 -0.11720000010624546
0.05802281214207543 -0.035352769113219065 -0.12149236700671537
0.07714343924042018 -0.024581269110621265 -0.12578473390718528
0.09626406633876493 -0.01380976910802347 -0.1300771008076552
-0.06787967639905894 -0.11688773220026905 -0.07146224107292018
-0.04875904930071419 -0.10611623219767125 -0.07575460797339009
-0.02963842220236944 -0.09534473219507344 -0.08004697487386
-0.010517795104024688 -0.08457323219247564 -0.08433934177432992
0.008602831994320066 -0.07380173218987786 -0.08863170867479983
0.027723459092664816 -0.06303023218728006 -0.09292407557526974
0.046844086191009555 -0.05225873218468227 -0.09721644247573966
0.06596471328935431 -0.04148723218208447 -0.10150880937620957
0.08508534038769906 -0.030715732179486668 -0.10580117627667948
0.10420596748604381 -0.019944232176888874 -0.1100935431771494
-0.059937775251780054 -0.12302219526913445 -0.05147868344241438
-0.040817148153435304 -0.11225069526653665 -0.05577105034288429
-0.02169652105509056 -0.10147919526393885 -0.060063417243354206
-0.002575893956745808 -0.09070769526134105 -0.06435578414382412
0.016544733141598947 -0.07993619525874326 -0.06864815104429403
0.0356653602399437 -0.06916469525614546 -0.07294051794476394
0.05478598733828844 -0.05839319525354767 -0.07723288484523386
0.07390661443663318 -0.04762169525094987 -0.08152525174570377
0.09302724153497793 -0.03685019524835207 -0.08581761864617368
0.11214786863332268 -0.02607869524575428 -0.0901099855466436
-0.051995874104501176 -0.12915665833799986 -0.03149512581190858
-0.032875247006156426 -0.11838515833540206 -0.035787492712378494
-0.013754619907811681 -0.10761365833280426 -0.040079859612848406
0.005366007190533073 -0.09684215833020646 -0.04437222651331832
0.024486634288877825 -0.08607065832760867 -0.04866459341378823
0.043607261387222575 -0.07529915832501087 -0.052956960314258145
0.06272788848556732 -0.06452765832241308 -0.05724932721472806
0.08184851558391207 -0.05375615831981528 -0.06154169411519797
0.10096914268225682 -0.042984658317217476 -0.06583406101566788
0.12008976978060157 -0.03221315831461968 -0.0701264279161378
-0.04405397295722229 -0.13529112140686525 -0.011511568181402781
-0.02493334585887754 -0.12451962140426745 -0.015803935081872694
-0.0058127187605328 -0.11374812140166965 -0.020096301982342607
0.013307908337811954 -0.10297662139907185 -0.02438866888281252
0.03242853543615671 -0.09220512139647406 -0.028681035783282433
0.05154916253450146 -0.08143362139387626 -0.032973402683752345
0.0706697896328462 -0.07066212139127848 -0.03726576958422226
0.08979041673119095 -0.05989062138868068 -0.04155813648469217
0.1089110438295357 -0.04911912138608288 -0.045850503385162084
0.12803167092788045 -0.03834762138348509 -0.050142870285631996
-0.03611207180994342 -0.14142558447573067 0.008471989449103006
-0.016991444711598667 -0.13065408447313287 0.004179622548633093
0.0021291823867460764 -0.11988258447053506 -0.00011274435183682006
0.02124980948509083 -0.10911108446793726 -0.0044051112523067325
0.04037043658343558 -0.09833958446533947 -0.008697478152776645
0.05949106368178033 -0.08756808446274167 -0.012989845053246558
0.07861169078012507 -0.07679658446014388 -0.017282211953716473
0.09773231787846982 -0.06602508445754608 -0.021574578854186385
0.11685294497681457 -0.05525358445494828 -0.025866945754656298
0.13597357207515934 -0.04448208445235049 -0.03015931265512621
-0.028170170662664536 -0.14756004754459606 0.02845554707960881
-0.009049543564319784 -0.13678854754199826 0.024163180179138898
0.01007108353402496 -0.12601704753940046 0.019870813278668985
0.02919171063236971 -0.11524554753680266 0.01557844637819907
0.048312337730714465 -0.10447404753420488 0.011286079477729158
0.06743296482905922 -0.09370254753160707 0.006993712577259245
0.08655359192740396 -0.08293104752900929 0.0027013456767893324
0.10567421902574871 -0.07215954752641149 -0.0015910212236805803
0.12479484612409346 -0.06138804752381369 -0.0058833881241504935
0.14391547322243822 -0.050616547521215895 -0.010175755024620406
-0.02022826951538565 -0.15369451061346148 0.04843910471011461
-0.0011076424170409019 -0.14292301061086368 0.0441467378096447
0.018012984681303842 -0.13215151060826588 0.039854370909174784
0.03713361177964859 -0.12138001060566807 0.03556200400870487
0.05625423887799335 -0.11060851060307028 0.03126963710823496
0.07537486597633809 -0.09983701060047248 0.02697727020776505
0.09449549307468284 -0.0890655105978747 0.022684903307295137
0.1136161201730276 -0.0782940105952769 0.018392536406825224
0.13273674727137233 -0.0675225105926791 0.014100169506355311
0.15185737436971708 -0.0567510105900813 0.009807802605885398
-0.012286368368106775 -0.15982897368232687 0.0684226623406204
0.006834258730237976 -0.14905747367972907 0.06413029544015049
0.02595488582858272 -0.13828597367713127 0.05983792853968058
0.04507551292692747 -0.12751447367453347 0.055545561639210664
0.06419614002527223 -0.11674297367193569 0.05125319473874075
0.08331676712361698 -0.10597147366933789 0.04696082783827084
0.10243739422196171 -0.0951999736667401 0.042668460937800926
0.12155802132030646 -0.0844284736641423 0.03837609403733101
0.14067864841865121 -0.0736569736615445 0.0340837271368611
0.15979927551699596 -0.0628854736589467 0.029791360236391187
-0.15979927551699596 0.0628854736589467 -0.029791360236391187
-0.14067864841865121 0.0736569736615445 -0.0340837271368611
-0.12155802132030648 0.0844284736641423 -0.03837609403733101
-0.10243739422196173 0.0951999736667401 -0.042668460937800926
-0.08331676712361698 0.10597147366933789 -0.04696082783827084
-0.06419614002527223 0.11674297367193569 -0.05125319473874075
-0.045075512926927484 0.12751447367453347 -0.055545561639210664
-0.025954885828582727 0.13828597367713127 -0.05983792853968058
-0.006834258730237976 0.14905747367972907 -0.06413029544015049
0.012286368368106775 0.15982897368232687 -0.0684226623406204
-0.15185737436971708 0.0567510105900813 -0.009807802605885398
-0.13273674727137233 0.0675225105926791 -0.014100169506355311
-0.11361612017302761 0.0782940105952769 -0.018392536406825224
-0.09449549307468286 0.0890655105978747 -0.022684903307295137
-0.07537486597633809 0.09983701060047248 -0.02697727020776505
-0.05625423887799335 0.11060851060307028 -0.03126963710823496
-0.037133611779648606 0.12138001060566807 -0.03556200400870487
-0.01801298468130385 0.13215151060826588 -0.039854370909174784
0.0011076424170409019 0.14292301061086368 -0.0441467378096447
0.02022826951538565 0.15369451061346148 -0.04843910471011461
-0.14391547322243822 0.050616547521215895 0.0101757550246204
-0.12479484612409346 0.06138804752381369 0.005883388124150487
-0.10567421902574872 0.07215954752641149 0.0015910212236805743
-0.08655359192740397 0.08293104752900929 -0.0027013456767893385
-0.06743296482905922 0.09370254753160707 -0.006993712577259252
-0.04831233773071447 0.10447404753420488 -0.011286079477729164
-0.029191710632369725 0.11524554753680266 -0.015578446378199077
-0.010071083534024968 0.12601704753940046 -0.019870813278668988
0.009049543564319782 0.13678854754199826 -0.0241631801791389
0.028170170662664532 0.14756004754459606 -0.028455547079608814
-0.13597357207515934 0.044482084452350495 0.030159312655126197
-0.11685294497681459 0.05525358445494829 0.025866945754656284
-0.09773231787846985 0.06602508445754608 0.02157457885418637
-0.0786116907801251 0.07679658446014388 0.01728221195371646
-0.05949106368178034 0.08756808446274167 0.012989845053246546
-0.04037043658343559 0.09833958446533947 0.008697478152776633
-0.021249809485090844 0.10911108446793726 0.00440511125230672
-0.002129182386746088 0.11988258447053506 0.00011274435183680766
0.016991444711598663 0.13065408447313287 -0.004179622548633105
0.036112071809943413 0.14142558447573067 -0.008471989449103018
-0.12803167092788045 0.03834762138348509 0.050142870285631996
-0.1089110438295357 0.04911912138608288 0.045850503385162084
-0.08979041673119097 0.05989062138868068 0.04155813648469217
-0.07066978963284622 0.07066212139127848 0.03726576958422226
-0.05154916253450146 0.08143362139387626 0.032973402683752345
-0.03242853543615671 0.09220512139647406 0.028681035783282433
-0.013307908337811964 0.10297662139907185 0.02438866888281252
0.005812718760532793 0.11374812140166965 0.020096301982342607
0.02493334585887754 0.12451962140426745 0.015803935081872694
0.04405397295722229 0.13529112140686525 0.011511568181402781
-0.12008976978060157 0.03221315831461968 0.0701264279161378
-0.10096914268225682 0.042984658317217476 0.06583406101566788
-0.08184851558391208 0.05375615831981528 0.06154169411519797
-0.06272788848556733 0.06452765832241308 0.05724932721472806
-0.043607261387222575 0.07529915832501087 0.052956960314258145
-0.024486634288877825 0.08607065832760867 0.04866459341378823
-0.005366007190533083 0.09684215833020646 0.04437222651331832
0.013754619907811674 0.10761365833280426 0.040079859612848406
0.032875247006156426 0.11838515833540206 0.035787492712378494
0.051995874104501176 0.12915665833799986 0.03149512581190858
-0.1121478686333227 0.026078695245754284 0.09010998554664358
-0.09302724153497795 0.03685019524835208 0.08581761864617367
-0.07390661443663321 0.04762169525094988 0.08152525174570376
-0.05478598733828846 0.05839319525354768 0.07723288484523384
-0.035665360239943704 0.06916469525614546 0.07294051794476393
-0.01654473314159895 0.07993619525874326 0.06864815104429402
0.002575893956745793 0.09070769526134105 0.0643557841438241
0.02169652105509055 0.10147919526393885 0.06006341724335419
0.0408171481534353 0.11225069526653665 0.05577105034288428
0.05993777525178005 0.12302219526913445 0.051478683442414366
-0.10420596748604381 0.019944232176888878 0.11009354317714938
-0.08508534038769906 0.03071573217948667 0.10580117627667947
-0.06596471328935433 0.04148723218208447 0.10150880937620956
-0.046844086191009576 0.05225873218468227 0.09721644247573964
-0.02772345909266482 0.06303023218728006 0.09292407557526973
-0.008602831994320067 0.07380173218987786 0.08863170867479982
0.010517795104024676 0.08457323219247564 0.0843393417743299
0.02963842220236943 0.09534473219507344 0.08004697487385999
0.04875904930071418 0.10611623219767125 0.07575460797339008
0.06787967639905894 0.11688773220026905 0.07146224107292017
-0.09626406633876493 0.01380976910802347 0.1300771008076552
-0.07714343924042018 0.024581269110621265 0.12578473390718528
-0.05802281214207544 0.035352769113219065 0.12149236700671537
-0.03890218504373069 0.046124269115816866 0.11720000010624546
-0.019781557945385934 0.05689576911841465 0.11290763320577554
-0.0006609308470411852 0.06766726912101245 0.10861526630530563
0.01845969625130356 0.07843876912361024 0.10432289940483572
0.037580323349648316 0.08921026912620804 0.1000305325043658
0.056700950447993066 0.09998176912880584 0.09573816560389589
0.07582157754633781 0.11075326913140364 0.09144579870342598
-0.08832216519148606 0.007675306039158068 0.150060658438161
-0.06920153809314131 0.018446806041755862 0.14576829153769108
-0.050080910994796564 0.029218306044353663 0.14147592463722117
-0.030960283896451814 0.03998980604695146 0.13718355773675125
-0.011839656798107058 0.050761306049549246 0.13289119083628134
0.007280970300237693 0.061532806052147046 0.12859882393581143
0.026401597398582437 0.07230430605474483 0.1243064570353415
0.045522224496927194 0.08307580605734263 0.12001409013487159
0.06464285159527194 0.09384730605994043 0.11572172323440168
0.0837634786936167 0.10461880606253823 0.11142935633393176
-0.0837634786936167 -0.10461880606253823 -0.11142935633393176
-0.06464285159527194 -0.09384730605994043 -0.11572172323440168
-0.0455222244969272 -0.08307580605734263 -0.12001409013487159
-0.026401597398582447 -0.07230430605474483 -0.1243064570353415
-0.007280970300237693 -0.061532806052147046 -0.12859882393581143
0.011839656798107058 -0.050761306049549246 -0.13289119083628134
0.0309602838964518 -0.03998980604695146 -0.13718355773675125
0.05008091099479655 -0.029218306044353663 -0.14147592463722117
0.06920153809314131 -0.018446806041755862 -0.14576829153769108
0.08832216519148606 -0.007675306039158068 -0.150060658438161
-0.09221190056288105 -0.08600721942681769 -0.10235846787864948
-0.0730912734645363 -0.07523571942421989 -0.1066508347791194
-0.05397064636619156 -0.06446421942162209 -0.1109432016795893
-0.03485001926784681 -0.05369271941902429 -0.11523556858005922
-0.01572939216950206 -0.0429212194164265 -0.11952793548052913
0.0033912349288426984 -0.0321497194138287 -0.12382030238099904
0.022511862027187433 -0.021378219411230918 -0.12811266928146897
0.0416324891255322 -0.010606719408633116 -0.13240503618193888
0.06075311622387695 0.00016478059396468376 -0.1366974030824088
0.0798737433222217 0.010936280596562478 -0.1409897699828787
-0.10066032243214541 -0.06739563279109714 -0.0932875794233672
-0.08153969533380066 -0.05662413278849934 -0.09757994632383711
-0.06241906823545593 -0.04585263278590154 -0.10187231322430702
-0.04329844113711118 -0.03508113278330374 -0.10616468012477694
-0.024177814038766423 -0.02430963278070596 -0.11045704702524685
-0.0050571869404216685 -0.013538132778108157 -0.11474941392571676
0.014063440157923069 -0.002766632775510372 -0.11904178082618667
0.03318406725626783 0.00800486722708743 -0.12333414772665659
0.05230469435461258 0.018776367229685228 -0.1276265146271265
0.07142532145295734 0.02954786723228302 -0.13191888152759643
-0.10910874430140978 -0.048784046155376584 -0.08421669096808491
-0.08998811720306503 -0.0380125461527788 -0.08850905786855481
-0.0708674901047203 -0.027241046150181 -0.09280142476902473
-0.05174686300637554 -0.0164695461475832 -0.09709379166949465
-0.032626235908030786 -0.0056980461449854065 -0.10138615856996457
-0.013505608809686034 0.005073453857612387 -0.10567852547043448
0.005615018288658708 0.015844953860210176 -0.10997089237090439
0.024735645387003465 0.026616453862807976 -0.1142632592713743
0.043856272485348215 0.037387953865405776 -0.11855562617184422
0.06297689958369297 0.04815945386800357 -0.12284799307231413
-0.11755716617067415 -0.030172459519656043 -0.07514580251280262
-0.0984365390723294 -0.019400959517058242 -0.07943816941327253
-0.07931591197398466 -0.008629459514460447 -0.08373053631374244
-0.0601952848756399 0.0021420404881373487 -0.08802290321421236
-0.04107465777729515 0.012913540490735145 -0.09231527011468227
-0.0219540306789504 0.02368504049333294 -0.09660763701515218
-0.0028334035806056577 0.03445654049593073 -0.1009000039156221
0.016287223517739098 0.04522804049852853 -0.105192370816092
0.03540785061608385 0.05599954050112633 -0.10948473771656192
0.0545284777144286 0.06677104050372412 -0.11377710461703183
-0.12600558803993853 -0.011560872883935482 -0.06607491405752033
-0.10688496094159376 -0.0007893728813376928 -0.07036728095799025
-0.08776433384324903 0.009982127121260105 -0.07465964785846016
-0.06864370674490426 0.0207536271238579 -0.07895201475893007
-0.04952307964655952 0.03152512712645569 -0.08324438165939999
-0.030402452548214765 0.04229662712905349 -0.0875367485598699
-0.011281825449870024 0.05306812713165128 -0.09182911546033981
0.007838801648474733 0.06383962713424908 -0.09612148236080972
0.026959428746819482 0.07461112713684688 -0.10041384926127964
0.04608005584516423 0.08538262713944468 -0.10470621616174955
-0.13445400990920287 0.007050713751785055 -0.05700402560223805
-0.11533338281085811 0.017822213754382848 -0.061296392502707964
-0.09621275571251338 0.028593713756980645 -0.06558875940317788
-0.07709212861416863 0.039365213759578445 -0.06988112630364779
-0.05797150151582388 0.05013671376217624 -0.0741734932041177
-0.03885087441747913 0.06090821376477404 -0.07846586010458761
-0.019730247319134385 0.07167971376737182 -0.08275822700505753
-0.0006096202207896267 0.08245121376996963 -0.08705059390552744
0.018511006877555122 0.09322271377256743 -0.09134296080599735
0.03763163397589988 0.10399421377516521 -0.09563532770646727
-0.14290243177846726 0.025662300387505606 -0.04793313714695576
-0.1237818046801225 0.0364338003901034 -0.052225504047425673
-0.10466117758177775 0.0472053003927012 -0.056517870947895586
-0.085540550483433 0.057976800395299 -0.0608102378483655
-0.06641992338508824 0.06874830039789678 -0.06510260474883542
-0.047299296286743495 0.07951980040049458 -0.06939497164930533
-0.028178669188398755 0.09029130040309238 -0.07368733854977524
-0.009058042090053996 0.10106280040569018 -0.07797970545024516
0.01006258500829075 0.11183430040828798 -0.08227207235071507
0.0291832121066355 0.12260580041088577 -0.08656443925118498
-0.15135085364773163 0.04427388702322616 -0.03886224869167347
-0.13223022654938688 0.055045387025823955 -0.04315461559214338
-0.11310959945104211 0.06581688702842176 -0.047446982492613296
-0.09398897235269736 0.07658838703101954 -0.05173934939308321
-0.07486834525435261 0.08735988703361734 -0.05603171629355312
-0.05574771815600786 0.09813138703621514 -0.060324083194023034
-0.03662709105766312 0.10890288703881293 -0.06461645009449295
-0.017506463959318364 0.11967438704141073 -0.06890881699496286
0.0016141631390263836 0.13044588704400853 -0.07320118389543277
0.020734790237371133 0.14121738704660633 -0.07749355079590269
-0.15979927551699596 0.0628854736589467 -0.029791360236391187
-0.14067864841865121 0.0736569736615445 -0.0340837271368611
-0.12155802132030648 0.0844284736641423 -0.03837609403733101
-0.10243739422196173 0.0951999736667401 -0.042668460937800926
-0.08331676712361698 0.10597147366933789 -0.04696082783827084
-0.06419614002527223 0.11674297367193569 -0.05125319473874075
-0.045075512926927484 0.12751447367453347 -0.055545561639210664
-0.025954885828582727 0.13828597367713127 -0.05983792853968058
-0.006834258730237976 0.14905747367972907 -0.06413029544015049
0.012286368368106775 0.15982897368232687 -0.0684226623406204
-0.012286368368106775 -0.15982897368232687 0.0684226623406204
0.006834258730237976 -0.14905747367972907 0.06413029544015049
0.02595488582858272 -0.13828597367713127 0.05983792853968058
0.04507551292692747 -0.12751447367453347 0.055545561639210664
0.06419614002527223 -0.11674297367193569 0.05125319473874075
0.08331676712361698 -0.10597147366933789 0.04696082783827084
0.10243739422196171 -0.0951999736667401 0.042668460937800926
0.12155802132030646 -0.0844284736641423 0.03837609403733101
0.14067864841865121 -0.0736569736615445 0.0340837271368611
0.15979927551699596 -0.0628854736589467 0.029791360236391187
-0.020734790237371133 -0.14121738704660633 0.07749355079590269
-0.0016141631390263836 -0.13044588704400853 0.07320118389543277
0.017506463959318357 -0.11967438704141073 0.06890881699496286
0.03662709105766311 -0.10890288703881293 0.06461645009449295
0.05574771815600786 -0.09813138703621514 0.060324083194023034
0.07486834525435261 -0.08735988703361734 0.05603171629355312
0.09398897235269735 -0.07658838703101956 0.05173934939308321
0.11310959945104211 -0.06581688702842176 0.047446982492613296
0.13223022654938688 -0.055045387025823955 0.04315461559214338
0.15135085364773163 -0.04427388702322616 0.03886224869167347
-0.0291832121066355 -0.12260580041088578 0.08656443925118497
-0.01006258500829075 -0.11183430040828798 0.08227207235071506
0.009058042090053989 -0.10106280040569018 0.07797970545024514
0.028178669188398744 -0.09029130040309238 0.07368733854977523
0.047299296286743495 -0.0795198004004946 0.06939497164930532
0.06641992338508824 -0.0687483003978968 0.0651026047488354
0.08554055048343298 -0.05797680039529901 0.0608102378483655
0.10466117758177775 -0.04720530039270121 0.05651787094789558
0.1237818046801225 -0.03643380039010341 0.05222550404742567
0.14290243177846726 -0.025662300387505613 0.047933137146955754
-0.037631633975899866 -0.10399421377516523 0.09563532770646727
-0.018511006877555115 -0.09322271377256744 0.09134296080599735
0.0006096202207896267 -0.08245121376996964 0.08705059390552744
0.019730247319134378 -0.07167971376737184 0.08275822700505753
0.03885087441747913 -0.060908213764774045 0.07846586010458761
0.057971501515823885 -0.05013671376217625 0.0741734932041177
0.07709212861416863 -0.03936521375957846 0.06988112630364779
0.09621275571251338 -0.02859371375698066 0.06558875940317788
0.11533338281085813 -0.017822213754382858 0.06129639250270796
0.1344540099092029 -0.007050713751785066 0.057004025602238044
-0.04608005584516423 -0.08538262713944468 0.10470621616174955
-0.026959428746819482 -0.07461112713684688 0.10041384926127964
-0.00783880164847474 -0.06383962713424908 0.09612148236080972
0.011281825449870013 -0.05306812713165129 0.09182911546033981
0.030402452548214765 -0.04229662712905349 0.0875367485598699
0.04952307964655952 -0.03152512712645569 0.08324438165939999
0.06864370674490426 -0.020753627123857907 0.07895201475893007
0.08776433384324901 -0.009982127121260108 0.07465964785846016
0.10688496094159376 0.0007893728813376928 0.07036728095799025
0.12600558803993853 0.011560872883935482 0.06607491405752033
-0.0545284777144286 -0.06677104050372412 0.11377710461703183
-0.03540785061608385 -0.05599954050112633 0.10948473771656192
-0.016287223517739105 -0.045228040498528535 0.105192370816092
0.0028334035806056508 -0.034456540495930735 0.1009000039156221
0.0219540306789504 -0.02368504049333294 0.09660763701515218
0.04107465777729515 -0.012913540490735145 0.09231527011468227
0.060195284875639896 -0.0021420404881373556 0.08802290321421236
0.07931591197398465 0.00862945951446044 0.08373053631374244
0.0984365390723294 0.019400959517058242 0.07943816941327253
0.11755716617067415 0.030172459519656043 0.07514580251280262
-0.06297689958369296 -0.048159453868003584 0.12284799307231412
-0.0438562724853482 -0.03738795386540579 0.1185556261718442
-0.024735645387003465 -0.02661645386280799 0.11426325927137429
-0.005615018288658715 -0.015844953860210193 0.10997089237090438
0.013505608809686041 -0.005073453857612401 0.10567852547043446
0.03262623590803079 0.0056980461449854 0.10138615856996455
0.051746863006375536 0.016469546147583187 0.09709379166949464
0.0708674901047203 0.027241046150180987 0.09280142476902473
0.08998811720306504 0.038012546152778784 0.08850905786855481
0.1091087443014098 0.04878404615537657 0.0842166909680849
-0.07142532145295734 -0.029547867232283028 0.1319188815275964
-0.05230469435461258 -0.018776367229685235 0.12762651462712649
-0.03318406725626783 -0.00800486722708744 0.12333414772665659
-0.014063440157923083 0.002766632775510358 0.11904178082618667
0.0050571869404216685 0.01353813277810815 0.11474941392571676
0.024177814038766423 0.024309632780705952 0.11045704702524685
0.04329844113711116 0.03508113278330374 0.10616468012477694
0.06241906823545592 0.04585263278590154 0.10187231322430702
0.08153969533380066 0.05662413278849934 0.0975799463238371
0.10066032243214541 0.06739563279109713 0.0932875794233672
-0.0798737433222217 -0.010936280596562478 0.1409897699828787
-0.06075311622387695 -0.00016478059396468376 0.1366974030824088
-0.0416324891255322 0.010606719408633116 0.13240503618193888
-0.022511862027187447 0.02137821941123091 0.12811266928146897
-0.0033912349288426984 0.0321497194138287 0.12382030238099904
0.01572939216950206 0.0429212194164265 0.11952793548052913
0.034850019267846796 0.05369271941902429 0.11523556858005922
0.05397064636619155 0.06446421942162209 0.1109432016795893
0.0730912734645363 0.07523571942421989 0.1066508347791194
0.09221190056288105 0.08600721942681769 0.10235846787864948
-0.08832216519148606 0.007675306039158068 0.150060658438161
-0.06920153809314131 0.018446806041755862 0.14576829153769108
-0.050080910994796564 0.029218306044353663 0.14147592463722117
-0.030960283896451814 0.03998980604695146 0.13718355773675125
-0.011839656798107058 0.050761306049549246 0.13289119083628134
0.007280970300237693 0.061532806052147046 0.12859882393581143
0.026401597398582437 0.07230430605474483 0.1243064570353415
0.045522224496927194 0.08307580605734263 0.12001409013487159
0.06464285159527194 0.09384730605994043 0.11572172323440168
0.0837634786936167 0.10461880606253823 0.11142935633393176
