# .PCD v0.7 - Point Cloud Data file format
VERSION 0.7
FIELDS x y z
SIZE 4 4 4
TYPE F F F
COUNT 1 1 1
WIDTH 600
HEIGHT 1
VIEWPOINT 0 0 0 1 0 0 0
POINTS 600
DATA ascii
-0.11274831675054715 -0.01840004193851983 -0.01320941329727655
-0.10477898774767316 -0.008556993530814315 -0.020779321033335404
-0.09680965874479917 0.0012860548768912072 -0.028349228769394254
-0.08884032974192521 0.011129103284596716 -0.0359191365054531
-0.08087100073905122 0.020972151692302238 -0.043489044241511954
-0.07290167173617723 0.030815200100007753 -0.05105895197757081
-0.06493234273330326 0.04065824850771327 -0.058628859713629654
-0.05696301373042928 0.050501296915418784 -0.0661987674496885
-0.04899368472755529 0.0603443453231243 -0.07376867518574735
-0.04102435572468131 0.07018739373082983 -0.08133858292180621
-0.10623343479508199 -0.014057055209017713 -0.0007036510566672643
-0.098264105792208 -0.004214006801312197 -0.008273558792726118
-0.09029477678933401 0.005629041606393325 -0.015843466528784968
-0.08232544778646005 0.015472090014098832 -0.023413374264843814
-0.07435611878358606 0.025315138421804356 -0.030983282000902668
-0.06638678978071207 0.03515818682950987 -0.03855318973696152
-0.0584174607778381 0.04500123523721539 -0.04612309747302037
-0.050448131774964114 0.0548442836449209 -0.05369300520907922
-0.042478802772090124 0.06468733205262642 -0.061262912945138075
-0.03450947376921615 0.07453038046033195 -0.06883282068119692
-0.09971855283961682 -0.009714068479515593 0.011802111183942027
-0.09174922383674283 0.0001289799281899223 0.004232203447883174
-0.08377989483386884 0.009972028335895444 -0.003337704288175676
-0.07581056583099488 0.019815076743600953 -0.010907612024234523
-0.06784123682812089 0.029658125151306475 -0.018477519760293375
-0.05987190782524691 0.03950117355901199 -0.026047427496352228
-0.05190257882237293 0.049344221966717505 -0.033617335232411075
-0.04393324981949895 0.05918727037442302 -0.04118724296846993
-0.03596392081662496 0.06903031878212854 -0.04875715070452878
-0.02799459181375098 0.07887336718983406 -0.05632705844058763
-0.09320367088415167 -0.0053710817500134764 0.02430787342455131
-0.08523434188127768 0.004471966657692039 0.016737965688492458
-0.07726501287840369 0.014315015065397561 0.009168057952433606
-0.06929568387552971 0.02415806347310307 0.0015981502163747601
-0.06132635487265573 0.03400111188080859 -0.005971757519684094
-0.05335702586978174 0.04384416028851411 -0.013541665255742946
-0.045387696866907766 0.053687208696219624 -0.021111572991801792
-0.03741836786403378 0.06353025710392514 -0.028681480727860646
-0.029449038861159797 0.07337330551163065 -0.0362513884639195
-0.021479709858285817 0.08321635391933618 -0.04382129619997835
-0.0866887889286865 -0.0010280950205113564 0.036813635665160604
-0.07871945992581252 0.008814953387194159 0.029243727929101748
-0.07075013092293853 0.01865800179489968 0.021673820193042898
-0.06278080192006455 0.02850105020260519 0.014103912456984053
-0.054811472917190567 0.03834409861031071 0.006534004720925199
-0.04684214391431658 0.04818714701801623 -0.0010359030151336536
-0.0388728149114426 0.05803019542572174 -0.0086058107511925
-0.030903485908568618 0.06787324383342726 -0.016175718487251356
-0.02293415690569463 0.07771629224113277 -0.02374562622331021
-0.014964827902820652 0.0875593406488383 -0.031315533959369056
-0.08017390697322133 0.0033148917089907627 0.04931939790576989
-0.07220457797034734 0.013157940116696278 0.04174949016971104
-0.06423524896747335 0.0230009885244018 0.03417958243365219
-0.056265919964599384 0.03284403693210731 0.026609674697593344
-0.0482965909617254 0.04268708533981283 0.01903976696153449
-0.04032726195885141 0.052530133747518346 0.011469859225475637
-0.032357932955977435 0.06237318215522386 0.0038999514894167892
-0.024388603953103452 0.07221623056292938 -0.0036699562466420642
-0.016419274950229466 0.08205927897063489 -0.011239863982700918
-0.008449945947355486 0.09190232737834042 -0.018809771718759763
-0.07365902501775617 0.007657878438492879 0.06182516014637918
-0.06568969601488218 0.017500926846198396 0.05425525241032032
-0.05772036701200819 0.027343975253903918 0.04668534467426147
-0.04975103800913422 0.03718702366160943 0.03911543693820262
-0.041781709006260236 0.04703007206931495 0.03154552920214377
-0.033812380003386246 0.056873120477020464 0.02397562146608492
-0.025843051000512273 0.06671616888472598 0.016405713730026073
-0.01787372199763829 0.0765592172924315 0.00883580599396722
-0.009904392994764304 0.08640226570013701 0.0012658982579083656
-0.0019350639918903235 0.09624531410784254 -0.006304009478150481
-0.06714414306229101 0.012000865167995 0.07433092238698846
-0.05917481405941701 0.021843913575700515 0.06676101465092961
-0.05120548505654302 0.03168696198340604 0.05919110691487076
-0.04323615605366905 0.041530010391111545 0.051621199178811916
-0.03526682705079507 0.05137305879881707 0.04405129144275306
-0.027297498047921084 0.06121610720652258 0.03648138370669421
-0.019328169045047108 0.0710591556142281 0.028911475970635363
-0.011358840042173123 0.08090220402193361 0.02134156823457651
-0.0033895110392991364 0.09074525242963913 0.013771660498517658
0.004579817963574843 0.10058830083734466 0.006201752762458811
-0.06062926110682584 0.016343851897497118 0.08683668462759776
-0.05265993210395185 0.026186900305202633 0.07926677689153891
-0.04469060310107786 0.036029948712908155 0.07169686915548006
-0.03672127409820389 0.045872997120613664 0.06412696141942122
-0.028751945095329905 0.055716045528319186 0.056557053683362356
-0.020782616092455915 0.0655590939360247 0.0489871459473035
-0.012813287089581939 0.07540214234373022 0.041417238211244656
-0.0048439580867079566 0.08524519075143573 0.0338473304751858
0.0031253709161660303 0.09508823915914125 0.02627742273912695
0.01109469991904001 0.10493128756684678 0.018707515003068102
-0.05411437915136067 0.020686838626999236 0.09934244686820705
-0.04614505014848668 0.03052988703470475 0.0917725391321482
-0.03817572114561269 0.040372935442410274 0.08420263139608934
-0.030206392142738726 0.05021598385011578 0.07663272366003049
-0.022237063139864743 0.060059032257821304 0.06906281592397163
-0.014267734136990751 0.06990208066552682 0.06149290818791279
-0.006298405134116776 0.07974512907323233 0.05392300045185394
0.0016709238687572072 0.08958817748093785 0.04635309271579509
0.009640252871631195 0.09943122588864337 0.038783184979736235
0.017609581874505172 0.1092742742963489 0.03121327724367739
-0.017609581874505172 -0.1092742742963489 -0.03121327724367739
-0.009640252871631195 -0.09943122588864337 -0.038783184979736235
-0.0016709238687572072 -0.08958817748093785 -0.04635309271579509
0.006298405134116769 -0.07974512907323233 -0.053923000451853935
0.014267734136990751 -0.06990208066552682 -0.06149290818791279
0.022237063139864743 -0.060059032257821304 -0.06906281592397163
0.03020639214273872 -0.05021598385011579 -0.07663272366003049
0.03817572114561269 -0.040372935442410274 -0.08420263139608934
0.04614505014848668 -0.03052988703470475 -0.0917725391321482
0.05411437915136067 -0.020686838626999236 -0.09934244686820705
-0.01109469991904001 -0.10493128756684678 -0.018707515003068102
-0.0031253709161660303 -0.09508823915914125 -0.02627742273912695
0.0048439580867079566 -0.08524519075143573 -0.0338473304751858
0.012813287089581932 -0.07540214234373023 -0.04141723821124465
0.020782616092455915 -0.0655590939360247 -0.0489871459473035
0.028751945095329905 -0.055716045528319186 -0.056557053683362356
0.03672127409820388 -0.04587299712061367 -0.0641269614194212
0.04469060310107786 -0.036029948712908155 -0.07169686915548006
0.05265993210395185 -0.026186900305202633 -0.07926677689153891
0.06062926110682584 -0.016343851897497118 -0.08683668462759776
-0.004579817963574843 -0.10058830083734466 -0.006201752762458811
0.0033895110392991364 -0.09074525242963913 -0.013771660498517658
0.011358840042173123 -0.08090220402193361 -0.02134156823457651
0.0193281690450471 -0.0710591556142281 -0.028911475970635356
0.027297498047921084 -0.06121610720652258 -0.03648138370669421
0.03526682705079507 -0.05137305879881707 -0.04405129144275306
0.043236156053669046 -0.04153001039111155 -0.05162119917881191
0.05120548505654302 -0.03168696198340604 -0.05919110691487076
0.05917481405941701 -0.021843913575700515 -0.06676101465092961
0.06714414306229101 -0.012000865167995 -0.07433092238698846
0.001935063991890319 -0.09624531410784254 0.006304009478150472
0.009904392994764298 -0.08640226570013701 -0.0012658982579083745
0.017873721997638287 -0.0765592172924315 -0.008835805993967228
0.025843051000512263 -0.066716168884726 -0.016405713730026073
0.033812380003386246 -0.056873120477020464 -0.02397562146608493
0.041781709006260236 -0.04703007206931495 -0.031545529202143784
0.04975103800913421 -0.037187023661609434 -0.03911543693820263
0.05772036701200819 -0.027343975253903918 -0.046685344674261484
0.06568969601488217 -0.017500926846198396 -0.05425525241032033
0.07365902501775616 -0.0076578784384928825 -0.061825160146379184
0.008449945947355486 -0.09190232737834042 0.018809771718759763
0.016419274950229466 -0.08205927897063489 0.011239863982700918
0.024388603953103452 -0.07221623056292938 0.0036699562466420642
0.03235793295597743 -0.06237318215522387 -0.0038999514894167823
0.04032726195885141 -0.052530133747518346 -0.011469859225475637
0.0482965909617254 -0.04268708533981283 -0.01903976696153449
0.05626591996459938 -0.032844036932107315 -0.026609674697593337
0.06423524896747335 -0.0230009885244018 -0.03417958243365219
0.07220457797034734 -0.013157940116696278 -0.04174949016971104
0.08017390697322133 -0.0033148917089907627 -0.04931939790576989
0.014964827902820652 -0.0875593406488383 0.031315533959369056
0.02293415690569463 -0.07771629224113277 0.02374562622331021
0.030903485908568618 -0.06787324383342726 0.016175718487251356
0.038872814911442594 -0.05803019542572175 0.008605810751192508
0.04684214391431658 -0.04818714701801623 0.0010359030151336536
0.054811472917190567 -0.03834409861031071 -0.006534004720925199
0.06278080192006455 -0.028501050202605197 -0.014103912456984046
0.07075013092293853 -0.01865800179489968 -0.021673820193042898
0.07871945992581252 -0.008814953387194159 -0.029243727929101748
0.0866887889286865 0.0010280950205113564 -0.036813635665160604
0.021479709858285814 -0.08321635391933618 0.043821296199978335
0.029449038861159793 -0.07337330551163065 0.03625138846391949
0.03741836786403378 -0.06353025710392514 0.02868148072786064
0.04538769686690776 -0.05368720869621963 0.021111572991801792
0.05335702586978174 -0.04384416028851411 0.013541665255742937
0.06132635487265573 -0.03400111188080859 0.005971757519684084
0.0692956838755297 -0.024158063473103078 -0.001598150216374762
0.07726501287840368 -0.014315015065397564 -0.009168057952433615
0.08523434188127767 -0.004471966657692042 -0.016737965688492465
0.09320367088415166 0.005371081750013473 -0.02430787342455132
0.02799459181375098 -0.07887336718983406 0.05632705844058763
0.03596392081662496 -0.06903031878212854 0.04875715070452878
0.04393324981949895 -0.05918727037442302 0.04118724296846993
0.051902578822372925 -0.04934422196671751 0.03361733523241108
0.05987190782524691 -0.03950117355901199 0.026047427496352228
0.06784123682812089 -0.029658125151306475 0.018477519760293375
0.07581056583099487 -0.01981507674360096 0.01090761202423453
0.08377989483386884 -0.009972028335895444 0.003337704288175676
0.09174922383674283 -0.0001289799281899223 -0.004232203447883174
0.09971855283961682 0.009714068479515593 -0.011802111183942027
0.03450947376921615 -0.07453038046033195 0.06883282068119692
0.042478802772090124 -0.06468733205262642 0.061262912945138075
0.050448131774964114 -0.0548442836449209 0.05369300520907922
0.05841746077783809 -0.045001235237215394 0.046123097473020375
0.06638678978071207 -0.03515818682950987 0.03855318973696152
0.07435611878358606 -0.025315138421804356 0.030983282000902668
0.08232544778646003 -0.01547209001409884 0.02341337426484382
0.09029477678933401 -0.005629041606393325 0.015843466528784968
0.098264105792208 0.004214006801312197 0.008273558792726118
0.10623343479508199 0.014057055209017713 0.0007036510566672643
0.04102435572468131 -0.07018739373082983 0.08133858292180621
0.04899368472755529 -0.0603443453231243 0.07376867518574735
0.05696301373042928 -0.050501296915418784 0.0661987674496885
0.06493234273330326 -0.040658248507713275 0.05862885971362966
0.07290167173617723 -0.030815200100007753 0.05105895197757081
0.08087100073905122 -0.020972151692302238 0.043489044241511954
0.0888403297419252 -0.011129103284596722 0.03591913650545311
0.09680965874479917 -0.0012860548768912072 0.028349228769394254
0.10477898774767316 0.008556993530814315 0.020779321033335404
0.11274831675054715 0.01840004193851983 0.01320941329727655
-0.11274831675054715 -0.01840004193851983 -0.01320941329727655
-0.1021773462087647 -0.028497178867167502 -0.015209842624654423
-0.09160637566698226 -0.038594315795815175 -0.017210271952032296
-0.08103540512519983 -0.04869145272446285 -0.019210701279410162
-0.07046443458341738 -0.05878858965311052 -0.021211130606788035
-0.05989346404163494 -0.06888572658175819 -0.023211559934165907
-0.0493224934998525 -0.07898286351040586 -0.025211989261543777
-0.03875152295807006 -0.08908000043905354 -0.027212418588921646
-0.028180552416287617 -0.09917713736770122 -0.02921284791629952
-0.017609581874505172 -0.1092742742963489 -0.03121327724367739
-0.10623343479508199 -0.014057055209017713 -0.0007036510566672643
-0.09566246425329954 -0.024154192137665384 -0.002704080384045137
-0.0850914937115171 -0.03425132906631306 -0.00470450971142301
-0.07452052316973466 -0.04434846599496073 -0.006704939038800876
-0.06394955262795221 -0.0544456029236084 -0.008705368366178749
-0.053378582086169774 -0.06454273985225609 -0.010705797693556621
-0.042807611544387336 -0.07463987678090375 -0.01270622702093449
-0.03223664100260489 -0.08473701370955142 -0.01470665634831236
-0.021665670460822455 -0.0948341506381991 -0.016707085675690233
-0.01109469991904001 -0.10493128756684678 -0.018707515003068102
-0.09971855283961682 -0.009714068479515593 0.011802111183942027
-0.08914758229783437 -0.019811205408163265 0.009801681856564154
-0.07857661175605193 -0.02990834233681094 0.0078012525291862814
-0.0680056412142695 -0.04000547926545861 0.0058008232018084156
-0.05743467067248705 -0.05010261619410628 0.003800393874430543
-0.04686370013070461 -0.06019975312275396 0.0017999645470526701
-0.03629272958892217 -0.07029689005140162 -0.00020046478032519923
-0.025721759047139726 -0.0803940269800493 -0.0022008941077030684
-0.015150788505357287 -0.09049116390869698 -0.004201323435080942
-0.004579817963574843 -0.10058830083734466 -0.006201752762458811
-0.09320367088415167 -0.0053710817500134764 0.02430787342455131
-0.08263270034236922 -0.015468218678661149 0.02230744409717344
-0.07206172980058678 -0.025565355607308823 0.020307014769795566
-0.06149075925880434 -0.03566249253595649 0.0183065854424177
-0.05091978871702189 -0.045759629464604164 0.016306156115039827
-0.04034881817523945 -0.05585676639325184 0.014305726787661953
-0.02977784763345701 -0.06595390332189952 0.012305297460284083
-0.019206877091674564 -0.07605104025054718 0.010304868132906214
-0.008635906549892125 -0.08614817717919486 0.008304438805528341
0.001935063991890319 -0.09624531410784254 0.006304009478150472
-0.0866887889286865 -0.0010280950205113564 0.036813635665160604
-0.07611781838690405 -0.011125231949159028 0.03481320633778273
-0.06554684784512162 -0.021222368877806704 0.03281277701040486
-0.05497587730333917 -0.03131950580645437 0.03081234768302699
-0.04440490676155672 -0.041416642735102045 0.028811918355649117
-0.033833936219774284 -0.051513779663749724 0.026811489028271244
-0.023262965677991843 -0.06161091659239739 0.024811059700893374
-0.012691995136209399 -0.07170805352104506 0.022810630373515505
-0.002121024594426958 -0.08180519044969274 0.020810201046137632
0.008449945947355486 -0.09190232737834042 0.018809771718759763
-0.08017390697322133 0.0033148917089907627 0.04931939790576989
-0.06960293643143887 -0.00678224521965691 0.04731896857839202
-0.059031965889656444 -0.016879382148304586 0.045318539251014145
-0.04846099534787401 -0.026976519076952254 0.04331810992363628
-0.037890024806091556 -0.03707365600559993 0.041317680596258406
-0.027319054264309115 -0.047170792934247606 0.03931725126888053
-0.016748083722526678 -0.05726792986289527 0.03731682194150267
-0.0061771131807442335 -0.06736506679154294 0.035316392614124795
0.004393857361038207 -0.07746220372019062 0.03331596328674692
0.014964827902820652 -0.0875593406488383 0.031315533959369056
-0.07365902501775617 0.007657878438492879 0.06182516014637918
-0.06308805447597372 -0.0024392584901547928 0.059824730819001304
-0.05251708393419128 -0.012536395418802469 0.05782430149162343
-0.04194611339240884 -0.022633532347450136 0.055823872164245565
-0.03137514285062639 -0.03273066927609781 0.05382344283686769
-0.020804172308843953 -0.04282780620474549 0.05182301350948982
-0.010233201767061516 -0.05292494313339315 0.04982258418211195
0.0003377687747209291 -0.06302208006204083 0.04782215485473408
0.01090873931650337 -0.0731192169906885 0.04582172552735621
0.021479709858285814 -0.08321635391933618 0.043821296199978335
-0.06714414306229101 0.012000865167995 0.07433092238698846
-0.05657317252050855 0.0019037282393473268 0.07233049305961059
-0.046002201978726114 -0.008193408689300349 0.07033006373223272
-0.035431231436943676 -0.018290545617948017 0.06832963440485486
-0.02486026089516123 -0.02838768254659569 0.06632920507747699
-0.014289290353378786 -0.03848481947524337 0.06432877575009911
-0.0037183198115963486 -0.048581956403891034 0.06232834642272124
0.006852650730186096 -0.058679093332538707 0.060327917095343374
0.017423621271968535 -0.06877623026118639 0.0583274877679655
0.02799459181375098 -0.07887336718983406 0.05632705844058763
-0.06062926110682584 0.016343851897497118 0.08683668462759776
-0.050058290565043385 0.006246714968849446 0.08483625530021989
-0.03948732002326095 -0.0038504219597982293 0.08283582597284202
-0.02891634948147851 -0.013947558888445897 0.08083539664546414
-0.01834537893969606 -0.02404469581709357 0.07883496731808627
-0.00777440839791362 -0.03414183274574125 0.0768345379907084
0.002796562143868818 -0.044238969674388916 0.07483410866333054
0.013367532685651263 -0.05433610660303659 0.07283367933595267
0.023938503227433704 -0.06443324353168427 0.0708332500085748
0.03450947376921615 -0.07453038046033195 0.06883282068119692
-0.05411437915136067 0.020686838626999236 0.09934244686820705
-0.04354340860957822 0.010589701698351564 0.09734201754082918
-0.03297243806779578 0.0004925647697038883 0.0953415882134513
-0.02240146752601335 -0.00960457215894378 0.09334115888607343
-0.011830496984230896 -0.019701709087591453 0.09134072955869556
-0.0012595264424484559 -0.029798846016239132 0.08934030023131768
0.009311444099333982 -0.0398959829448868 0.08733987090393981
0.019882414641116425 -0.04999311987353447 0.08533944157656195
0.030453385182898866 -0.06009025680218215 0.08333901224918408
0.04102435572468131 -0.07018739373082983 0.08133858292180621
-0.04102435572468131 0.07018739373082983 -0.08133858292180621
-0.030453385182898866 0.06009025680218215 -0.08333901224918408
-0.019882414641116425 0.04999311987353447 -0.08533944157656195
-0.00931144409933399 0.039895982944886804 -0.08733987090393981
0.0012595264424484559 0.029798846016239132 -0.08934030023131768
0.011830496984230896 0.019701709087591453 -0.09134072955869556
0.022401467526013335 0.009604572158943787 -0.09334115888607343
0.03297243806779578 -0.0004925647697038883 -0.0953415882134513
0.04354340860957822 -0.010589701698351564 -0.09734201754082918
0.05411437915136067 -0.020686838626999236 -0.09934244686820705
-0.03450947376921615 0.07453038046033195 -0.06883282068119692
-0.023938503227433704 0.06443324353168427 -0.0708332500085748
-0.013367532685651263 0.05433610660303659 -0.07283367933595267
-0.002796562143868825 0.04423896967438892 -0.07483410866333054
0.00777440839791362 0.03414183274574125 -0.0768345379907084
0.01834537893969606 0.02404469581709357 -0.07883496731808627
0.028916349481478497 0.013947558888445904 -0.08083539664546414
0.03948732002326095 0.0038504219597982293 -0.08283582597284202
0.050058290565043385 -0.006246714968849446 -0.08483625530021989
0.06062926110682584 -0.016343851897497118 -0.08683668462759776
-0.02799459181375098 0.07887336718983406 -0.05632705844058763
-0.017423621271968535 0.06877623026118639 -0.0583274877679655
-0.006852650730186096 0.058679093332538707 -0.060327917095343374
0.0037183198115963417 0.04858195640389104 -0.06232834642272124
0.014289290353378786 0.03848481947524337 -0.06432877575009911
0.02486026089516123 0.02838768254659569 -0.06632920507747699
0.03543123143694366 0.018290545617948024 -0.06832963440485484
0.046002201978726114 0.008193408689300349 -0.07033006373223272
0.05657317252050855 -0.0019037282393473268 -0.07233049305961059
0.06714414306229101 -0.012000865167995 -0.07433092238698846
-0.021479709858285817 0.08321635391933618 -0.04382129619997835
-0.010908739316503374 0.0731192169906885 -0.045821725527356215
-0.0003377687747209337 0.06302208006204083 -0.04782215485473409
0.010233201767061504 0.05292494313339316 -0.04982258418211196
0.02080417230884395 0.04282780620474549 -0.051823013509489826
0.03137514285062639 0.03273066927609781 -0.0538234428368677
0.04194611339240883 0.022633532347450143 -0.055823872164245565
0.05251708393419128 0.012536395418802465 -0.05782430149162344
0.06308805447597371 0.0024392584901547897 -0.05982473081900131
0.07365902501775616 -0.0076578784384928825 -0.061825160146379184
-0.014964827902820652 0.0875593406488383 -0.031315533959369056
-0.004393857361038207 0.07746220372019062 -0.03331596328674692
0.0061771131807442335 0.06736506679154294 -0.035316392614124795
0.01674808372252667 0.05726792986289528 -0.03731682194150267
0.027319054264309115 0.047170792934247606 -0.03931725126888053
0.037890024806091556 0.03707365600559993 -0.041317680596258406
0.04846099534787399 0.02697651907695226 -0.04331810992363627
0.059031965889656444 0.016879382148304586 -0.045318539251014145
0.06960293643143887 0.00678224521965691 -0.04731896857839202
0.08017390697322133 -0.0033148917089907627 -0.04931939790576989
-0.008449945947355486 0.09190232737834042 -0.018809771718759763
0.002121024594426958 0.08180519044969274 -0.020810201046137632
0.012691995136209399 0.07170805352104506 -0.022810630373515505
0.023262965677991836 0.0616109165923974 -0.024811059700893374
0.033833936219774284 0.051513779663749724 -0.026811489028271244
0.04440490676155672 0.041416642735102045 -0.028811918355649117
0.05497587730333916 0.03131950580645438 -0.030812347683026983
0.06554684784512162 0.021222368877806704 -0.03281277701040486
0.07611781838690405 0.011125231949159028 -0.03481320633778273
0.0866887889286865 0.0010280950205113564 -0.036813635665160604
-0.0019350639918903235 0.09624531410784254 -0.006304009478150481
0.00863590654989212 0.08614817717919486 -0.00830443880552835
0.01920687709167456 0.07605104025054718 -0.010304868132906222
0.029777847633457 0.06595390332189952 -0.012305297460284092
0.04034881817523944 0.05585676639325184 -0.014305726787661961
0.05091978871702189 0.045759629464604164 -0.016306156115039834
0.061490759258804324 0.0356624925359565 -0.0183065854424177
0.07206172980058677 0.025565355607308823 -0.020307014769795573
0.0826327003423692 0.015468218678661145 -0.022307444097173446
0.09320367088415166 0.005371081750013473 -0.02430787342455132
0.004579817963574843 0.10058830083734466 0.006201752762458811
0.015150788505357287 0.09049116390869698 0.004201323435080942
0.025721759047139726 0.0803940269800493 0.0022008941077030684
0.036292729588922164 0.07029689005140163 0.00020046478032519923
0.04686370013070461 0.06019975312275396 -0.0017999645470526701
0.05743467067248705 0.05010261619410628 -0.003800393874430543
0.06800564121426948 0.04000547926545862 -0.005800823201808409
0.07857661175605193 0.02990834233681094 -0.0078012525291862814
0.08914758229783437 0.019811205408163265 -0.009801681856564154
0.09971855283961682 0.009714068479515593 -0.011802111183942027
0.01109469991904001 0.10493128756684678 0.018707515003068102
0.021665670460822455 0.0948341506381991 0.016707085675690233
0.03223664100260489 0.08473701370955142 0.01470665634831236
0.04280761154438733 0.07463987678090375 0.01270622702093449
0.053378582086169774 0.06454273985225609 0.010705797693556621
0.06394955262795221 0.0544456029236084 0.008705368366178749
0.07452052316973465 0.044348465994960735 0.006704939038800883
0.0850914937115171 0.03425132906631306 0.00470450971142301
0.09566246425329954 0.024154192137665384 0.002704080384045137
0.10623343479508199 0.014057055209017713 0.0007036510566672643
0.017609581874505172 0.1092742742963489 0.03121327724367739
0.028180552416287617 0.09917713736770122 0.02921284791629952
0.03875152295807006 0.08908000043905354 0.027212418588921646
0.049322493499852495 0.07898286351040587 0.025211989261543777
0.05989346404163494 0.06888572658175819 0.023211559934165907
0.07046443458341738 0.05878858965311052 0.021211130606788035
0.08103540512519981 0.048691452724462854 0.01921070127941017
0.09160637566698226 0.038594315795815175 0.017210271952032296
0.1021773462087647 0.028497178867167502 0.015209842624654423
0.11274831675054715 0.01840004193851983 0.01320941329727655
-0.11274831675054715 -0.01840004193851983 -0.01320941329727655
-0.1021773462087647 -0.028497178867167502 -0.015209842624654423
-0.09160637566698226 -0.038594315795815175 -0.017210271952032296
-0.08103540512519983 -0.04869145272446285 -0.019210701279410162
-0.07046443458341738 -0.05878858965311052 -0.021211130606788035
-0.05989346404163494 -0.06888572658175819 -0.023211559934165907
-0.0493224934998525 -0.07898286351040586 -0.025211989261543777
-0.03875152295807006 -0.08908000043905354 -0.027212418588921646
-0.028180552416287617 -0.09917713736770122 -0.02921284791629952
-0.017609581874505172 -0.1092742742963489 -0.03121327724367739
-0.10477898774767316 -0.008556993530814315 -0.020779321033335404
-0.09420801720589073 -0.018654130459461987 -0.02277975036071327
-0.08363704666410829 -0.028751267388109663 -0.024780179688091142
-0.07306607612232585 -0.03884840431675733 -0.026780609015469012
-0.06249510558054341 -0.048945541245405004 -0.02878103834284688
-0.05192413503876096 -0.05904267817405268 -0.030781467670224754
-0.041353164496978526 -0.06913981510270034 -0.03278189699760262
-0.030782193955196078 -0.07923695203134802 -0.03478232632498049
-0.020211223413413637 -0.0893340889599957 -0.03678275565235836
-0.009640252871631195 -0.09943122588864337 -0.038783184979736235
-0.09680965874479917 0.0012860548768912072 -0.028349228769394254
-0.08623868820301674 -0.008811082051756465 -0.030349658096772123
-0.0756677176612343 -0.01890821898040414 -0.03235008742414999
-0.06509674711945186 -0.029005355909051806 -0.034350516751527865
-0.05452577657766942 -0.03910249283769948 -0.03635094607890573
-0.04395480603588697 -0.049199629766347154 -0.038351375406283604
-0.033383835494104536 -0.059296766694994826 -0.04035180473366148
-0.02281286495232209 -0.0693939036236425 -0.04235223406103934
-0.012241894410539652 -0.07949104055229017 -0.044352663388417216
-0.0016709238687572072 -0.08958817748093785 -0.04635309271579509
-0.08884032974192521 0.011129103284596716 -0.0359191365054531
-0.07826935920014276 0.0010319663559490433 -0.037919565832830966
-0.06769838865836032 -0.00906517057269863 -0.03991999516020884
-0.057127418116577885 -0.019162307501346298 -0.04192042448758671
-0.04655644757479544 -0.029259444429993973 -0.043920853814964585
-0.035985477033013 -0.039356581358641646 -0.04592128314234245
-0.02541450649123056 -0.04945371828728932 -0.04792171246972032
-0.014843535949448115 -0.05955085521593699 -0.049922141797098196
-0.004272565407665675 -0.06964799214458467 -0.05192257112447606
0.006298405134116769 -0.07974512907323233 -0.053923000451853935
-0.08087100073905122 0.020972151692302238 -0.043489044241511954
-0.07030003019726877 0.010875014763654565 -0.04548947356888983
-0.05972905965548634 0.0007778778350068898 -0.04748990289626769
-0.0491580891137039 -0.009319259093640779 -0.049490332223645565
-0.03858711857192146 -0.019416396022288455 -0.05149076155102344
-0.028016148030139014 -0.029513532950936127 -0.053491190878401304
-0.017445177488356573 -0.039610669879583796 -0.05549162020577918
-0.00687420694657413 -0.04970780680823147 -0.05749204953315705
0.0036967635952083145 -0.05980494373687915 -0.059492478860534916
0.014267734136990751 -0.06990208066552682 -0.06149290818791279
-0.07290167173617723 0.030815200100007753 -0.05105895197757081
-0.0623307011943948 0.02071806317136008 -0.05305938130494868
-0.05175973065261236 0.010620926242712405 -0.055059810632326546
-0.04118876011082992 0.0005237893140647397 -0.05706023995970442
-0.030617789569047472 -0.009573347614582938 -0.059060669287082285
-0.020046819027265027 -0.019670484543230612 -0.06106109861446016
-0.009475848485482592 -0.02976762147187828 -0.06306152794183803
0.0010951220562998533 -0.03986475840052595 -0.0650619572692159
0.01166609259808229 -0.04996189532917363 -0.06706238659659376
0.022237063139864743 -0.060059032257821304 -0.06906281592397163
-0.06493234273330326 0.04065824850771327 -0.058628859713629654
-0.05436137219152082 0.030561111579065596 -0.06062928904100753
-0.043790401649738374 0.020463974650417917 -0.06262971836838539
-0.033219431107955937 0.010366837721770251 -0.06463014769576327
-0.022648460566173492 0.0002697007931225758 -0.06663057702314114
-0.01207749002439105 -0.0098274361355251 -0.06863100635051901
-0.0015065194826086115 -0.01992457306417277 -0.07063143567789687
0.009064451059173828 -0.03002170999282044 -0.07263186500527474
0.019635421600956274 -0.04011884692146812 -0.07463229433265262
0.03020639214273872 -0.05021598385011579 -0.07663272366003049
-0.05696301373042928 0.050501296915418784 -0.0661987674496885
-0.046392043188646835 0.04040415998677111 -0.06819919677706637
-0.03582107264686439 0.03030702305812344 -0.07019962610444425
-0.025250102105081954 0.020209886129475767 -0.07220005543182212
-0.014679131563299511 0.010112749200828091 -0.07420048475919999
-0.004108161021517066 1.5612272180418793e-05 -0.07620091408657786
0.006462809520265368 -0.010081524656467252 -0.07820134341395572
0.01703378006204782 -0.020178661585114926 -0.0802017727413336
0.027604750603830257 -0.0302757985137626 -0.08220220206871147
0.03817572114561269 -0.040372935442410274 -0.08420263139608934
-0.04899368472755529 0.0603443453231243 -0.07376867518574735
-0.038422714185772845 0.05024720839447663 -0.07576910451312523
-0.027851743643990404 0.040150071465828954 -0.0777695338405031
-0.017280773102207967 0.03005293453718129 -0.07976996316788097
-0.006709802560425524 0.019955797608533617 -0.08177039249525885
0.0038611679813569206 0.009858660679885941 -0.08377082182263672
0.014432138523139357 -0.0002384762487617278 -0.08577125115001458
0.025003109064921803 -0.010335613177409404 -0.08777168047739245
0.035574079606704244 -0.02043275010605708 -0.08977210980477032
0.04614505014848668 -0.03052988703470475 -0.0917725391321482
-0.04102435572468131 0.07018739373082983 -0.08133858292180621
-0.030453385182898866 0.06009025680218215 -0.08333901224918408
-0.019882414641116425 0.04999311987353447 -0.08533944157656195
-0.00931144409933399 0.039895982944886804 -0.08733987090393981
0.0012595264424484559 0.029798846016239132 -0.08934030023131768
0.011830496984230896 0.019701709087591453 -0.09134072955869556
0.022401467526013335 0.009604572158943787 -0.09334115888607343
0.03297243806779578 -0.0004925647697038883 -0.0953415882134513
0.04354340860957822 -0.010589701698351564 -0.09734201754082918
0.05411437915136067 -0.020686838626999236 -0.09934244686820705
-0.05411437915136067 0.020686838626999236 0.09934244686820705
-0.04354340860957822 0.010589701698351564 0.09734201754082918
-0.03297243806779578 0.0004925647697038883 0.0953415882134513
-0.02240146752601335 -0.00960457215894378 0.09334115888607343
-0.011830496984230896 -0.019701709087591453 0.09134072955869556
-0.0012595264424484559 -0.029798846016239132 0.08934030023131768
0.009311444099333982 -0.0398959829448868 0.08733987090393981
0.019882414641116425 -0.04999311987353447 0.08533944157656195
0.030453385182898866 -0.06009025680218215 0.08333901224918408
0.04102435572468131 -0.07018739373082983 0.08133858292180621
-0.04614505014848668 0.03052988703470475 0.0917725391321482
-0.035574079606704244 0.02043275010605708 0.08977210980477032
-0.025003109064921803 0.010335613177409404 0.08777168047739245
-0.014432138523139364 0.00023847624876173473 0.08577125115001458
-0.0038611679813569206 -0.009858660679885941 0.08377082182263672
0.006709802560425524 -0.019955797608533617 0.08177039249525885
0.01728077310220796 -0.030052934537181282 0.07976996316788097
0.027851743643990404 -0.040150071465828954 0.0777695338405031
0.038422714185772845 -0.05024720839447663 0.07576910451312523
0.04899368472755529 -0.0603443453231243 0.07376867518574735
-0.03817572114561269 0.040372935442410274 0.08420263139608934
-0.027604750603830257 0.0302757985137626 0.08220220206871147
-0.01703378006204782 0.020178661585114926 0.0802017727413336
-0.006462809520265382 0.010081524656467259 0.07820134341395572
0.004108161021517066 -1.5612272180418793e-05 0.07620091408657786
0.014679131563299511 -0.010112749200828091 0.07420048475919999
0.025250102105081947 -0.02020988612947576 0.07220005543182212
0.03582107264686439 -0.03030702305812344 0.07019962610444425
0.046392043188646835 -0.04040415998677111 0.06819919677706637
0.05696301373042928 -0.050501296915418784 0.0661987674496885
-0.030206392142738726 0.05021598385011578 0.07663272366003049
-0.01963542160095628 0.04011884692146811 0.07463229433265263
-0.009064451059173835 0.030021709992820434 0.07263186500527476
0.001506519482608601 0.01992457306417277 0.07063143567789688
0.012077490024391046 0.009827436135525093 0.06863100635051901
0.02264846056617349 -0.00026970079312258274 0.06663057702314114
0.03321943110795592 -0.010366837721770251 0.06463014769576327
0.04379040164973837 -0.020463974650417924 0.0626297183683854
0.05436137219152081 -0.030561111579065603 0.060629289041007534
0.06493234273330326 -0.040658248507713275 0.05862885971362966
-0.022237063139864743 0.060059032257821304 0.06906281592397163
-0.01166609259808229 0.04996189532917363 0.06706238659659376
-0.0010951220562998533 0.03986475840052595 0.0650619572692159
0.009475848485482585 0.029767621471878287 0.06306152794183803
0.020046819027265027 0.019670484543230612 0.06106109861446016
0.030617789569047472 0.009573347614582938 0.059060669287082285
0.04118876011082991 -0.0005237893140647328 0.05706023995970442
0.05175973065261236 -0.010620926242712405 0.055059810632326546
0.0623307011943948 -0.02071806317136008 0.05305938130494868
0.07290167173617723 -0.030815200100007753 0.05105895197757081
-0.014267734136990751 0.06990208066552682 0.06149290818791279
-0.0036967635952083145 0.05980494373687915 0.059492478860534916
0.00687420694657413 0.04970780680823147 0.05749204953315705
0.017445177488356566 0.0396106698795838 0.05549162020577918
0.028016148030139014 0.029513532950936127 0.053491190878401304
0.03858711857192146 0.019416396022288455 0.05149076155102344
0.049158089113703896 0.009319259093640786 0.049490332223645565
0.05972905965548634 -0.0007778778350068898 0.04748990289626769
0.07030003019726877 -0.010875014763654565 0.04548947356888983
0.08087100073905122 -0.020972151692302238 0.043489044241511954
-0.006298405134116776 0.07974512907323233 0.05392300045185394
0.0042725654076656685 0.06964799214458466 0.05192257112447607
0.01484353594944811 0.05955085521593698 0.0499221417970982
0.025414506491230546 0.04945371828728932 0.04792171246972033
0.03598547703301299 0.03935658135864164 0.04592128314234246
0.046556447574795434 0.029259444429993967 0.04392085381496459
0.05712741811657787 0.019162307501346298 0.04192042448758672
0.06769838865836031 0.009065170572698624 0.039919995160208846
0.07826935920014276 -0.0010319663559490502 0.03791956583283097
0.0888403297419252 -0.011129103284596722 0.03591913650545311
0.0016709238687572072 0.08958817748093785 0.04635309271579509
0.012241894410539652 0.07949104055229017 0.044352663388417216
0.02281286495232209 0.0693939036236425 0.04235223406103934
0.03338383549410453 0.05929676669499483 0.04035180473366148
0.04395480603588697 0.049199629766347154 0.038351375406283604
0.05452577657766942 0.03910249283769948 0.03635094607890573
0.06509674711945185 0.029005355909051813 0.034350516751527865
0.0756677176612343 0.01890821898040414 0.03235008742414999
0.08623868820301674 0.008811082051756465 0.030349658096772123
0.09680965874479917 -0.0012860548768912072 0.028349228769394254
0.009640252871631195 0.09943122588864337 0.038783184979736235
0.020211223413413637 0.0893340889599957 0.03678275565235836
0.030782193955196078 0.07923695203134802 0.03478232632498049
0.04135316449697852 0.06913981510270036 0.03278189699760262
0.05192413503876096 0.05904267817405268 0.030781467670224754
0.06249510558054341 0.048945541245405004 0.02878103834284688
0.07306607612232584 0.03884840431675734 0.026780609015469012
0.08363704666410829 0.028751267388109663 0.024780179688091142
0.09420801720589073 0.018654130459461987 0.02277975036071327
0.10477898774767316 0.008556993530814315 0.020779321033335404
0.017609581874505172 0.1092742742963489 0.03121327724367739
0.028180552416287617 0.09917713736770122 0.02921284791629952
0.03875152295807006 0.08908000043905354 0.027212418588921646
0.049322493499852495 0.07898286351040587 0.025211989261543777
0.05989346404163494 0.06888572658175819 0.023211559934165907
0.07046443458341738 0.05878858965311052 0.021211130606788035
0.08103540512519981 0.048691452724462854 0.01921070127941017
0.09160637566698226 0.038594315795815175 0.017210271952032296
0.1021773462087647 0.028497178867167502 0.015209842624654423
0.11274831675054715 0.01840004193851983 0.01320941329727655
