# .PCD v0.7 - Point Cloud Data file format
VERSION 0.7
FIELDS x y z
SIZE 4 4 4
TYPE F F F
COUNT 1 1 1
WIDTH 600
HEIGHT 1
VIEWPOINT 0 0 0 1 0 0 0
POINTS 600
DATA ascii
-0.10890402425650586 -0.1743924563191351 -0.10649348289986993
-0.12072520023257394 -0.14775326830966576 -0.10073647613255954
-0.132546376208642 -0.12111408030019638 -0.09497946936524915
-0.14436755218471012 -0.094474892290727 -0.08922246259793874
-0.1561887281607782 -0.06783570428125762 -0.08346545583062835
-0.16800990413684627 -0.04119651627178824 -0.07770844906331796
-0.17983108011291438 -0.014557328262318873 -0.07195144229600756
-0.19165225608898245 0.012081859747150505 -0.06619443552869717
-0.20347343206505056 0.03872104775661989 -0.06043742876138676
-0.21529460804111863 0.06536023576608926 -0.05468042199407637
-0.09774845016310613 -0.17538849493027261 -0.07897820096579418
-0.1095696261391742 -0.14874930692080326 -0.07322119419848377
-0.1213908021152423 -0.1221101189113339 -0.06746418743117338
-0.13321197809131038 -0.09547093090186452 -0.061707180663862986
-0.14503315406737846 -0.06883174289239515 -0.05595017389655259
-0.15685433004344654 -0.042192554882925754 -0.0501931671292422
-0.16867550601951464 -0.015553366873456393 -0.0444361603619318
-0.18049668199558272 0.011085821136012985 -0.03867915359462141
-0.19231785797165082 0.03772500914548238 -0.032922146827311004
-0.2041390339477189 0.06436419715495174 -0.027165140060000613
-0.08659287606970639 -0.17638453354141015 -0.051462919031718415
-0.09841405204577447 -0.1497453455319408 -0.04570591226440802
-0.11023522802184256 -0.12310615752247142 -0.03994890549709763
-0.12205640399791065 -0.09646696951300204 -0.03419189872978723
-0.13387757997397873 -0.06982778150353267 -0.02843489196247683
-0.1456987559500468 -0.043188593494063274 -0.02267788519516644
-0.1575199319261149 -0.016549405484593913 -0.016920878427856043
-0.16934110790218299 0.010089782524875466 -0.011163871660545652
-0.1811622838782511 0.03672897053434486 -0.005406864893235246
-0.19298345985431917 0.06336815854381422 0.0003501418740751443
-0.07543730197630666 -0.17738057215254766 -0.023947637097642655
-0.08725847795237474 -0.1507413841430783 -0.01819063033033226
-0.09907965392844283 -0.12410219613360894 -0.012433623563021868
-0.11090082990451092 -0.09746300812413956 -0.0066766167957114705
-0.12272200588057901 -0.07082382011467019 -0.0009196100284010724
-0.1345431818566471 -0.044184632105200794 0.004837396738909318
-0.14636435783271518 -0.01754544409573143 0.010594403506219716
-0.15818553380878325 0.009093743913737946 0.01635141027353011
-0.17000670978485136 0.03573293192320734 0.022108417040840513
-0.18182788576091943 0.0623721199326767 0.027865423808150904
-0.06428172788290692 -0.1783766107636852 0.00356764483643311
-0.076102903858975 -0.15173742275421584 0.009324651603743505
-0.08792407983504309 -0.12509823474474646 0.015081658371053899
-0.09974525581111118 -0.09845904673527708 0.020838665138364295
-0.11156643178717927 -0.0718198587258077 0.026595671905674693
-0.12338760776324735 -0.045180670716338314 0.03235267867298509
-0.13520878373931544 -0.01854148270686895 0.038109685440295485
-0.14702995971538352 0.008097705302600428 0.043866692207605876
-0.15885113569145162 0.03473689331206982 0.04962369897491628
-0.1706723116675197 0.06137608132153918 0.05538070574222667
-0.05312615378950719 -0.1793726493748227 0.03108292677050888
-0.06494732976557527 -0.15273346136535335 0.036839933537819274
-0.07676850574164336 -0.12609427335588397 0.042596940305129664
-0.08858968171771145 -0.09945508534641459 0.04835394707244006
-0.10041085769377954 -0.07281589733694521 0.05411095383975046
-0.11223203366984762 -0.046176709327475834 0.05986796060706085
-0.12405320964591571 -0.01953752131800647 0.06562496737437125
-0.13587438562198378 0.007101666691462907 0.07138197414168164
-0.1476955615980519 0.0337408547009323 0.07713898090899204
-0.15951673757411997 0.06038004271040166 0.08289598767630244
-0.041970579696107464 -0.18036868798596023 0.058598208704584626
-0.05379175567217554 -0.15372949997649088 0.06435521547189502
-0.06561293164824362 -0.1270903119670215 0.07011222223920541
-0.07743410762431172 -0.10045112395755211 0.07586922900651581
-0.0892552836003798 -0.07381193594808273 0.0816262357738262
-0.10107645957644788 -0.047172747938613355 0.0873832425411366
-0.11289763555251597 -0.020533559929143987 0.093140249308447
-0.12471881152858405 0.006105628080325389 0.09889725607575739
-0.13653998750465215 0.03274481608979478 0.1046542628430678
-0.14836116348072023 0.05938400409926414 0.11041126961037818
-0.03081500560270773 -0.18136472659709774 0.08611349063866039
-0.04263618157877581 -0.1547255385876284 0.09187049740597078
-0.0544573575548439 -0.128086350578159 0.09762750417328118
-0.06627853353091198 -0.10144716256868963 0.10338451094059158
-0.07809970950698007 -0.07480797455922025 0.10914151770790198
-0.08992088548304815 -0.048168786549750875 0.11489852447521237
-0.10174206145911624 -0.021529598540281508 0.12065553124252276
-0.11356323743518432 0.005109589469187869 0.12641253800983315
-0.12538441341125242 0.03174877747865726 0.13216954477714357
-0.1372055893873205 0.05838796548812662 0.13792655154445396
-0.019659431509307993 -0.18236076520823527 0.11362877257273617
-0.031480607485376066 -0.15572157719876592 0.11938577934004656
-0.04330178346144416 -0.12908238918929654 0.12514278610735696
-0.05512295943751225 -0.10244320117982715 0.13089979287466735
-0.06694413541358034 -0.07580401317035777 0.13665679964197774
-0.07876531138964842 -0.049164825160888395 0.14241380640928814
-0.0905864873657165 -0.022525637151419028 0.14817081317659853
-0.10240766334178458 0.00411355085805035 0.15392781994390892
-0.11422883931785269 0.030752738867519742 0.15968482671121934
-0.12605001529392076 0.0573919268769891 0.16544183347852973
-0.008503857415908261 -0.18335680381937278 0.14114405450681192
-0.02032503339197634 -0.15671761580990343 0.1469010612741223
-0.03214620936804443 -0.13007842780043405 0.1526580680414327
-0.04396738534411252 -0.10343923979096467 0.15841507480874312
-0.05578856132018061 -0.0768000517814953 0.1641720815760535
-0.06760973729624868 -0.05016086377202591 0.1699290883433639
-0.07943091327231677 -0.023521675762556548 0.1756860951106743
-0.09125208924838485 0.0031175122469128307 0.18144310187798468
-0.10307326522445295 0.02975670025638222 0.1872001086452951
-0.11489444120052103 0.05639588826585159 0.1929571154126055
0.11489444120052103 -0.05639588826585159 -0.1929571154126055
0.10307326522445295 -0.02975670025638222 -0.1872001086452951
0.09125208924838485 -0.0031175122469128446 -0.18144310187798468
0.07943091327231677 0.023521675762556527 -0.1756860951106743
0.06760973729624868 0.05016086377202591 -0.1699290883433639
0.05578856132018061 0.0768000517814953 -0.1641720815760535
0.04396738534411252 0.10343923979096464 -0.15841507480874312
0.032146209368044444 0.13007842780043402 -0.1526580680414327
0.02032503339197634 0.15671761580990343 -0.1469010612741223
0.008503857415908261 0.18335680381937278 -0.14114405450681192
0.12605001529392076 -0.0573919268769891 -0.16544183347852973
0.11422883931785269 -0.030752738867519742 -0.15968482671121934
0.10240766334178458 -0.004113550858050364 -0.15392781994390894
0.0905864873657165 0.022525637151419007 -0.14817081317659853
0.07876531138964842 0.049164825160888395 -0.14241380640928814
0.06694413541358034 0.07580401317035777 -0.13665679964197774
0.05512295943751225 0.10244320117982712 -0.13089979287466735
0.04330178346144417 0.12908238918929651 -0.12514278610735696
0.031480607485376066 0.15572157719876592 -0.11938577934004656
0.019659431509307993 0.18236076520823527 -0.11362877257273617
0.1372055893873205 -0.05838796548812662 -0.13792655154445396
0.12538441341125242 -0.03174877747865726 -0.13216954477714357
0.11356323743518432 -0.0051095894691878824 -0.12641253800983318
0.10174206145911624 0.021529598540281487 -0.12065553124252278
0.08992088548304815 0.048168786549750875 -0.11489852447521237
0.07809970950698007 0.07480797455922025 -0.10914151770790198
0.06627853353091198 0.1014471625686896 -0.10338451094059159
0.054457357554843905 0.12808635057815898 -0.0976275041732812
0.0426361815787758 0.1547255385876284 -0.0918704974059708
0.030815005602707723 0.18136472659709774 -0.0861134906386604
0.14836116348072023 -0.05938400409926414 -0.1104112696103782
0.13653998750465215 -0.03274481608979478 -0.10465426284306781
0.12471881152858405 -0.006105628080325402 -0.09889725607575742
0.11289763555251597 0.02053355992914397 -0.09314024930844701
0.10107645957644788 0.047172747938613355 -0.08738324254113662
0.0892552836003798 0.07381193594808273 -0.08162623577382623
0.07743410762431172 0.10045112395755208 -0.07586922900651583
0.06561293164824364 0.12709031196702147 -0.07011222223920544
0.053791755672175534 0.15372949997649088 -0.06435521547189504
0.04197057969610746 0.18036868798596023 -0.058598208704584646
0.15951673757411997 -0.06038004271040166 -0.08289598767630244
0.1476955615980519 -0.0337408547009323 -0.07713898090899204
0.13587438562198378 -0.007101666691462921 -0.07138197414168165
0.12405320964591571 0.01953752131800645 -0.06562496737437125
0.11223203366984762 0.046176709327475834 -0.05986796060706085
0.10041085769377954 0.07281589733694521 -0.05411095383975046
0.08858968171771145 0.09945508534641456 -0.04835394707244006
0.07676850574164337 0.12609427335588394 -0.04259694030512967
0.06494732976557527 0.15273346136535335 -0.036839933537819274
0.05312615378950719 0.1793726493748227 -0.03108292677050888
0.1706723116675197 -0.06137608132153918 -0.05538070574222667
0.15885113569145162 -0.03473689331206982 -0.04962369897491628
0.14702995971538352 -0.008097705302600441 -0.04386669220760588
0.13520878373931544 0.01854148270686893 -0.038109685440295485
0.12338760776324735 0.045180670716338314 -0.03235267867298509
0.11156643178717927 0.0718198587258077 -0.026595671905674693
0.09974525581111118 0.09845904673527706 -0.020838665138364295
0.0879240798350431 0.12509823474474643 -0.015081658371053902
0.076102903858975 0.15173742275421584 -0.009324651603743505
0.06428172788290692 0.1783766107636852 -0.00356764483643311
0.18182788576091943 -0.0623721199326767 -0.02786542380815092
0.17000670978485136 -0.03573293192320734 -0.02210841704084053
0.15818553380878325 -0.00909374391373796 -0.016351410273530133
0.14636435783271518 0.017545444095731413 -0.010594403506219735
0.13454318185664707 0.044184632105200794 -0.004837396738909338
0.12272200588057901 0.07082382011467019 0.0009196100284010531
0.11090082990451092 0.09746300812413954 0.0066766167957114505
0.09907965392844284 0.12410219613360891 0.012433623563021846
0.08725847795237474 0.1507413841430783 0.018190630330332243
0.07543730197630666 0.17738057215254766 0.023947637097642638
0.19298345985431917 -0.06336815854381422 -0.00035014187407515714
0.1811622838782511 -0.03672897053434486 0.005406864893235234
0.16934110790218299 -0.010089782524875478 0.011163871660545631
0.1575199319261149 0.016549405484593892 0.01692087842785603
0.1456987559500468 0.043188593494063274 0.022677885195166426
0.13387757997397873 0.06982778150353267 0.028434891962476817
0.12205640399791065 0.09646696951300202 0.034191898729787215
0.11023522802184257 0.1231061575224714 0.03994890549709761
0.09841405204577447 0.1497453455319408 0.04570591226440801
0.08659287606970639 0.17638453354141015 0.0514629190317184
0.2041390339477189 -0.06436419715495174 0.027165140060000613
0.19231785797165082 -0.03772500914548238 0.032922146827311004
0.18049668199558272 -0.011085821136012999 0.0386791535946214
0.16867550601951464 0.015553366873456372 0.0444361603619318
0.15685433004344654 0.042192554882925754 0.0501931671292422
0.14503315406737846 0.06883174289239515 0.05595017389655259
0.13321197809131038 0.0954709309018645 0.061707180663862986
0.12139080211524231 0.12211011891133387 0.06746418743117338
0.1095696261391742 0.14874930692080326 0.07322119419848377
0.09774845016310613 0.17538849493027261 0.07897820096579418
0.21529460804111863 -0.06536023576608926 0.05468042199407637
0.20347343206505056 -0.03872104775661989 0.06043742876138676
0.19165225608898245 -0.012081859747150519 0.06619443552869717
0.17983108011291438 0.014557328262318852 0.07195144229600756
0.16800990413684627 0.04119651627178824 0.07770844906331796
0.1561887281607782 0.06783570428125762 0.08346545583062835
0.14436755218471012 0.09447489229072698 0.08922246259793874
0.13254637620864204 0.12111408030019635 0.09497946936524913
0.12072520023257394 0.14775326830966576 0.10073647613255954
0.10890402425650586 0.1743924563191351 0.10649348289986993
-0.10890402425650586 -0.1743924563191351 -0.10649348289986993
-0.08403752809461398 -0.16128172653543693 -0.11610055317906277
-0.05917103193272211 -0.14817099675173878 -0.1257076234582556
-0.03430453577083023 -0.1350602669680406 -0.13531469373744845
-0.009438039608938348 -0.12194953718434243 -0.14492176401664128
0.015428456552953529 -0.10883880740064426 -0.15452883429583414
0.04029495271484541 -0.0957280776169461 -0.16413590457502697
0.06516144887673728 -0.08261734783324792 -0.1737429748542198
0.09002794503862915 -0.06950661804954976 -0.18335004513341263
0.11489444120052103 -0.05639588826585159 -0.1929571154126055
-0.09774845016310613 -0.17538849493027261 -0.07897820096579418
-0.07288195400121425 -0.16227776514657444 -0.08858527124498701
-0.04801545783932238 -0.1491670353628763 -0.09819234152417984
-0.0231489616774305 -0.1360563055791781 -0.10779941180337269
0.0017175344844613837 -0.12294557579547995 -0.11740648208256553
0.02658403064635326 -0.10983484601178178 -0.12701355236175838
0.051450526808245134 -0.09672411622808362 -0.1366206226409512
0.07631702297013701 -0.08361338644438544 -0.14622769292014404
0.10118351913202889 -0.07050265666068728 -0.1558347631993369
0.12605001529392076 -0.0573919268769891 -0.16544183347852973
-0.08659287606970639 -0.17638453354141015 -0.051462919031718415
-0.061726379907814516 -0.16327380375771197 -0.06106998931091125
-0.036859883745922646 -0.15016307397401382 -0.07067705959010409
-0.011993387584030768 -0.13705234419031564 -0.08028412986929692
0.012873108577861116 -0.12394161440661747 -0.08989120014848977
0.03773960473975299 -0.1108308846229193 -0.09949827042768261
0.06260610090164487 -0.09772015483922114 -0.10910534070687544
0.08747259706353674 -0.08460942505552296 -0.11871241098606829
0.11233909322542862 -0.0714986952718248 -0.12831948126526113
0.1372055893873205 -0.05838796548812662 -0.13792655154445396
-0.07543730197630666 -0.17738057215254766 -0.023947637097642655
-0.05057080581441478 -0.16426984236884948 -0.033554707376835496
-0.025704309652522912 -0.15115911258515133 -0.04316177765602833
-0.0008378134906310371 -0.13804838280145315 -0.052768847935221165
0.024028682671260848 -0.12493765301775499 -0.06237591821441401
0.048895178833152725 -0.11182692323405682 -0.07198298849360685
0.0737616749950446 -0.09871619345035866 -0.08159005877279968
0.09862817115693648 -0.08560546366666048 -0.09119712905199252
0.12349466731882836 -0.07249473388296232 -0.10080419933118537
0.14836116348072023 -0.05938400409926414 -0.1104112696103782
-0.06428172788290692 -0.1783766107636852 0.00356764483643311
-0.03941523172101505 -0.165265880979987 -0.0060394254427597275
-0.014548735559123178 -0.15215515119628886 -0.015646495721952564
0.010317760602768698 -0.13904442141259069 -0.0252535660011454
0.03518425676466058 -0.1259336916288925 -0.03486063628033824
0.06005075292655246 -0.11282296184519434 -0.044467706559531084
0.08491724908844434 -0.09971223206149618 -0.054074776838723915
0.10978374525033621 -0.086601502277798 -0.06368184711791676
0.1346502414122281 -0.07349077249409984 -0.0732889173971096
0.15951673757411997 -0.06038004271040166 -0.08289598767630244
-0.05312615378950719 -0.1793726493748227 0.03108292677050888
-0.028259657627615314 -0.16626191959112452 0.02147585649131604
-0.0033931614657234438 -0.15315118980742637 0.011868786212123205
0.021473334696168432 -0.1400404600237282 0.0022617159329303663
0.046339830858060316 -0.12692973024003001 -0.007345354346262474
0.07120632701995219 -0.11381900045633185 -0.016952424625455317
0.09607282318184407 -0.10070827067263369 -0.026559494904648148
0.12093931934373595 -0.08759754088893551 -0.036166565183840996
0.14580581550562782 -0.07448681110523735 -0.045773635463033834
0.1706723116675197 -0.06137608132153918 -0.05538070574222667
-0.041970579696107464 -0.18036868798596023 0.058598208704584626
-0.017104083534215588 -0.16725795820226205 0.04899113842539179
0.007762412627676283 -0.1541472284185639 0.03938406814619895
0.03262890878956816 -0.14103649863486573 0.029776997867006112
0.05749540495146004 -0.12792576885116755 0.020169927587813274
0.08236190111335193 -0.11481503906746937 0.01056285730862043
0.1072283972752438 -0.10170430928377121 0.0009557870294275983
0.13209489343713568 -0.08859357950007303 -0.008651283249765246
0.15696138959902756 -0.07548284971637487 -0.018258353528958084
0.18182788576091943 -0.0623721199326767 -0.02786542380815092
-0.03081500560270773 -0.18136472659709774 0.08611349063866039
-0.005948509440815853 -0.16825399681339956 0.07650642035946756
0.018917986721076016 -0.1551432670297014 0.06689935008027471
0.04378448288296789 -0.14203253724600323 0.057292279801081876
0.06865097904485978 -0.12892180746230505 0.04768520952188904
0.09351747520675166 -0.11581107767860689 0.03807813924269619
0.11838397136864354 -0.10270034789490873 0.028471068963503363
0.1432504675305354 -0.08958961811121055 0.018863998684310518
0.1681169636924273 -0.07647888832751239 0.00925692840511768
0.19298345985431917 -0.06336815854381422 -0.00035014187407515714
-0.019659431509307993 -0.18236076520823527 0.11362877257273617
0.005207064652583884 -0.1692500354245371 0.10402170229354332
0.030073560814475753 -0.15613930564083894 0.09441463201435049
0.054940056976367634 -0.14302857585714077 0.08480756173515765
0.07980655313825952 -0.1299178460734426 0.07520049145596482
0.1046730493001514 -0.11680711628974441 0.06559342117677197
0.12953954546204327 -0.10369638650604625 0.05598635089757913
0.15440604162393515 -0.09058565672234807 0.04637928061838629
0.17927253778582702 -0.07747492693864991 0.03677221033919345
0.2041390339477189 -0.06436419715495174 0.027165140060000613
-0.008503857415908261 -0.18335680381937278 0.14114405450681192
0.016362638745983614 -0.1702460740356746 0.13153698422761909
0.041229134907875484 -0.15713534425197645 0.12192991394842624
0.06609563106976736 -0.14402461446827827 0.11232284366923341
0.09096212723165925 -0.1309138846845801 0.10271577339004057
0.11582862339355113 -0.11780315490088193 0.09310870311084772
0.140695119555443 -0.10469242511718377 0.08350163283165489
0.16556161571733488 -0.09158169533348559 0.07389456255246205
0.19042811187922676 -0.07847096554978743 0.06428749227326921
0.21529460804111863 -0.06536023576608926 0.05468042199407637
-0.21529460804111863 0.06536023576608926 -0.05468042199407637
-0.19042811187922676 0.07847096554978743 -0.06428749227326921
-0.16556161571733488 0.09158169533348559 -0.07389456255246205
-0.140695119555443 0.10469242511718377 -0.08350163283165489
-0.11582862339355113 0.11780315490088193 -0.09310870311084772
-0.09096212723165925 0.1309138846845801 -0.10271577339004057
-0.06609563106976737 0.14402461446827827 -0.1123228436692334
-0.0412291349078755 0.15713534425197645 -0.12192991394842624
-0.016362638745983614 0.1702460740356746 -0.13153698422761909
0.008503857415908261 0.18335680381937278 -0.14114405450681192
-0.2041390339477189 0.06436419715495174 -0.027165140060000613
-0.17927253778582702 0.07747492693864991 -0.03677221033919345
-0.15440604162393515 0.09058565672234807 -0.04637928061838629
-0.12953954546204327 0.10369638650604625 -0.055986350897579126
-0.1046730493001514 0.11680711628974441 -0.06559342117677197
-0.07980655313825952 0.1299178460734426 -0.07520049145596482
-0.05494005697636765 0.14302857585714077 -0.08480756173515765
-0.030073560814475767 0.15613930564083894 -0.09441463201435048
-0.005207064652583884 0.1692500354245371 -0.10402170229354332
0.019659431509307993 0.18236076520823527 -0.11362877257273617
-0.19298345985431917 0.06336815854381422 0.0003501418740751443
-0.1681169636924273 0.07647888832751239 -0.009256928405117694
-0.1432504675305354 0.08958961811121055 -0.01886399868431053
-0.11838397136864354 0.10270034789490873 -0.02847106896350337
-0.09351747520675166 0.11581107767860689 -0.03807813924269621
-0.06865097904485978 0.12892180746230505 -0.04768520952188905
-0.043784482882967914 0.14203253724600323 -0.05729227980108188
-0.018917986721076037 0.1551432670297014 -0.06689935008027473
0.005948509440815848 0.16825399681339956 -0.07650642035946756
0.030815005602707723 0.18136472659709774 -0.0861134906386604
-0.18182788576091943 0.0623721199326767 0.027865423808150904
-0.15696138959902756 0.07548284971637487 0.018258353528958066
-0.13209489343713568 0.08859357950007303 0.008651283249765227
-0.1072283972752438 0.10170430928377121 -0.0009557870294276107
-0.08236190111335193 0.11481503906746937 -0.010562857308620449
-0.05749540495146005 0.12792576885116755 -0.020169927587813292
-0.03262890878956818 0.14103649863486573 -0.029776997867006126
-0.007762412627676305 0.1541472284185639 -0.039384068146198964
0.01710408353421558 0.16725795820226205 -0.04899113842539181
0.04197057969610746 0.18036868798596023 -0.058598208704584646
-0.1706723116675197 0.06137608132153918 0.05538070574222667
-0.14580581550562782 0.07448681110523735 0.045773635463033834
-0.12093931934373595 0.08759754088893551 0.036166565183840996
-0.09607282318184407 0.10070827067263369 0.026559494904648154
-0.07120632701995219 0.11381900045633185 0.016952424625455317
-0.046339830858060316 0.12692973024003001 0.007345354346262474
-0.021473334696168446 0.1400404600237282 -0.0022617159329303593
0.00339316146572343 0.15315118980742637 -0.011868786212123198
0.028259657627615314 0.16626191959112452 -0.02147585649131604
0.05312615378950719 0.1793726493748227 -0.03108292677050888
-0.15951673757411997 0.06038004271040166 0.08289598767630244
-0.1346502414122281 0.07349077249409984 0.0732889173971096
-0.10978374525033621 0.086601502277798 0.06368184711791676
-0.08491724908844434 0.09971223206149618 0.05407477683872392
-0.06005075292655246 0.11282296184519434 0.044467706559531084
-0.03518425676466058 0.1259336916288925 0.03486063628033824
-0.010317760602768712 0.13904442141259069 0.02525356600114541
0.014548735559123165 0.15215515119628886 0.01564649572195257
0.03941523172101505 0.165265880979987 0.0060394254427597275
0.06428172788290692 0.1783766107636852 -0.00356764483643311
-0.14836116348072023 0.05938400409926414 0.11041126961037818
-0.12349466731882836 0.07249473388296232 0.10080419933118534
-0.09862817115693648 0.08560546366666048 0.09119712905199251
-0.0737616749950446 0.09871619345035866 0.08159005877279966
-0.04889517883315273 0.11182692323405682 0.07198298849360683
-0.024028682671260855 0.12493765301775499 0.06237591821441399
0.0008378134906310154 0.13804838280145315 0.05276884793522116
0.02570430965252289 0.15115911258515133 0.04316177765602831
0.050570805814414775 0.16426984236884948 0.033554707376835476
0.07543730197630666 0.17738057215254766 0.023947637097642638
-0.1372055893873205 0.05838796548812662 0.13792655154445396
-0.11233909322542862 0.0714986952718248 0.1283194812652611
-0.08747259706353674 0.08460942505552296 0.11871241098606827
-0.06260610090164487 0.09772015483922114 0.10910534070687544
-0.037739604739753 0.1108308846229193 0.0994982704276826
-0.012873108577861121 0.12394161440661747 0.08989120014848975
0.011993387584030749 0.13705234419031564 0.08028412986929692
0.036859883745922625 0.15016307397401382 0.07067705959010408
0.06172637990781451 0.16327380375771197 0.06106998931091124
0.08659287606970639 0.17638453354141015 0.0514629190317184
-0.12605001529392076 0.0573919268769891 0.16544183347852973
-0.10118351913202889 0.07050265666068728 0.1558347631993369
-0.07631702297013701 0.08361338644438544 0.14622769292014404
-0.051450526808245134 0.09672411622808362 0.1366206226409512
-0.02658403064635326 0.10983484601178178 0.12701355236175838
-0.0017175344844613837 0.12294557579547995 0.11740648208256553
0.023148961677430486 0.1360563055791781 0.10779941180337269
0.048015457839322366 0.1491670353628763 0.09819234152417985
0.07288195400121425 0.16227776514657444 0.08858527124498701
0.09774845016310613 0.17538849493027261 0.07897820096579418
-0.11489444120052103 0.05639588826585159 0.1929571154126055
-0.09002794503862915 0.06950661804954976 0.18335004513341263
-0.06516144887673728 0.08261734783324792 0.1737429748542198
-0.04029495271484541 0.0957280776169461 0.16413590457502697
-0.015428456552953529 0.10883880740064426 0.15452883429583414
0.009438039608938348 0.12194953718434243 0.14492176401664128
0.034304535770830216 0.1350602669680406 0.13531469373744845
0.05917103193272209 0.14817099675173878 0.12570762345825562
0.08403752809461398 0.16128172653543693 0.11610055317906277
0.10890402425650586 0.1743924563191351 0.10649348289986993
-0.10890402425650586 -0.1743924563191351 -0.10649348289986993
-0.08403752809461398 -0.16128172653543693 -0.11610055317906277
-0.05917103193272211 -0.14817099675173878 -0.1257076234582556
-0.03430453577083023 -0.1350602669680406 -0.13531469373744845
-0.009438039608938348 -0.12194953718434243 -0.14492176401664128
0.015428456552953529 -0.10883880740064426 -0.15452883429583414
0.04029495271484541 -0.0957280776169461 -0.16413590457502697
0.06516144887673728 -0.08261734783324792 -0.1737429748542198
0.09002794503862915 -0.06950661804954976 -0.18335004513341263
0.11489444120052103 -0.05639588826585159 -0.1929571154126055
-0.12072520023257394 -0.14775326830966576 -0.10073647613255954
-0.09585870407068206 -0.13464253852596758 -0.11034354641175237
-0.0709922079087902 -0.12153180874226943 -0.11995061669094521
-0.046125711746898314 -0.10842107895857125 -0.12955768697013806
-0.021259215585006434 -0.09531034917487308 -0.1391647572493309
0.003607280576885452 -0.0821996193911749 -0.14877182752852372
0.028473776738777316 -0.06908888960747674 -0.15837889780771658
0.05334027290066919 -0.055978159823778566 -0.1679859680869094
0.07820676906256108 -0.042867430040080395 -0.17759303836610224
0.10307326522445295 -0.02975670025638222 -0.1872001086452951
-0.132546376208642 -0.12111408030019638 -0.09497946936524915
-0.10767988004675015 -0.1080033505164982 -0.10458653964444198
-0.08281338388485827 -0.09489262073280004 -0.11419360992363481
-0.0579468877229664 -0.08178189094910188 -0.12380068020282765
-0.03308039156107452 -0.0686711611654037 -0.1334077504820205
-0.008213895399182639 -0.05556043138170552 -0.14301482076121333
0.016652600762709226 -0.04244970159800736 -0.15262189104040616
0.0415190969246011 -0.029338971814309184 -0.16222896131959902
0.06638559308649299 -0.016228242030611014 -0.17183603159879185
0.09125208924838485 -0.0031175122469128446 -0.18144310187798468
-0.14436755218471012 -0.094474892290727 -0.08922246259793874
-0.11950105602281824 -0.08136416250702883 -0.09882953287713159
-0.09463455986092636 -0.06825343272333068 -0.10843660315632442
-0.06976806369903449 -0.0551427029396325 -0.11804367343551726
-0.044901567537142605 -0.04203197315593433 -0.1276507437147101
-0.02003507137525072 -0.028921243372236147 -0.13725781399390294
0.004831424786641148 -0.015810513588537987 -0.14686488427309577
0.029697920948533026 -0.0026997838048398145 -0.15647195455228863
0.0545644171104249 0.010410945978858357 -0.16607902483148146
0.07943091327231677 0.023521675762556527 -0.1756860951106743
-0.1561887281607782 -0.06783570428125762 -0.08346545583062835
-0.13132223199888632 -0.05472497449755945 -0.09307252610982118
-0.10645573583699446 -0.041614244713861284 -0.10267959638901403
-0.08158923967510258 -0.02850351493016311 -0.11228666666820686
-0.056722743513210695 -0.01539278514646494 -0.1218937369473997
-0.03185624735131881 -0.002282055362766768 -0.13150080722659255
-0.006989751189426943 0.010828674420931396 -0.14110787750578538
0.017876744972464935 0.02393940420462957 -0.1507149477849782
0.04274324113435681 0.03705013398832774 -0.16032201806417107
0.06760973729624868 0.05016086377202591 -0.1699290883433639
-0.16800990413684627 -0.04119651627178824 -0.07770844906331796
-0.1431434079749544 -0.028085786488090066 -0.08731551934251079
-0.11827691181306255 -0.014975056704391903 -0.09692258962170362
-0.09341041565117067 -0.0018643269206937317 -0.10652965990089647
-0.06854391948927878 0.011246402863004441 -0.11613673018008931
-0.0436774233273869 0.024357132646702615 -0.12574380045928216
-0.018810927165495032 0.037467862430400775 -0.135350870738475
0.006055568996396843 0.050578592214098946 -0.14495794101766782
0.030922065158288735 0.06368932199779712 -0.15456501129686065
0.05578856132018061 0.0768000517814953 -0.1641720815760535
-0.17983108011291438 -0.014557328262318873 -0.07195144229600756
-0.1549645839510225 -0.0014465984786207033 -0.0815585125752004
-0.13009808778913062 0.011664131305077461 -0.09116558285439323
-0.10523159162723875 0.02477486108877563 -0.10077265313358608
-0.08036509546534687 0.0378855908724738 -0.11037972341277891
-0.05549859930345498 0.050996320656171976 -0.11998679369197175
-0.030632103141563113 0.06410705043987014 -0.1295938639711646
-0.005765606979671233 0.07721778022356832 -0.13920093425035743
0.019100889182220644 0.09032851000726648 -0.14880800452955026
0.04396738534411252 0.10343923979096464 -0.15841507480874312
-0.19165225608898245 0.012081859747150505 -0.06619443552869717
-0.16678575992709058 0.025192589530848675 -0.07580150580789
-0.1419192637651987 0.038303319314546835 -0.08540857608708284
-0.11705276760330684 0.051414049098245006 -0.09501564636627567
-0.09218627144141496 0.06452477888194318 -0.10462271664546852
-0.06731977527952307 0.07763550866564135 -0.11422978692466136
-0.0424532791176312 0.09074623844933952 -0.12383685720385419
-0.017586782955739323 0.1038569682330377 -0.13344392748304704
0.00727971320615256 0.11696769801673586 -0.14305099776223987
0.032146209368044444 0.13007842780043402 -0.1526580680414327
-0.20347343206505056 0.03872104775661989 -0.06043742876138676
-0.17860693590315868 0.051831777540318064 -0.0700444990405796
-0.1537404397412668 0.06494250732401623 -0.07965156931977244
-0.12887394357937493 0.07805323710771439 -0.08925863959896528
-0.10400744741748305 0.09116396689141257 -0.09886570987815813
-0.07914095125559116 0.10427469667511075 -0.10847278015735096
-0.05427445509369929 0.11738542645880891 -0.1180798504365438
-0.029407958931807414 0.13049615624250707 -0.12768692071573665
-0.004541462769915531 0.14360688602620525 -0.13729399099492948
0.02032503339197634 0.15671761580990343 -0.1469010612741223
-0.21529460804111863 0.06536023576608926 -0.05468042199407637
-0.19042811187922676 0.07847096554978743 -0.06428749227326921
-0.16556161571733488 0.09158169533348559 -0.07389456255246205
-0.140695119555443 0.10469242511718377 -0.08350163283165489
-0.11582862339355113 0.11780315490088193 -0.09310870311084772
-0.09096212723165925 0.1309138846845801 -0.10271577339004057
-0.06609563106976737 0.14402461446827827 -0.1123228436692334
-0.0412291349078755 0.15713534425197645 -0.12192991394842624
-0.016362638745983614 0.1702460740356746 -0.13153698422761909
0.008503857415908261 0.18335680381937278 -0.14114405450681192
-0.008503857415908261 -0.18335680381937278 0.14114405450681192
0.016362638745983614 -0.1702460740356746 0.13153698422761909
0.041229134907875484 -0.15713534425197645 0.12192991394842624
0.06609563106976736 -0.14402461446827827 0.11232284366923341
0.09096212723165925 -0.1309138846845801 0.10271577339004057
0.11582862339355113 -0.11780315490088193 0.09310870311084772
0.140695119555443 -0.10469242511718377 0.08350163283165489
0.16556161571733488 -0.09158169533348559 0.07389456255246205
0.19042811187922676 -0.07847096554978743 0.06428749227326921
0.21529460804111863 -0.06536023576608926 0.05468042199407637
-0.02032503339197634 -0.15671761580990343 0.1469010612741223
0.004541462769915531 -0.14360688602620525 0.13729399099492948
0.0294079589318074 -0.1304961562425071 0.12768692071573665
0.05427445509369928 -0.11738542645880892 0.1180798504365438
0.07914095125559116 -0.10427469667511075 0.10847278015735096
0.10400744741748305 -0.09116396689141257 0.09886570987815813
0.1288739435793749 -0.0780532371077144 0.08925863959896528
0.15374043974126678 -0.06494250732401624 0.07965156931977245
0.17860693590315868 -0.051831777540318064 0.0700444990405796
0.20347343206505056 -0.03872104775661989 0.06043742876138676
-0.03214620936804443 -0.13007842780043405 0.1526580680414327
-0.007279713206152553 -0.11696769801673587 0.14305099776223987
0.017586782955739316 -0.10385696823303771 0.13344392748304704
0.04245327911763119 -0.09074623844933954 0.12383685720385419
0.06731977527952307 -0.07763550866564137 0.11422978692466136
0.09218627144141496 -0.06452477888194319 0.10462271664546852
0.11705276760330682 -0.05141404909824503 0.09501564636627569
0.1419192637651987 -0.038303319314546856 0.08540857608708284
0.16678575992709058 -0.02519258953084869 0.07580150580789
0.19165225608898245 -0.012081859747150519 0.06619443552869717
-0.04396738534411252 -0.10343923979096467 0.15841507480874312
-0.019100889182220644 -0.0903285100072665 0.14880800452955026
0.005765606979671233 -0.07721778022356834 0.13920093425035743
0.030632103141563106 -0.06410705043987017 0.1295938639711646
0.055498599303454986 -0.050996320656171996 0.11998679369197175
0.08036509546534687 -0.03788559087247382 0.11037972341277891
0.10523159162723875 -0.024774861088775663 0.10077265313358608
0.13009808778913062 -0.011664131305077489 0.09116558285439323
0.1549645839510225 0.0014465984786206825 0.0815585125752004
0.17983108011291438 0.014557328262318852 0.07195144229600756
-0.05578856132018061 -0.0768000517814953 0.1641720815760535
-0.030922065158288735 -0.06368932199779712 0.15456501129686065
-0.006055568996396857 -0.05057859221409895 0.14495794101766782
0.01881092716549502 -0.03746786243040078 0.135350870738475
0.0436774233273869 -0.024357132646702615 0.12574380045928216
0.06854391948927878 -0.011246402863004441 0.11613673018008931
0.09341041565117066 0.0018643269206937213 0.10652965990089647
0.11827691181306253 0.014975056704391896 0.09692258962170364
0.1431434079749544 0.028085786488090066 0.08731551934251079
0.16800990413684627 0.04119651627178824 0.07770844906331796
-0.06760973729624868 -0.05016086377202591 0.1699290883433639
-0.04274324113435681 -0.03705013398832774 0.16032201806417107
-0.01787674497246495 -0.023939404204629578 0.15071494778497824
0.006989751189426929 -0.010828674420931406 0.14110787750578538
0.03185624735131881 0.002282055362766768 0.13150080722659255
0.056722743513210695 0.01539278514646494 0.1218937369473997
0.08158923967510257 0.028503514930163103 0.11228666666820687
0.10645573583699444 0.04161424471386128 0.10267959638901403
0.13132223199888632 0.05472497449755945 0.09307252610982118
0.1561887281607782 0.06783570428125762 0.08346545583062835
-0.07943091327231677 -0.023521675762556548 0.1756860951106743
-0.0545644171104249 -0.010410945978858378 0.16607902483148146
-0.029697920948533026 0.0026997838048397867 0.15647195455228863
-0.004831424786641148 0.015810513588537956 0.14686488427309577
0.020035071375250728 0.028921243372236127 0.13725781399390294
0.04490156753714261 0.04203197315593431 0.1276507437147101
0.06976806369903447 0.05514270293963247 0.11804367343551726
0.09463455986092636 0.06825343272333065 0.10843660315632442
0.11950105602281824 0.08136416250702881 0.09882953287713159
0.14436755218471012 0.09447489229072698 0.08922246259793874
-0.09125208924838485 0.0031175122469128307 0.18144310187798468
-0.06638559308649297 0.016228242030611 0.17183603159879185
-0.041519096924601116 0.029338971814309164 0.16222896131959902
-0.01665260076270924 0.04244970159800734 0.1526218910404062
0.008213895399182639 0.05556043138170551 0.14301482076121333
0.03308039156107453 0.06867116116540369 0.1334077504820205
0.05794688772296639 0.08178189094910185 0.12380068020282765
0.08281338388485827 0.09489262073280003 0.11419360992363482
0.10767988004675015 0.10800335051649819 0.10458653964444198
0.13254637620864204 0.12111408030019635 0.09497946936524913
-0.10307326522445295 0.02975670025638222 0.1872001086452951
-0.07820676906256108 0.042867430040080395 0.17759303836610224
-0.05334027290066921 0.05597815982377856 0.1679859680869094
-0.02847377673877733 0.06908888960747672 0.15837889780771658
-0.003607280576885452 0.0821996193911749 0.14877182752852372
0.021259215585006434 0.09531034917487308 0.1391647572493309
0.0461257117468983 0.10842107895857124 0.12955768697013806
0.07099220790879018 0.1215318087422694 0.11995061669094521
0.09585870407068206 0.13464253852596758 0.11034354641175237
0.12072520023257394 0.14775326830966576 0.10073647613255954
-0.11489444120052103 0.05639588826585159 0.1929571154126055
-0.09002794503862915 0.06950661804954976 0.18335004513341263
-0.06516144887673728 0.08261734783324792 0.1737429748542198
-0.04029495271484541 0.0957280776169461 0.16413590457502697
-0.015428456552953529 0.10883880740064426 0.15452883429583414
0.009438039608938348 0.12194953718434243 0.14492176401664128
0.034304535770830216 0.1350602669680406 0.13531469373744845
0.05917103193272209 0.14817099675173878 0.12570762345825562
0.08403752809461398 0.16128172653543693 0.11610055317906277
0.10890402425650586 0.1743924563191351 0.10649348289986993
