# .PCD v0.7 - Point Cloud Data file format
VERSION 0.7
FIELDS x y z
SIZE 4 4 4
TYPE F F F
COUNT 1 1 1
WIDTH 600
HEIGHT 1
VIEWPOINT 0 0 0 1 0 0 0
POINTS 600
DATA ascii
-0.02035528056840677 -0.0035772458096137725 -0.09832602966351361
-0.02302924725819515 0.006333007889563538 -0.09052782764440102
-0.02570321394798352 0.016243261588740846 -0.08272962562528842
-0.0283771806377719 0.02615351528791816 -0.07493142360617581
-0.031051147327560272 0.03606376898709547 -0.06713322158706322
-0.03372511401734865 0.045974022686272785 -0.05933501956795062
-0.03639908070713702 0.05588427638545009 -0.05153681754883802
-0.0390730473969254 0.0657945300846274 -0.04373861552972542
-0.041747014086713774 0.07570478378380471 -0.03594041351061282
-0.04442098077650215 0.08561503748298203 -0.028142211491500223
-0.024915155338091723 -0.011769293059193851 -0.08947882191663183
-0.0275891220278801 -0.00185903936001654 -0.08168061989751922
-0.030263088717668474 0.008051214339160766 -0.07388241787840663
-0.03293705540745685 0.01796146803833808 -0.06608421585929403
-0.035611022097245225 0.02787172173751539 -0.05828601384018142
-0.038284988787033604 0.037781975436692705 -0.05048781182106882
-0.040958955476821976 0.04769222913587001 -0.04268960980195622
-0.043632922166610355 0.057602482835047326 -0.03489140778284362
-0.04630688885639873 0.06751273653422464 -0.027093205763731018
-0.048980855546187106 0.07742299023340196 -0.01929500374461842
-0.029475030107776672 -0.019961340308773924 -0.08063161416975002
-0.032148996797565055 -0.010051086609596614 -0.07283341215063743
-0.03482296348735343 -0.00014083291041930678 -0.06503521013152483
-0.037496930177141806 0.009769420788758008 -0.057237008112412224
-0.04017089686693018 0.01967967448793532 -0.04943880609329963
-0.04284486355671856 0.029589928187112632 -0.04164060407418702
-0.04551883024650693 0.03950018188628994 -0.033842402055074425
-0.04819279693629531 0.04941043558546725 -0.026044200035961824
-0.05086676362608368 0.05932068928464456 -0.018245998016849223
-0.05354073031587206 0.06923094298382187 -0.010447795997736627
-0.03403490487746163 -0.028153387558354004 -0.07178440642286822
-0.03670887156725001 -0.018243133859176693 -0.06398620440375563
-0.03938283825703838 -0.008332880159999384 -0.056188002384643033
-0.04205680494682676 0.001577373539177929 -0.04838980036553043
-0.04473077163661513 0.01148762723835524 -0.04059159834641783
-0.04740473832640351 0.021397880937532553 -0.03279339632730523
-0.05007870501619188 0.03130813463670986 -0.02499519430819263
-0.05275267170598026 0.041218388335887174 -0.017196992289080025
-0.05542663839576863 0.05112864203506448 -0.009398790269967424
-0.05810060508555701 0.0610388957342418 -0.0016005882508548265
-0.03859477964714658 -0.036345434807934084 -0.06293719867598642
-0.04126874633693496 -0.02643518110875677 -0.05513899665687383
-0.04394271302672333 -0.016524927409579462 -0.04734079463776123
-0.04661667971651171 -0.006614673710402149 -0.03954259261864863
-0.049290646406300084 0.0032955799887751623 -0.03174439059953603
-0.05196461309608846 0.013205833687952476 -0.023946188580423425
-0.054638579785876835 0.023116087387129784 -0.016147986561310827
-0.057312546475665214 0.033026341086307094 -0.008349784542198225
-0.05998651316545359 0.0429365947854844 -0.0005515825230856242
-0.06266047985524197 0.05284684848466172 0.007246619496026973
-0.04315465441683153 -0.044537482057514156 -0.054089990929104624
-0.04582862110661991 -0.03462722835833685 -0.04629178890999203
-0.04850258779640828 -0.024716974659159542 -0.03849358689087943
-0.05117655448619666 -0.014806720959982228 -0.030695384871766825
-0.05385052117598503 -0.004896467260804916 -0.022897182852654227
-0.05652448786577341 0.0050137864383723975 -0.015098980833541624
-0.05919845455556178 0.014924040137549704 -0.007300778814429028
-0.06187242124535016 0.024834293836727014 0.0004974232046835749
-0.06454638793513853 0.03474454753590433 0.008295625223796175
-0.06722035462492691 0.04465480123508165 0.016093827242908774
-0.04771452918651648 -0.052729529307094236 -0.04524278318222283
-0.05038849587630486 -0.04281927560791692 -0.03744458116311023
-0.05306246256609323 -0.032909021908739615 -0.029646379143997634
-0.05573642925588161 -0.0229987682095623 -0.02184817712488503
-0.058410395945669984 -0.01308851451038499 -0.014049975105772433
-0.06108436263545836 -0.003178260811207676 -0.006251773086659828
-0.06375832932524673 0.006731992887969631 0.0015464289324527672
-0.06643229601503511 0.01664224658714694 0.00934463095156537
-0.06910626270482349 0.026552500286324252 0.017142832970677972
-0.07178022939461187 0.03646275398550157 0.02494103498979057
-0.052274403956201435 -0.06092157655667431 -0.036395575435341034
-0.054948370645989814 -0.051011322857497 -0.028597373416228433
-0.057622337335778186 -0.041101069158319695 -0.020799171397115835
-0.060296304025566565 -0.03119081545914238 -0.01300096937800323
-0.06297027071535494 -0.021280561759965066 -0.005202767358890633
-0.06564423740514332 -0.011370308060787754 0.0025954346602219715
-0.06831820409493168 -0.0014600543616104474 0.010393636679334567
-0.07099217078472006 0.008450199337566864 0.01819183869844717
-0.07366613747450844 0.018360453036744172 0.02599004071755977
-0.07634010416429682 0.028270706735921493 0.033788242736672365
-0.05683427872588639 -0.0691136238062544 -0.02754836768845923
-0.05950824541567477 -0.05920337010707708 -0.019750165669346634
-0.06218221210546314 -0.049293116407899774 -0.011951963650234034
-0.06485617879525152 -0.03938286270872246 -0.004153761631121431
-0.06753014548503988 -0.029472609009545146 0.003644440387991167
-0.07020411217482826 -0.019562355310367832 0.011442642407103772
-0.07287807886461664 -0.009652101611190525 0.019240844426216368
-0.07555204555440502 0.00025815208798678506 0.02703904644532897
-0.07822601224419339 0.010168405787164096 0.03483724846444157
-0.08089997893398176 0.020078659486341417 0.04263545048355417
-0.06139415349557134 -0.07730567105583447 -0.01870115994157743
-0.06406812018535972 -0.06739541735665716 -0.010902957922464833
-0.06674208687514809 -0.05748516365747985 -0.003104755903352235
-0.06941605356493646 -0.04757490995830253 0.00469344611576037
-0.07209002025472484 -0.037664656259125226 0.012491648134872966
-0.07476398694451322 -0.027754402559947912 0.020289850153985572
-0.07743795363430159 -0.017844148860770605 0.028088052173098167
-0.08011192032408997 -0.007933895161593292 0.03588625419221077
-0.08278588701387835 0.0019763585375840173 0.04368445621132337
-0.08545985370366672 0.01188661223676134 0.05148265823043597
0.08545985370366672 -0.01188661223676134 -0.05148265823043597
0.08278588701387835 -0.0019763585375840173 -0.04368445621132337
0.08011192032408997 0.007933895161593285 -0.035886254192210774
0.07743795363430159 0.0178441488607706 -0.02808805217309817
0.07476398694451322 0.027754402559947912 -0.020289850153985572
0.07209002025472484 0.037664656259125226 -0.012491648134872966
0.06941605356493646 0.04757490995830253 -0.00469344611576037
0.06674208687514809 0.05748516365747984 0.003104755903352228
0.06406812018535972 0.06739541735665716 0.010902957922464833
0.06139415349557134 0.07730567105583447 0.01870115994157743
0.08089997893398176 -0.020078659486341417 -0.04263545048355417
0.07822601224419339 -0.010168405787164096 -0.03483724846444157
0.07555204555440502 -0.000258152087986792 -0.027039046445328972
0.07287807886461664 0.009652101611190522 -0.01924084442621637
0.07020411217482826 0.019562355310367832 -0.011442642407103772
0.06753014548503988 0.029472609009545146 -0.003644440387991167
0.06485617879525152 0.03938286270872245 0.004153761631121431
0.06218221210546314 0.04929311640789977 0.011951963650234028
0.05950824541567477 0.05920337010707708 0.019750165669346634
0.05683427872588639 0.0691136238062544 0.02754836768845923
0.07634010416429682 -0.02827070673592149 -0.03378824273667237
0.07366613747450844 -0.01836045303674417 -0.025990040717559774
0.07099217078472007 -0.008450199337566865 -0.018191838698447177
0.0683182040949317 0.0014600543616104483 -0.010393636679334576
0.06564423740514332 0.01137030806078776 -0.0025954346602219762
0.06297027071535494 0.021280561759965073 0.005202767358890629
0.060296304025566565 0.031190815459142377 0.013000969378003225
0.057622337335778186 0.04110106915831969 0.020799171397115825
0.054948370645989814 0.051011322857497 0.02859737341622843
0.052274403956201435 0.060921576556674316 0.03639557543534103
0.07178022939461187 -0.03646275398550157 -0.024941034989790573
0.06910626270482349 -0.02655250028632425 -0.017142832970677976
0.06643229601503511 -0.016642246587146945 -0.009344630951565378
0.06375832932524673 -0.00673199288796963 -0.0015464289324527754
0.06108436263545836 0.003178260811207681 0.006251773086659824
0.058410395945669984 0.013088514510384994 0.014049975105772428
0.05573642925588161 0.0229987682095623 0.021848177124885026
0.05306246256609323 0.032909021908739615 0.029646379143997623
0.05038849587630486 0.04281927560791693 0.037444581163110224
0.04771452918651648 0.052729529307094236 0.04524278318222282
0.06722035462492691 -0.04465480123508165 -0.016093827242908774
0.06454638793513853 -0.03474454753590433 -0.008295625223796175
0.06187242124535016 -0.02483429383672702 -0.0004974232046835783
0.05919845455556178 -0.014924040137549707 0.007300778814429024
0.05652448786577341 -0.0050137864383723975 0.015098980833541624
0.05385052117598503 0.004896467260804916 0.022897182852654227
0.05117655448619666 0.014806720959982223 0.030695384871766825
0.04850258779640828 0.024716974659159535 0.03849358689087942
0.04582862110661991 0.03462722835833685 0.04629178890999203
0.04315465441683153 0.044537482057514156 0.054089990929104624
0.06266047985524197 -0.05284684848466172 -0.007246619496026973
0.05998651316545359 -0.0429365947854844 0.0005515825230856242
0.057312546475665214 -0.0330263410863071 0.008349784542198221
0.054638579785876835 -0.023116087387129787 0.016147986561310824
0.05196461309608846 -0.013205833687952476 0.023946188580423425
0.049290646406300084 -0.0032955799887751623 0.03174439059953603
0.04661667971651171 0.006614673710402144 0.03954259261864863
0.04394271302672333 0.016524927409579455 0.047340794637761224
0.04126874633693496 0.02643518110875677 0.05513899665687383
0.03859477964714658 0.036345434807934084 0.06293719867598642
0.05810060508555701 -0.0610388957342418 0.0016005882508548217
0.05542663839576863 -0.05112864203506448 0.009398790269967419
0.05275267170598026 -0.041218388335887174 0.017196992289080018
0.05007870501619188 -0.03130813463670986 0.02499519430819262
0.04740473832640351 -0.02139788093753255 0.03279339632730522
0.04473077163661513 -0.011487627238355237 0.040591598346417825
0.04205680494682676 -0.00157737353917793 0.04838980036553042
0.03938283825703838 0.008332880159999383 0.05618800238464302
0.03670887156725001 0.018243133859176697 0.06398620440375562
0.03403490487746163 0.028153387558354007 0.07178440642286822
0.05354073031587206 -0.06923094298382187 0.010447795997736622
0.05086676362608368 -0.059320689284644554 0.01824599801684922
0.04819279693629531 -0.049410435585467254 0.026044200035961817
0.04551883024650693 -0.03950018188628994 0.03384240205507442
0.04284486355671856 -0.02958992818711263 0.041640604074187015
0.04017089686693018 -0.019679674487935315 0.04943880609329962
0.037496930177141806 -0.009769420788758008 0.05723700811241222
0.03482296348735343 0.00014083291041930426 0.06503521013152481
0.032148996797565055 0.010051086609596619 0.07283341215063742
0.029475030107776676 0.019961340308773928 0.08063161416975002
0.048980855546187106 -0.07742299023340196 0.01929500374461842
0.04630688885639873 -0.06751273653422464 0.027093205763731018
0.043632922166610355 -0.05760248283504733 0.034891407782843616
0.040958955476821976 -0.04769222913587002 0.04268960980195622
0.038284988787033604 -0.037781975436692705 0.05048781182106882
0.035611022097245225 -0.02787172173751539 0.05828601384018142
0.03293705540745685 -0.017961468038338087 0.06608421585929403
0.030263088717668474 -0.008051214339160773 0.07388241787840662
0.0275891220278801 0.00185903936001654 0.08168061989751922
0.024915155338091723 0.011769293059193851 0.08947882191663183
0.04442098077650215 -0.08561503748298203 0.028142211491500223
0.041747014086713774 -0.07570478378380471 0.03594041351061282
0.0390730473969254 -0.0657945300846274 0.04373861552972542
0.03639908070713702 -0.05588427638545009 0.05153681754883802
0.03372511401734865 -0.045974022686272785 0.05933501956795062
0.031051147327560272 -0.03606376898709547 0.06713322158706322
0.0283771806377719 -0.026153515287918164 0.07493142360617581
0.02570321394798352 -0.016243261588740853 0.08272962562528842
0.02302924725819515 -0.006333007889563538 0.09052782764440102
0.02035528056840677 0.0035772458096137725 0.09832602966351361
-0.02035528056840677 -0.0035772458096137725 -0.09832602966351361
-0.008598043427065273 -0.004500508745963507 -0.09312121061539388
0.0031591937142762248 -0.005423771682313235 -0.08791639156727414
0.014916430855617724 -0.006347034618662963 -0.0827115725191544
0.026673667996959225 -0.007270297555012691 -0.07750675347103467
0.038430905138300726 -0.00819356049136242 -0.07230193442291492
0.050188142279642224 -0.009116823427712148 -0.06709711537479518
0.06194537942098372 -0.010040086364061876 -0.06189229632667545
0.07370261656232523 -0.010963349300411604 -0.056687477278555706
0.08545985370366672 -0.01188661223676134 -0.05148265823043597
-0.024915155338091723 -0.011769293059193851 -0.08947882191663183
-0.013157918196750225 -0.012692555995543586 -0.08427400286851208
-0.001400681055408728 -0.013615818931893314 -0.07906918382039235
0.010356556085932772 -0.014539081868243042 -0.07386436477227261
0.022113793227274272 -0.01546234480459277 -0.06865954572415287
0.03387103036861577 -0.0163856077409425 -0.06345472667603312
0.04562826750995727 -0.017308870677292226 -0.058249907627913385
0.05738550465129877 -0.018232133613641954 -0.05304508857979365
0.06914274179264027 -0.019155396549991682 -0.04784026953167391
0.08089997893398176 -0.020078659486341417 -0.04263545048355417
-0.029475030107776672 -0.019961340308773924 -0.08063161416975002
-0.017717792966435175 -0.02088460324512366 -0.0754267951216303
-0.0059605558250936785 -0.021807866181473387 -0.07022197607351055
0.005796681316247821 -0.022731129117823115 -0.0650171570253908
0.017553918457589322 -0.023654392054172843 -0.05981233797727107
0.029311155598930824 -0.02457765499052257 -0.054607518929151326
0.04106839274027232 -0.0255009179268723 -0.04940269988103159
0.052825629881613816 -0.026424180863222027 -0.04419788083291185
0.06458286702295532 -0.027347443799571755 -0.038993061784792116
0.07634010416429682 -0.02827070673592149 -0.03378824273667237
-0.03403490487746163 -0.028153387558354004 -0.07178440642286822
-0.022277667736120128 -0.02907665049470374 -0.06657958737474849
-0.01052043059477863 -0.029999913431053467 -0.061374768326628755
0.0012368065465628688 -0.030923176367403195 -0.05616994927850901
0.01299404368790437 -0.03184643930375292 -0.050965130230389274
0.02475128082924587 -0.03276970224010265 -0.04576031118226953
0.036508517970587365 -0.03369296517645238 -0.040555492134149794
0.04826575511192886 -0.03461622811280211 -0.03535067308603006
0.06002299225327037 -0.035539491049151835 -0.030145854037910313
0.07178022939461187 -0.03646275398550157 -0.024941034989790573
-0.03859477964714658 -0.036345434807934084 -0.06293719867598642
-0.02683754250580508 -0.03726869774428382 -0.05773237962786669
-0.015080305364463583 -0.03819196068063355 -0.05252756057974695
-0.003323068223122084 -0.039115223616983275 -0.04732274153162721
0.008434168918219416 -0.040038486553333 -0.04211792248350747
0.020191406059560917 -0.04096174948968273 -0.03691310343538773
0.03194864320090241 -0.04188501242603246 -0.03170828438726799
0.04370588034224391 -0.04280827536238219 -0.026503465339148255
0.055463117483585414 -0.043731538298731915 -0.021298646291028515
0.06722035462492691 -0.04465480123508165 -0.016093827242908774
-0.04315465441683153 -0.044537482057514156 -0.054089990929104624
-0.03139741727549003 -0.04546074499386389 -0.04888517188098489
-0.019640180134148536 -0.04638400793021362 -0.04368035283286515
-0.007882942992807037 -0.04730727086656335 -0.03847553378474541
0.0038742941485344633 -0.048230533802913075 -0.03327071473662567
0.015631531289875964 -0.0491537967392628 -0.028065895688505926
0.027388768431217462 -0.05007705967561253 -0.02286107664038619
0.03914600557255896 -0.05100032261196226 -0.017656257592266453
0.05090324271390047 -0.05192358554831199 -0.012451438544146714
0.06266047985524197 -0.05284684848466172 -0.007246619496026973
-0.04771452918651648 -0.052729529307094236 -0.04524278318222283
-0.035957292045174984 -0.05365279224344397 -0.04003796413410309
-0.024200054903833486 -0.0545760551797937 -0.034833145085983355
-0.012442817762491986 -0.05549931811614343 -0.02962832603786361
-0.000685580621150487 -0.056422581052493155 -0.024423506989743875
0.011071656520191014 -0.05734584398884288 -0.01921868794162413
0.022828893661532512 -0.05826910692519261 -0.014013868893504396
0.03458613080287401 -0.05919236986154234 -0.00880904984538466
0.046343367944215515 -0.06011563279789207 -0.0036042307972649185
0.05810060508555701 -0.0610388957342418 0.0016005882508548217
-0.052274403956201435 -0.06092157655667431 -0.036395575435341034
-0.04051716681485994 -0.061844839493024044 -0.031190756387221293
-0.02875992967351844 -0.06276810242937378 -0.025985937339101556
-0.017002692532176938 -0.0636913653657235 -0.020781118290981813
-0.00524545539083544 -0.06461462830207323 -0.015576299242862076
0.006511781750506061 -0.06553789123842296 -0.010371480194742332
0.01826901889184756 -0.06646115417477269 -0.0051666611466225955
0.030026256033189057 -0.06738441711112242 3.8157901497141274e-05
0.04178349317453056 -0.06830768004747215 0.0052429769496168815
0.05354073031587206 -0.06923094298382187 0.010447795997736622
-0.05683427872588639 -0.0691136238062544 -0.02754836768845923
-0.04507704158454489 -0.07003688674260412 -0.022343548640339495
-0.03331980444320339 -0.07096014967895385 -0.017138729592219758
-0.02156256730186189 -0.07188341261530358 -0.011933910544100012
-0.009805330160520393 -0.07280667555165331 -0.006729091495980276
0.001951906980821109 -0.07372993848800304 -0.0015242724478605324
0.013709144122162606 -0.07465320142435276 0.0036805466002592046
0.025466381263504104 -0.07557646436070249 0.008885365648378942
0.03722361840484561 -0.07649972729705222 0.014090184696498682
0.048980855546187106 -0.07742299023340196 0.01929500374461842
-0.06139415349557134 -0.07730567105583447 -0.01870115994157743
-0.04963691635422984 -0.0782289339921842 -0.013496340893457694
-0.037879679212888345 -0.07915219692853392 -0.008291521845337957
-0.026122442071546844 -0.08007545986488365 -0.0030867027972182126
-0.014365204930205345 -0.08099872280123338 0.002118116250901524
-0.0026079677888638437 -0.08192198573758311 0.007322935299021268
0.009149269352477655 -0.08284524867393284 0.012527754347141004
0.02090650649381915 -0.08376851161028256 0.017732573395260742
0.032663743635160655 -0.08469177454663229 0.022937392443380483
0.04442098077650215 -0.08561503748298203 0.028142211491500223
-0.04442098077650215 0.08561503748298203 -0.028142211491500223
-0.032663743635160655 0.08469177454663229 -0.022937392443380483
-0.020906506493819157 0.08376851161028256 -0.01773257339526075
-0.009149269352477655 0.08284524867393284 -0.012527754347141004
0.0026079677888638437 0.08192198573758311 -0.007322935299021268
0.014365204930205345 0.08099872280123338 -0.002118116250901524
0.02612244207154684 0.08007545986488365 0.0030867027972182126
0.03787967921288834 0.07915219692853392 0.00829152184533795
0.04963691635422984 0.0782289339921842 0.013496340893457694
0.06139415349557134 0.07730567105583447 0.01870115994157743
-0.048980855546187106 0.07742299023340196 -0.01929500374461842
-0.03722361840484561 0.07649972729705222 -0.014090184696498682
-0.02546638126350411 0.07557646436070249 -0.008885365648378949
-0.013709144122162606 0.07465320142435276 -0.0036805466002592046
-0.001951906980821109 0.07372993848800304 0.0015242724478605324
0.009805330160520393 0.07280667555165331 0.006729091495980276
0.021562567301861887 0.07188341261530358 0.011933910544100012
0.033319804443203385 0.07096014967895385 0.01713872959221975
0.04507704158454489 0.07003688674260412 0.022343548640339495
0.05683427872588639 0.0691136238062544 0.02754836768845923
-0.05354073031587206 0.06923094298382187 -0.010447795997736627
-0.04178349317453056 0.06830768004747215 -0.005242976949616886
-0.03002625603318906 0.06738441711112242 -3.815790149715298e-05
-0.018269018891847556 0.06646115417477269 0.005166661146622591
-0.0065117817505060595 0.06553789123842296 0.010371480194742327
0.005245455390835442 0.06461462830207323 0.01557629924286207
0.017002692532176938 0.0636913653657235 0.02078111829098181
0.028759929673518436 0.06276810242937378 0.025985937339101546
0.04051716681485994 0.06184483949302405 0.03119075638722129
0.052274403956201435 0.060921576556674316 0.03639557543534103
-0.05810060508555701 0.0610388957342418 -0.0016005882508548265
-0.046343367944215515 0.06011563279789207 0.0036042307972649137
-0.03458613080287402 0.05919236986154234 0.008809049845384647
-0.02282889366153251 0.05826910692519261 0.01401386889350439
-0.011071656520191011 0.05734584398884288 0.019218687941624128
0.0006855806211504895 0.056422581052493155 0.02442350698974387
0.012442817762491986 0.05549931811614343 0.029628326037863608
0.024200054903833482 0.0545760551797937 0.03483314508598334
0.035957292045174984 0.05365279224344397 0.040037964134103085
0.04771452918651648 0.052729529307094236 0.04524278318222282
-0.06266047985524197 0.05284684848466172 0.007246619496026973
-0.05090324271390047 0.05192358554831199 0.012451438544146714
-0.03914600557255897 0.05100032261196226 0.017656257592266446
-0.027388768431217462 0.05007705967561253 0.02286107664038619
-0.015631531289875964 0.0491537967392628 0.028065895688505926
-0.0038742941485344633 0.048230533802913075 0.03327071473662567
0.007882942992807033 0.04730727086656335 0.03847553378474541
0.01964018013414853 0.04638400793021362 0.043680352832865144
0.03139741727549003 0.04546074499386389 0.04888517188098489
0.04315465441683153 0.044537482057514156 0.054089990929104624
-0.06722035462492691 0.04465480123508165 0.016093827242908774
-0.055463117483585414 0.043731538298731915 0.021298646291028515
-0.043705880342243916 0.04280827536238219 0.026503465339148248
-0.03194864320090241 0.04188501242603246 0.03170828438726799
-0.020191406059560917 0.04096174948968273 0.03691310343538773
-0.008434168918219416 0.040038486553333 0.04211792248350747
0.0033230682231220805 0.039115223616983275 0.04732274153162721
0.015080305364463576 0.03819196068063355 0.052527560579746946
0.02683754250580508 0.03726869774428382 0.05773237962786669
0.03859477964714658 0.036345434807934084 0.06293719867598642
-0.07178022939461187 0.03646275398550157 0.02494103498979057
-0.06002299225327037 0.035539491049151835 0.03014585403791031
-0.04826575511192887 0.03461622811280211 0.03535067308603004
-0.036508517970587365 0.03369296517645238 0.04055549213414979
-0.024751280829245867 0.03276970224010265 0.045760311182269524
-0.012994043687904366 0.03184643930375292 0.05096513023038927
-0.0012368065465628698 0.0309231763674032 0.056169949278509004
0.010520430594778626 0.02999991343105347 0.06137476832662874
0.02227766773612013 0.029076650494703742 0.06657958737474848
0.03403490487746163 0.028153387558354007 0.07178440642286822
-0.07634010416429682 0.028270706735921493 0.033788242736672365
-0.06458286702295532 0.02734744379957176 0.03899306178479211
-0.05282562988161382 0.02642418086322203 0.04419788083291184
-0.04106839274027232 0.025500917926872303 0.04940269988103158
-0.02931115559893082 0.024577654990522575 0.05460751892915132
-0.01755391845758932 0.023654392054172847 0.05981233797727106
-0.005796681316247823 0.02273112911782312 0.0650171570253908
0.005960555825093673 0.02180786618147339 0.07022197607351054
0.017717792966435178 0.020884603245123663 0.07542679512163028
0.029475030107776676 0.019961340308773928 0.08063161416975002
-0.08089997893398176 0.020078659486341417 0.04263545048355417
-0.06914274179264027 0.019155396549991682 0.04784026953167391
-0.057385504651298776 0.018232133613641954 0.05304508857979364
-0.04562826750995727 0.017308870677292226 0.058249907627913385
-0.03387103036861577 0.0163856077409425 0.06345472667603312
-0.022113793227274272 0.01546234480459277 0.06865954572415287
-0.010356556085932776 0.014539081868243042 0.07386436477227261
0.001400681055408721 0.013615818931893314 0.07906918382039234
0.013157918196750225 0.012692555995543586 0.08427400286851208
0.024915155338091723 0.011769293059193851 0.08947882191663183
-0.08545985370366672 0.01188661223676134 0.05148265823043597
-0.07370261656232523 0.010963349300411604 0.056687477278555706
-0.06194537942098373 0.010040086364061876 0.06189229632667544
-0.050188142279642224 0.009116823427712148 0.06709711537479518
-0.038430905138300726 0.00819356049136242 0.07230193442291492
-0.026673667996959225 0.007270297555012691 0.07750675347103467
-0.014916430855617727 0.006347034618662963 0.0827115725191544
-0.0031591937142762317 0.005423771682313235 0.08791639156727414
0.008598043427065273 0.004500508745963507 0.09312121061539388
0.02035528056840677 0.0035772458096137725 0.09832602966351361
-0.02035528056840677 -0.0035772458096137725 -0.09832602966351361
-0.008598043427065273 -0.004500508745963507 -0.09312121061539388
0.0031591937142762248 -0.005423771682313235 -0.08791639156727414
0.014916430855617724 -0.006347034618662963 -0.0827115725191544
0.026673667996959225 -0.007270297555012691 -0.07750675347103467
0.038430905138300726 -0.00819356049136242 -0.07230193442291492
0.050188142279642224 -0.009116823427712148 -0.06709711537479518
0.06194537942098372 -0.010040086364061876 -0.06189229632667545
0.07370261656232523 -0.010963349300411604 -0.056687477278555706
0.08545985370366672 -0.01188661223676134 -0.05148265823043597
-0.02302924725819515 0.006333007889563538 -0.09052782764440102
-0.011272010116853652 0.005409744953213807 -0.08532300859628128
0.0004852270244878457 0.004486482016864079 -0.08011818954816155
0.012242464165829348 0.0035632190805143507 -0.0749133705000418
0.02399970130717085 0.0026399561441646227 -0.06970855145192206
0.03575693844851235 0.0017166932078148945 -0.06450373240380232
0.047514175589853845 0.0007934302714651666 -0.05929891335568259
0.05927141273119534 -0.00012983266488456144 -0.05409409430756285
0.07102864987253685 -0.0010530956012342896 -0.04888927525944311
0.08278588701387835 -0.0019763585375840173 -0.04368445621132337
-0.02570321394798352 0.016243261588740846 -0.08272962562528842
-0.013945976806642025 0.015319998652391116 -0.07752480657716869
-0.0021887396653005264 0.014396735716041388 -0.07231998752904895
0.009568497476040974 0.013473472779691657 -0.0671151684809292
0.021325734617382474 0.012550209843341929 -0.06191034943280947
0.033082971758723975 0.011626946906992201 -0.05670553038468973
0.04484020890006547 0.010703683970642473 -0.05150071133656999
0.05659744604140697 0.009780421034292745 -0.046295892288450255
0.06835468318274847 0.008857158097943013 -0.04109107324033051
0.08011192032408997 0.007933895161593285 -0.035886254192210774
-0.0283771806377719 0.02615351528791816 -0.07493142360617581
-0.016619943496430402 0.02523025235156843 -0.06972660455805609
-0.004862706355088906 0.0243069894152187 -0.06452178550993634
0.006894530786252597 0.023383726478868973 -0.059316966461816605
0.0186517679275941 0.022460463542519245 -0.05411214741369687
0.0304090050689356 0.021537200606169517 -0.048907328365577124
0.042166242210277094 0.02061393766981979 -0.04370250931745739
0.05392347935161859 0.01969067473347006 -0.03849769026933765
0.06568071649296009 0.01876741179712033 -0.033292871221217914
0.07743795363430159 0.0178441488607706 -0.02808805217309817
-0.031051147327560272 0.03606376898709547 -0.06713322158706322
-0.019293910186218774 0.03514050605074574 -0.06192840253894348
-0.007536673044877278 0.034217243114396015 -0.056723583490823744
0.00422056409646422 0.03329398017804629 -0.05151876444270401
0.015977801237805723 0.03237071724169656 -0.04631394539458426
0.027735038379147224 0.031447454305346824 -0.041109126346464527
0.03949227552048872 0.0305241913689971 -0.03590430729834479
0.05124951266183022 0.029600928432647368 -0.03069948825022505
0.06300674980317172 0.02867766549629764 -0.02549466920210531
0.07476398694451322 0.027754402559947912 -0.020289850153985572
-0.03372511401734865 0.045974022686272785 -0.05933501956795062
-0.021967876876007153 0.04505075974992306 -0.05413020051983088
-0.010210639734665657 0.04412749681357333 -0.048925381471711146
0.0015465974066758482 0.043204233877223594 -0.0437205624235914
0.013303834548017346 0.042280970940873866 -0.038515743375471666
0.02506107168935885 0.04135770800452414 -0.03331092432735192
0.03681830883070034 0.04043444506817441 -0.02810610527923219
0.04857554597204184 0.03951118213182468 -0.02290128623111245
0.060332783113383345 0.038587919195474954 -0.01769646718299271
0.07209002025472484 0.037664656259125226 -0.012491648134872966
-0.03639908070713702 0.05588427638545009 -0.05153681754883802
-0.024641843565795525 0.05496101344910036 -0.046331998500718286
-0.012884606424454029 0.05403775051275063 -0.04112717945259855
-0.0011273692831125274 0.0531144875764009 -0.035922360404478805
0.01062986785822897 0.05219122464005117 -0.030717541356359068
0.022387104999570473 0.051267961703701445 -0.025512722308239328
0.03414434214091197 0.05034469876735172 -0.02030790326011959
0.04590157928225347 0.04942143583100199 -0.01510308421199985
0.05765881642359497 0.04849817289465226 -0.009898265163880112
0.06941605356493646 0.04757490995830253 -0.00469344611576037
-0.0390730473969254 0.0657945300846274 -0.04373861552972542
-0.027315810255583904 0.06487126714827768 -0.03853379648160568
-0.015558573114242408 0.06394800421192795 -0.033328977433485944
-0.003801335972900903 0.06302474127557821 -0.028124158385366204
0.007955901168440594 0.06210147833922849 -0.022919339337246464
0.019713138309782097 0.06117821540287876 -0.017714520289126727
0.03147037545112359 0.06025495246652903 -0.012509701241006988
0.04322761259246509 0.0593316895301793 -0.007304882192887246
0.054984849733806594 0.05840842659382957 -0.002100063144767509
0.06674208687514809 0.05748516365747984 0.003104755903352228
-0.041747014086713774 0.07570478378380471 -0.03594041351061282
-0.029989776945372276 0.07478152084745499 -0.03073559446249308
-0.01823253980403078 0.07385825791110526 -0.025530775414373343
-0.006475302662689282 0.07293499497475553 -0.020325956366253603
0.005281934478652219 0.0720117320384058 -0.015121137318133865
0.017039171619993722 0.07108846910205607 -0.00991631827001412
0.028796408761335216 0.07016520616570635 -0.004711499221894385
0.04055364590267672 0.06924194322935662 0.0004933198262253521
0.05231088304401822 0.06831868029300689 0.005698138874345089
0.06406812018535972 0.06739541735665716 0.010902957922464833
-0.04442098077650215 0.08561503748298203 -0.028142211491500223
-0.032663743635160655 0.08469177454663229 -0.022937392443380483
-0.020906506493819157 0.08376851161028256 -0.01773257339526075
-0.009149269352477655 0.08284524867393284 -0.012527754347141004
0.0026079677888638437 0.08192198573758311 -0.007322935299021268
0.014365204930205345 0.08099872280123338 -0.002118116250901524
0.02612244207154684 0.08007545986488365 0.0030867027972182126
0.03787967921288834 0.07915219692853392 0.00829152184533795
0.04963691635422984 0.0782289339921842 0.013496340893457694
0.06139415349557134 0.07730567105583447 0.01870115994157743
-0.06139415349557134 -0.07730567105583447 -0.01870115994157743
-0.04963691635422984 -0.0782289339921842 -0.013496340893457694
-0.037879679212888345 -0.07915219692853392 -0.008291521845337957
-0.026122442071546844 -0.08007545986488365 -0.0030867027972182126
-0.014365204930205345 -0.08099872280123338 0.002118116250901524
-0.0026079677888638437 -0.08192198573758311 0.007322935299021268
0.009149269352477655 -0.08284524867393284 0.012527754347141004
0.02090650649381915 -0.08376851161028256 0.017732573395260742
0.032663743635160655 -0.08469177454663229 0.022937392443380483
0.04442098077650215 -0.08561503748298203 0.028142211491500223
-0.06406812018535972 -0.06739541735665716 -0.010902957922464833
-0.05231088304401822 -0.06831868029300689 -0.005698138874345089
-0.040553645902676724 -0.06924194322935662 -0.0004933198262253591
-0.02879640876133522 -0.07016520616570635 0.004711499221894385
-0.017039171619993722 -0.07108846910205607 0.00991631827001412
-0.005281934478652219 -0.0720117320384058 0.015121137318133865
0.0064753026626892755 -0.07293499497475553 0.020325956366253603
0.01823253980403077 -0.07385825791110526 0.02553077541437334
0.029989776945372276 -0.07478152084745499 0.03073559446249308
0.041747014086713774 -0.07570478378380471 0.03594041351061282
-0.06674208687514809 -0.05748516365747985 -0.003104755903352235
-0.054984849733806594 -0.058408426593829575 0.002100063144767502
-0.043227612592465096 -0.0593316895301793 0.007304882192887239
-0.03147037545112359 -0.06025495246652904 0.012509701241006982
-0.019713138309782094 -0.061178215402878766 0.01771452028912672
-0.007955901168440594 -0.062101478339228494 0.022919339337246464
0.003801335972900903 -0.06302474127557822 0.028124158385366197
0.015558573114242401 -0.06394800421192795 0.03332897743348594
0.027315810255583904 -0.06487126714827768 0.038533796481605674
0.0390730473969254 -0.0657945300846274 0.04373861552972542
-0.06941605356493646 -0.04757490995830253 0.00469344611576037
-0.05765881642359497 -0.04849817289465227 0.009898265163880106
-0.045901579282253475 -0.049421435831001996 0.015103084211999842
-0.03414434214091197 -0.050344698767351724 0.020307903260119584
-0.022387104999570473 -0.05126796170370145 0.025512722308239325
-0.01062986785822897 -0.05219122464005118 0.030717541356359065
0.001127369283112524 -0.05311448757640091 0.0359223604044788
0.012884606424454022 -0.054037750512750636 0.04112717945259854
0.024641843565795525 -0.054961013449100364 0.04633199850071828
0.03639908070713702 -0.05588427638545009 0.05153681754883802
-0.07209002025472484 -0.037664656259125226 0.012491648134872966
-0.060332783113383345 -0.038587919195474954 0.01769646718299271
-0.04857554597204185 -0.03951118213182468 0.022901286231112445
-0.03681830883070035 -0.04043444506817441 0.028106105279232185
-0.02506107168935885 -0.04135770800452414 0.03331092432735192
-0.013303834548017346 -0.042280970940873866 0.038515743375471666
-0.0015465974066758482 -0.043204233877223594 0.0437205624235914
0.01021063973466565 -0.04412749681357332 0.04892538147171114
0.021967876876007153 -0.04505075974992306 0.05413020051983088
0.03372511401734865 -0.045974022686272785 0.05933501956795062
-0.07476398694451322 -0.027754402559947912 0.020289850153985572
-0.06300674980317172 -0.02867766549629764 0.02549466920210531
-0.05124951266183023 -0.029600928432647368 0.030699488250225046
-0.03949227552048872 -0.0305241913689971 0.03590430729834478
-0.027735038379147224 -0.031447454305346824 0.041109126346464527
-0.015977801237805723 -0.03237071724169656 0.04631394539458426
-0.004220564096464227 -0.03329398017804629 0.051518764442704
0.007536673044877271 -0.034217243114396015 0.056723583490823744
0.019293910186218774 -0.03514050605074574 0.06192840253894348
0.031051147327560272 -0.03606376898709547 0.06713322158706322
-0.07743795363430159 -0.017844148860770605 0.028088052173098167
-0.06568071649296009 -0.018767411797120336 0.03329287122121791
-0.0539234793516186 -0.019690674733470064 0.038497690269337644
-0.042166242210277094 -0.020613937669819792 0.04370250931745738
-0.0304090050689356 -0.02153720060616952 0.048907328365577124
-0.018651767927594095 -0.022460463542519248 0.05411214741369686
-0.006894530786252599 -0.023383726478868976 0.0593169664618166
0.004862706355088899 -0.024306989415218708 0.06452178550993634
0.016619943496430402 -0.025230252351568436 0.06972660455805607
0.0283771806377719 -0.026153515287918164 0.07493142360617581
-0.08011192032408997 -0.007933895161593292 0.03588625419221077
-0.06835468318274847 -0.00885715809794302 0.04109107324033051
-0.05659744604140698 -0.009780421034292748 0.04629589228845025
-0.04484020890006547 -0.01070368397064248 0.051500711336569985
-0.033082971758723975 -0.011626946906992208 0.05670553038468973
-0.02132573461738247 -0.012550209843341936 0.061910349432809465
-0.009568497476040974 -0.013473472779691664 0.0671151684809292
0.002188739665300523 -0.014396735716041392 0.07231998752904895
0.013945976806642025 -0.015319998652391123 0.07752480657716868
0.02570321394798352 -0.016243261588740853 0.08272962562528842
-0.08278588701387835 0.0019763585375840173 0.04368445621132337
-0.07102864987253685 0.0010530956012342896 0.04888927525944311
-0.05927141273119535 0.00012983266488456144 0.054094094307562846
-0.04751417558985385 -0.0007934302714651666 0.05929891335568259
-0.03575693844851235 -0.0017166932078148945 0.06450373240380232
-0.02399970130717085 -0.0026399561441646227 0.06970855145192206
-0.012242464165829352 -0.0035632190805143507 0.0749133705000418
-0.00048522702448785263 -0.004486482016864079 0.08011818954816154
0.011272010116853652 -0.005409744953213807 0.08532300859628128
0.02302924725819515 -0.006333007889563538 0.09052782764440102
-0.08545985370366672 0.01188661223676134 0.05148265823043597
-0.07370261656232523 0.010963349300411604 0.056687477278555706
-0.06194537942098373 0.010040086364061876 0.06189229632667544
-0.050188142279642224 0.009116823427712148 0.06709711537479518
-0.038430905138300726 0.00819356049136242 0.07230193442291492
-0.026673667996959225 0.007270297555012691 0.07750675347103467
-0.014916430855617727 0.006347034618662963 0.0827115725191544
-0.0031591937142762317 0.005423771682313235 0.08791639156727414
0.008598043427065273 0.004500508745963507 0.09312121061539388
0.02035528056840677 0.0035772458096137725 0.09832602966351361
