# .PCD v0.7 - Point Cloud Data file format
VERSION 0.7
FIELDS x y z
SIZE 4 4 4
TYPE F F F
COUNT 1 1 1
WIDTH 600
HEIGHT 1
VIEWPOINT 0 0 0 1 0 0 0
POINTS 600
DATA ascii
-0.1875296458119843 -0.04701613904991258 -0.05101728031523759
-0.17329101816386014 -0.02878479525614026 -0.062107692991809314
-0.15905239051573597 -0.010553451462367957 -0.07319810566838102
-0.14481376286761177 0.0076778923314043445 -0.08428851834495274
-0.13057513521948758 0.025909236125176666 -0.09537893102152445
-0.11633650757136342 0.04414057991894898 -0.10646934369809617
-0.10209787992323924 0.06237192371272129 -0.11755975637466788
-0.08785925227511505 0.0806032675064936 -0.1286501690512396
-0.07362062462699087 0.09883461130026591 -0.1397405817278113
-0.05938199697886669 0.11706595509403822 -0.15083099440438305
-0.18009921434835832 -0.038753664700300276 -0.027895042684513673
-0.16586058670023415 -0.020522320906527954 -0.0389854553610854
-0.15162195905210998 -0.002290977112755653 -0.05007586803765711
-0.1373833314039858 0.01594036668101665 -0.06116628071422882
-0.12314470375586159 0.03417171047478897 -0.07225669339080054
-0.10890607610773742 0.05240305426856128 -0.08334710606737225
-0.09466744845961324 0.07063439806233358 -0.09443751874394397
-0.08042882081148905 0.0888657418561059 -0.10552793142051568
-0.06619019316336489 0.10709708564987822 -0.1166183440970874
-0.051951565515240695 0.12532842944365052 -0.12770875677365912
-0.17266878288473234 -0.030491190350687977 -0.004772805053789773
-0.15843015523660817 -0.012259846556915656 -0.015863217730361496
-0.144191527588484 0.005971497236856646 -0.026953630406933205
-0.1299528999403598 0.02420284103062895 -0.03804404308350492
-0.1157142722922356 0.04243418482440127 -0.04913445576007664
-0.10147564464411143 0.06066552861817358 -0.06022486843664836
-0.08723701699598725 0.07889687241194589 -0.07131528111322007
-0.07299838934786307 0.09712821620571821 -0.08240569378979179
-0.05875976169973889 0.11535955999949052 -0.0934961064663635
-0.0445211340516147 0.13359090379326283 -0.10458651914293522
-0.16523835142110632 -0.022228716001075677 0.018349432576934128
-0.15099972377298215 -0.003997372207303356 0.0072590199003624055
-0.13676109612485798 0.014233971586468946 -0.003831392776209304
-0.1225224684767338 0.03246531538024125 -0.014921805452781017
-0.10828384082860962 0.05069665917401357 -0.026012218129352737
-0.09404521318048545 0.06892800296778588 -0.03710263080592446
-0.07980658553236127 0.08715934676155819 -0.048193043482496166
-0.06556795788423708 0.10539069055533051 -0.05928345615906788
-0.051329330236112906 0.12362203434910282 -0.0703738688356396
-0.037090702587988716 0.14185337814287513 -0.08146428151221133
-0.15780791995748034 -0.013966241651463374 0.041471670207658046
-0.14356929230935617 0.004265102142308949 0.030381257531086323
-0.129330664661232 0.02249644593608125 0.019290844854514613
-0.1150920370131078 0.04072778972985355 0.008200432177942899
-0.10085340936498362 0.058959133523625876 -0.002889980498628821
-0.08661478171685945 0.07719047731739818 -0.013980393175200539
-0.07237615406873527 0.0954218211111705 -0.025070805851772248
-0.05813752642061108 0.11365316490494282 -0.03616121852834397
-0.043898898772486906 0.13188450869871512 -0.047251631204915684
-0.02966027112436272 0.15011585249248743 -0.05834204388148741
-0.15037748849385435 -0.00570376730185107 0.06459390783838195
-0.13613886084573018 0.012527576491921252 0.05350349516181023
-0.12190023319760601 0.030758920285693554 0.04241308248523852
-0.10766160554948181 0.048990264079465856 0.03132266980866681
-0.09342297790135763 0.06722160787323818 0.02023225713209509
-0.07918435025323346 0.08545295166701049 0.009141844455523372
-0.06494572260510928 0.1036842954607828 -0.0019485682210483388
-0.050707094956985097 0.12191563925455512 -0.013038980897620059
-0.03646846730886092 0.14014698304832743 -0.024129393574191776
-0.022229839660736727 0.15837832684209974 -0.0352198062507635
-0.14294705703022836 0.0025587070477612276 0.08771614546910585
-0.1287084293821042 0.02079005084153355 0.07662573279253412
-0.11446980173398003 0.03902139463530585 0.06553532011596241
-0.10023117408585583 0.05725273842907815 0.054444907439390705
-0.08599254643773165 0.07548408222285048 0.04335449476281899
-0.07175391878960748 0.09371542601662279 0.03226408208624727
-0.057515291141483287 0.1119467698103951 0.021173669409675556
-0.043276663493359104 0.13017811360416742 0.010083256733103839
-0.029038035845234927 0.14840945739793973 -0.0010071559434678779
-0.01479940819711074 0.16664080119171204 -0.0120975686200396
-0.13551662556660235 0.010821181397373534 0.11083838309982977
-0.1212779979184782 0.029052525191145855 0.09974797042325804
-0.10703937027035403 0.04728386898491816 0.08865755774668634
-0.09280074262222983 0.06551521277869046 0.07756714507011463
-0.07856211497410565 0.08374655657246279 0.0664767323935429
-0.06432348732598148 0.1019779003662351 0.05538631971697119
-0.050084859677857294 0.1202092441600074 0.04429590704039948
-0.03584623202973311 0.13844058795377973 0.03320549436382776
-0.021607604381608934 0.15667193174755203 0.022115081687256042
-0.007368976733484744 0.17490327554132434 0.011024669010684319
-0.12808619410297636 0.019083655746985832 0.13396062073055368
-0.11384756645485221 0.037314999540758155 0.12287020805398195
-0.09960893880672804 0.05554634333453046 0.11177979537741024
-0.08537031115860384 0.07377768712830277 0.10068938270083853
-0.07113168351047966 0.09200903092207509 0.08959897002426681
-0.056893055862355484 0.1102403747158474 0.07850855734769509
-0.0426544282142313 0.1284717185096197 0.06741814467112338
-0.02841580056610712 0.14670306230339203 0.05632773199455166
-0.014177172917982943 0.16493440609716434 0.045237319317979946
6.145473014124598e-05 0.18316574989093665 0.03414690664140822
-0.12065576263935038 0.02734613009659814 0.15708285836127758
-0.10641713499122621 0.04557747389037046 0.14599244568470587
-0.09217850734310204 0.06380881768414276 0.13490203300813416
-0.07793987969497784 0.08204016147791507 0.12381162033156244
-0.06370125204685366 0.10027150527168739 0.11272120765499072
-0.04946262439872949 0.1185028490654597 0.10163079497841901
-0.03522399675060531 0.136734192859232 0.0905403823018473
-0.020985369102481128 0.15496553665300433 0.07944996962527558
-0.00674674145435695 0.17319688044677664 0.06835955694870385
0.00749188619376724 0.19142822424054895 0.05726914427213214
-0.00749188619376724 -0.19142822424054895 -0.05726914427213214
0.00674674145435695 -0.17319688044677664 -0.06835955694870385
0.020985369102481128 -0.15496553665300433 -0.07944996962527558
0.03522399675060531 -0.13673419285923202 -0.09054038230184729
0.04946262439872949 -0.1185028490654597 -0.10163079497841901
0.06370125204685366 -0.10027150527168739 -0.11272120765499072
0.07793987969497784 -0.08204016147791508 -0.12381162033156244
0.09217850734310204 -0.06380881768414276 -0.13490203300813416
0.10641713499122621 -0.04557747389037046 -0.14599244568470587
0.12065576263935038 -0.02734613009659814 -0.15708285836127758
-6.145473014124598e-05 -0.18316574989093665 -0.03414690664140822
0.014177172917982943 -0.16493440609716434 -0.045237319317979946
0.02841580056610712 -0.14670306230339203 -0.05632773199455166
0.0426544282142313 -0.12847171850961972 -0.06741814467112338
0.056893055862355484 -0.1102403747158474 -0.07850855734769509
0.07113168351047966 -0.09200903092207509 -0.08959897002426681
0.08537031115860384 -0.07377768712830278 -0.10068938270083852
0.09960893880672804 -0.05554634333453046 -0.11177979537741024
0.11384756645485221 -0.037314999540758155 -0.12287020805398195
0.12808619410297636 -0.019083655746985832 -0.13396062073055368
0.007368976733484744 -0.17490327554132434 -0.011024669010684319
0.021607604381608934 -0.15667193174755203 -0.022115081687256042
0.03584623202973311 -0.13844058795377973 -0.03320549436382776
0.050084859677857294 -0.12020924416000742 -0.04429590704039947
0.06432348732598148 -0.1019779003662351 -0.05538631971697119
0.07856211497410565 -0.08374655657246279 -0.0664767323935429
0.09280074262222983 -0.06551521277869048 -0.07756714507011463
0.10703937027035403 -0.04728386898491816 -0.08865755774668634
0.1212779979184782 -0.029052525191145855 -0.09974797042325804
0.13551662556660235 -0.010821181397373534 -0.11083838309982977
0.014799408197110734 -0.16664080119171204 0.012097568620039582
0.029038035845234924 -0.14840945739793973 0.0010071559434678592
0.0432766634933591 -0.13017811360416742 -0.010083256733103858
0.05751529114148328 -0.11194676981039511 -0.02117366940967557
0.07175391878960746 -0.09371542601662279 -0.03226408208624729
0.08599254643773163 -0.07548408222285048 -0.043354494762819
0.10023117408585581 -0.05725273842907817 -0.05444490743939072
0.11446980173398001 -0.03902139463530586 -0.06553532011596244
0.1287084293821042 -0.020790050841533556 -0.07662573279253415
0.14294705703022836 -0.002558707047761234 -0.08771614546910587
0.022229839660736727 -0.15837832684209974 0.0352198062507635
0.03646846730886092 -0.14014698304832743 0.024129393574191776
0.050707094956985097 -0.12191563925455512 0.013038980897620059
0.06494572260510928 -0.10368429546078281 0.0019485682210483458
0.07918435025323346 -0.08545295166701049 -0.009141844455523372
0.09342297790135763 -0.06722160787323818 -0.02023225713209509
0.10766160554948181 -0.04899026407946587 -0.031322669808666805
0.12190023319760601 -0.030758920285693554 -0.04241308248523852
0.13613886084573018 -0.012527576491921252 -0.05350349516181023
0.15037748849385435 0.00570376730185107 -0.06459390783838195
0.02966027112436272 -0.15011585249248743 0.05834204388148741
0.043898898772486906 -0.13188450869871512 0.047251631204915684
0.05813752642061108 -0.11365316490494282 0.03616121852834397
0.07237615406873527 -0.09542182111117051 0.025070805851772255
0.08661478171685945 -0.07719047731739818 0.013980393175200539
0.10085340936498362 -0.058959133523625876 0.002889980498628821
0.1150920370131078 -0.04072778972985357 -0.008200432177942892
0.129330664661232 -0.02249644593608125 -0.019290844854514613
0.14356929230935617 -0.004265102142308949 -0.030381257531086323
0.15780791995748034 0.013966241651463374 -0.041471670207658046
0.03709070258798871 -0.14185337814287513 0.0814642815122113
0.0513293302361129 -0.12362203434910282 0.07037386883563958
0.06556795788423707 -0.10539069055533051 0.05928345615906787
0.07980658553236125 -0.0871593467615582 0.04819304348249615
0.09404521318048543 -0.06892800296778588 0.037102630805924436
0.1082838408286096 -0.05069665917401358 0.026012218129352716
0.12252246847673379 -0.03246531538024127 0.014921805452781005
0.13676109612485798 -0.014233971586468953 0.003831392776209285
0.15099972377298215 0.003997372207303349 -0.007259019900362424
0.16523835142110632 0.02222871600107567 -0.01834943257693415
0.0445211340516147 -0.13359090379326283 0.10458651914293522
0.05875976169973889 -0.11535955999949052 0.0934961064663635
0.07299838934786307 -0.09712821620571821 0.08240569378979179
0.08723701699598725 -0.0788968724119459 0.07131528111322008
0.10147564464411143 -0.06066552861817358 0.06022486843664836
0.1157142722922356 -0.04243418482440127 0.04913445576007664
0.1299528999403598 -0.024202841030628964 0.038044043083504925
0.144191527588484 -0.005971497236856646 0.026953630406933205
0.15843015523660817 0.012259846556915656 0.015863217730361496
0.17266878288473234 0.030491190350687977 0.004772805053789773
0.051951565515240695 -0.12532842944365052 0.12770875677365912
0.06619019316336489 -0.10709708564987822 0.1166183440970874
0.08042882081148905 -0.0888657418561059 0.10552793142051568
0.09466744845961324 -0.0706343980623336 0.09443751874394397
0.10890607610773742 -0.05240305426856128 0.08334710606737225
0.12314470375586159 -0.03417171047478897 0.07225669339080054
0.1373833314039858 -0.015940366681016664 0.061166280714228825
0.15162195905210998 0.002290977112755653 0.05007586803765711
0.16586058670023415 0.020522320906527954 0.0389854553610854
0.18009921434835832 0.038753664700300276 0.027895042684513673
0.05938199697886669 -0.11706595509403822 0.15083099440438305
0.07362062462699087 -0.09883461130026591 0.1397405817278113
0.08785925227511505 -0.0806032675064936 0.1286501690512396
0.10209787992323924 -0.0623719237127213 0.1175597563746679
0.11633650757136342 -0.04414057991894898 0.10646934369809617
0.13057513521948758 -0.025909236125176666 0.09537893102152445
0.14481376286761177 -0.007677892331404358 0.08428851834495274
0.15905239051573597 0.010553451462367957 0.07319810566838102
0.17329101816386014 0.02878479525614026 0.062107692991809314
0.1875296458119843 0.04701613904991258 0.05101728031523759
-0.1875296458119843 -0.04701613904991258 -0.05101728031523759
-0.1675254502988491 -0.06306192629331663 -0.05171193186600365
-0.14752125478571385 -0.07910771353672066 -0.05240658341676971
-0.12751705927257864 -0.0951535007801247 -0.05310123496753577
-0.1075128637594434 -0.11119928802352874 -0.05379588651830183
-0.08750866824630817 -0.1272450752669328 -0.054490538069067895
-0.06750447273317295 -0.14329086251033682 -0.05518518961983396
-0.047500277220037704 -0.15933664975374087 -0.05587984117060002
-0.02749608170690247 -0.1753824369971449 -0.056574492721366075
-0.00749188619376724 -0.19142822424054895 -0.05726914427213214
-0.18009921434835832 -0.038753664700300276 -0.027895042684513673
-0.16009501883522312 -0.05479945194370432 -0.028589694235279735
-0.14009082332208786 -0.07084523918710836 -0.02928434578604579
-0.12008662780895264 -0.0868910264305124 -0.029978997336811853
-0.1000824322958174 -0.10293681367391644 -0.030673648887577915
-0.08007823678268217 -0.11898260091732049 -0.03136830043834398
-0.060074041269546956 -0.13502838816072452 -0.03206295198911004
-0.04006984575641171 -0.15107417540412857 -0.032757603539876105
-0.020065650243276476 -0.1671199626475326 -0.03345225509064216
-6.145473014124598e-05 -0.18316574989093665 -0.03414690664140822
-0.17266878288473234 -0.030491190350687977 -0.004772805053789773
-0.15266458737159713 -0.046536977594092026 -0.005467456604555835
-0.13266039185846187 -0.06258276483749606 -0.00616210815532189
-0.11265619634532666 -0.0786285520809001 -0.0068567597060879525
-0.09265200083219141 -0.09467433932430414 -0.007551411256854015
-0.07264780531905618 -0.11072012656770819 -0.008246062807620077
-0.05264360980592096 -0.1267659138111122 -0.008940714358386139
-0.03263941429278572 -0.14281170105451627 -0.009635365909152201
-0.012635218779650488 -0.1588574882979203 -0.010330017459918257
0.007368976733484744 -0.17490327554132434 -0.011024669010684319
-0.16523835142110632 -0.022228716001075677 0.018349432576934128
-0.14523415590797112 -0.03827450324447972 0.017654781026168066
-0.1252299603948359 -0.054320290487883754 0.01696012947540201
-0.10522576488170067 -0.0703660777312878 0.016265477924635948
-0.08522156936856543 -0.08641186497469183 0.015570826373869886
-0.0652173738554302 -0.10245765221809588 0.014876174823103824
-0.04521317834229498 -0.11850343946149991 0.014181523272337761
-0.02520898282915973 -0.13454922670490396 0.0134868717215717
-0.005204787316024498 -0.150595013948308 0.012792220170805644
0.014799408197110734 -0.16664080119171204 0.012097568620039582
-0.15780791995748034 -0.013966241651463374 0.041471670207658046
-0.13780372444434513 -0.03001202889486742 0.04077701865689198
-0.11779952893120989 -0.04605781613827145 0.04008236710612593
-0.09779533341807467 -0.06210360338167549 0.039387715555359866
-0.07779113790493943 -0.07814939062507953 0.038693064004593804
-0.057786942391804194 -0.09419517786848358 0.03799841245382774
-0.03778274687866898 -0.1102409651118876 0.03730376090306168
-0.017778551365533735 -0.12628675235529166 0.03660910935229562
0.002225644147601496 -0.14233253959869568 0.03591445780152956
0.022229839660736727 -0.15837832684209974 0.0352198062507635
-0.15037748849385435 -0.00570376730185107 0.06459390783838195
-0.13037329298071915 -0.021749554545255116 0.06389925628761589
-0.1103690974675839 -0.03779534178865915 0.06320460473684984
-0.09036490195444868 -0.05384112903206319 0.06250995318608378
-0.07036070644131344 -0.06988691627546723 0.06181530163531771
-0.05035651092817821 -0.08593270351887128 0.06112065008455165
-0.030352315415042987 -0.1019784907622753 0.06042599853378559
-0.010348119901907742 -0.11802427800567936 0.059731346983019525
0.009656075611227489 -0.13407006524908338 0.05903669543225347
0.02966027112436272 -0.15011585249248743 0.05834204388148741
-0.14294705703022836 0.0025587070477612276 0.08771614546910585
-0.12294286151709316 -0.013487080195642818 0.08702149391833978
-0.10293866600395792 -0.029532867439046852 0.08632684236757374
-0.0829344704908227 -0.04557865468245089 0.08563219081680767
-0.06293027497768745 -0.06162444192585493 0.08493753926604161
-0.042926079464552215 -0.07767022916925898 0.08424288771527555
-0.022921883951416998 -0.093716016412663 0.08354823616450949
-0.0029176884382817545 -0.10976180365606705 0.08285358461374343
0.01708650707485348 -0.12580759089947108 0.08215893306297736
0.03709070258798871 -0.14185337814287513 0.0814642815122113
-0.13551662556660235 0.010821181397373534 0.11083838309982977
-0.11551243005346716 -0.0052246058460305115 0.1101437315490637
-0.09550823454033192 -0.021270393089434545 0.10944907999829766
-0.0755040390271967 -0.03731618033283858 0.1087544284475316
-0.05549984351406145 -0.05336196757624262 0.10805977689676553
-0.03549564800092622 -0.06940775481964667 0.10736512534599947
-0.015491452487791003 -0.0854535420630507 0.10667047379523341
0.004512743025344241 -0.10149932930645475 0.10597582224446735
0.02451693853847947 -0.11754511654985877 0.10528117069370128
0.0445211340516147 -0.13359090379326283 0.10458651914293522
-0.12808619410297636 0.019083655746985832 0.13396062073055368
-0.10808199858984117 0.003037868503581788 0.1332659691797876
-0.08807780307670593 -0.013007918739822244 0.13257131762902155
-0.06807360756357071 -0.029053705983226284 0.1318766660782555
-0.04806941205043546 -0.04509949322663032 0.13118201452748943
-0.028065216537300233 -0.061145280470034376 0.13048736297672336
-0.008061021024165014 -0.0771910677134384 0.1297927114259573
0.011943174488970231 -0.09323685495684245 0.12909805987519124
0.031947370002105464 -0.10928264220024647 0.12840340832442518
0.051951565515240695 -0.12532842944365052 0.12770875677365912
-0.12065576263935038 0.02734613009659814 0.15708285836127758
-0.10065156712621517 0.011300342853194091 0.15638820681051152
-0.08064737161307993 -0.00474544439020994 0.15569355525974546
-0.06064317609994471 -0.020791231633613978 0.1549989037089794
-0.04063898058680947 -0.03683701887701802 0.15430425215821333
-0.02063478507367424 -0.05288280612042207 0.15360960060744727
-0.0006305895605390208 -0.06892859336382609 0.1529149490566812
0.019373605952596223 -0.08497438060723014 0.15222029750591515
0.03937780146573146 -0.10102016785063417 0.1515256459551491
0.05938199697886669 -0.11706595509403822 0.15083099440438305
-0.05938199697886669 0.11706595509403822 -0.15083099440438305
-0.03937780146573146 0.10102016785063417 -0.1515256459551491
-0.019373605952596223 0.08497438060723014 -0.15222029750591515
0.000630589560539 0.0689285933638261 -0.1529149490566812
0.02063478507367424 0.05288280612042207 -0.15360960060744727
0.04063898058680947 0.03683701887701802 -0.15430425215821333
0.060643176099944684 0.02079123163361399 -0.1549989037089794
0.08064737161307993 0.00474544439020994 -0.15569355525974546
0.10065156712621517 -0.011300342853194091 -0.15638820681051152
0.12065576263935038 -0.02734613009659814 -0.15708285836127758
-0.051951565515240695 0.12532842944365052 -0.12770875677365912
-0.031947370002105464 0.10928264220024647 -0.12840340832442518
-0.011943174488970231 0.09323685495684245 -0.12909805987519124
0.008061021024164993 0.07719106771343841 -0.1297927114259573
0.028065216537300233 0.061145280470034376 -0.13048736297672336
0.04806941205043546 0.04509949322663032 -0.13118201452748943
0.06807360756357068 0.029053705983226298 -0.1318766660782555
0.08807780307670593 0.013007918739822244 -0.13257131762902155
0.10808199858984117 -0.003037868503581788 -0.1332659691797876
0.12808619410297636 -0.019083655746985832 -0.13396062073055368
-0.0445211340516147 0.13359090379326283 -0.10458651914293522
-0.02451693853847947 0.11754511654985877 -0.10528117069370128
-0.004512743025344241 0.10149932930645475 -0.10597582224446735
0.015491452487790982 0.08545354206305071 -0.10667047379523341
0.03549564800092622 0.06940775481964667 -0.10736512534599947
0.05549984351406145 0.05336196757624262 -0.10805977689676553
0.07550403902719667 0.037316180332838594 -0.1087544284475316
0.09550823454033192 0.021270393089434545 -0.10944907999829766
0.11551243005346716 0.0052246058460305115 -0.1101437315490637
0.13551662556660235 -0.010821181397373534 -0.11083838309982977
-0.037090702587988716 0.14185337814287513 -0.08146428151221133
-0.017086507074853482 0.12580759089947108 -0.08215893306297739
0.0029176884382817484 0.10976180365606705 -0.08285358461374344
0.022921883951416974 0.09371601641266301 -0.0835482361645095
0.04292607946455221 0.07767022916925898 -0.08424288771527556
0.06293027497768744 0.06162444192585492 -0.08493753926604163
0.08293447049082266 0.0455786546824509 -0.08563219081680769
0.1029386660039579 0.029532867439046845 -0.08632684236757375
0.12294286151709315 0.013487080195642811 -0.08702149391833981
0.14294705703022836 -0.002558707047761234 -0.08771614546910587
-0.02966027112436272 0.15011585249248743 -0.05834204388148741
-0.009656075611227489 0.13407006524908338 -0.05903669543225347
0.010348119901907742 0.11802427800567936 -0.059731346983019525
0.030352315415042967 0.10197849076227532 -0.06042599853378559
0.05035651092817821 0.08593270351887128 -0.06112065008455165
0.07036070644131344 0.06988691627546723 -0.06181530163531771
0.09036490195444866 0.0538411290320632 -0.06250995318608378
0.1103690974675839 0.03779534178865915 -0.06320460473684984
0.13037329298071915 0.021749554545255116 -0.06389925628761589
0.15037748849385435 0.00570376730185107 -0.06459390783838195
-0.022229839660736727 0.15837832684209974 -0.0352198062507635
-0.002225644147601496 0.14233253959869568 -0.03591445780152956
0.017778551365533735 0.12628675235529166 -0.03660910935229562
0.037782746878668956 0.11024096511188762 -0.03730376090306168
0.057786942391804194 0.09419517786848358 -0.03799841245382774
0.07779113790493943 0.07814939062507953 -0.038693064004593804
0.09779533341807464 0.062103603381675504 -0.039387715555359866
0.11779952893120989 0.04605781613827145 -0.04008236710612593
0.13780372444434513 0.03001202889486742 -0.04077701865689198
0.15780791995748034 0.013966241651463374 -0.041471670207658046
-0.01479940819711074 0.16664080119171204 -0.0120975686200396
0.005204787316024492 0.150595013948308 -0.012792220170805663
0.025208982829159725 0.13454922670490396 -0.013486871721571718
0.04521317834229495 0.11850343946149992 -0.01418152327233778
0.06521737385543018 0.10245765221809588 -0.014876174823103843
0.08522156936856541 0.08641186497469183 -0.015570826373869905
0.10522576488170063 0.07036607773128781 -0.01626547792463597
0.1252299603948359 0.05432029048788375 -0.01696012947540203
0.14523415590797112 0.038274503244479716 -0.017654781026168086
0.16523835142110632 0.02222871600107567 -0.01834943257693415
-0.007368976733484744 0.17490327554132434 0.011024669010684319
0.012635218779650488 0.1588574882979203 0.010330017459918257
0.03263941429278572 0.14281170105451627 0.009635365909152201
0.05264360980592094 0.1267659138111122 0.008940714358386139
0.07264780531905618 0.11072012656770819 0.008246062807620077
0.09265200083219141 0.09467433932430414 0.007551411256854015
0.11265619634532663 0.07862855208090011 0.0068567597060879525
0.13266039185846187 0.06258276483749606 0.00616210815532189
0.15266458737159713 0.046536977594092026 0.005467456604555835
0.17266878288473234 0.030491190350687977 0.004772805053789773
6.145473014124598e-05 0.18316574989093665 0.03414690664140822
0.020065650243276476 0.1671199626475326 0.03345225509064216
0.04006984575641171 0.15107417540412857 0.032757603539876105
0.060074041269546935 0.13502838816072452 0.03206295198911004
0.08007823678268217 0.11898260091732049 0.03136830043834398
0.1000824322958174 0.10293681367391644 0.030673648887577915
0.12008662780895261 0.08689102643051241 0.029978997336811853
0.14009082332208786 0.07084523918710836 0.02928434578604579
0.16009501883522312 0.05479945194370432 0.028589694235279735
0.18009921434835832 0.038753664700300276 0.027895042684513673
0.00749188619376724 0.19142822424054895 0.05726914427213214
0.02749608170690247 0.1753824369971449 0.056574492721366075
0.047500277220037704 0.15933664975374087 0.05587984117060002
0.06750447273317292 0.14329086251033682 0.05518518961983396
0.08750866824630817 0.1272450752669328 0.054490538069067895
0.1075128637594434 0.11119928802352874 0.05379588651830183
0.12751705927257861 0.09515350078012472 0.05310123496753577
0.14752125478571385 0.07910771353672066 0.05240658341676971
0.1675254502988491 0.06306192629331663 0.05171193186600365
0.1875296458119843 0.04701613904991258 0.05101728031523759
-0.1875296458119843 -0.04701613904991258 -0.05101728031523759
-0.1675254502988491 -0.06306192629331663 -0.05171193186600365
-0.14752125478571385 -0.07910771353672066 -0.05240658341676971
-0.12751705927257864 -0.0951535007801247 -0.05310123496753577
-0.1075128637594434 -0.11119928802352874 -0.05379588651830183
-0.08750866824630817 -0.1272450752669328 -0.054490538069067895
-0.06750447273317295 -0.14329086251033682 -0.05518518961983396
-0.047500277220037704 -0.15933664975374087 -0.05587984117060002
-0.02749608170690247 -0.1753824369971449 -0.056574492721366075
-0.00749188619376724 -0.19142822424054895 -0.05726914427213214
-0.17329101816386014 -0.02878479525614026 -0.062107692991809314
-0.1532868226507249 -0.0448305824995443 -0.06280234454257537
-0.13328262713758968 -0.060876369742948334 -0.06349699609334143
-0.11327843162445445 -0.07692215698635238 -0.0641916476441075
-0.0932742361113192 -0.09296794422975642 -0.06488629919487356
-0.07327004059818397 -0.10901373147316047 -0.06558095074563962
-0.05326584508504875 -0.12505951871656448 -0.06627560229640568
-0.033261649571913514 -0.14110530595996854 -0.06697025384717174
-0.013257454058778281 -0.1571510932033726 -0.06766490539793779
0.00674674145435695 -0.17319688044677664 -0.06835955694870385
-0.15905239051573597 -0.010553451462367957 -0.07319810566838102
-0.1390481950026007 -0.026599238705772004 -0.07389275721914708
-0.1190439994894655 -0.04264502594917603 -0.07458740876991314
-0.09903980397633028 -0.05869081319258007 -0.0752820603206792
-0.07903560846319503 -0.07473660043598412 -0.07597671187144527
-0.0590314129500598 -0.09078238767938816 -0.07667136342221133
-0.039027217436924576 -0.1068281749227922 -0.07736601497297739
-0.019023021923789334 -0.12287396216619625 -0.07806066652374345
0.0009811735893458953 -0.13891974940960028 -0.07875531807450951
0.020985369102481128 -0.15496553665300433 -0.07944996962527558
-0.14481376286761177 0.0076778923314043445 -0.08428851834495274
-0.12480956735447654 -0.008367894911999697 -0.0849831698957188
-0.10480537184134131 -0.02441368215540373 -0.08567782144648486
-0.0848011763282061 -0.04045946939880777 -0.08637247299725091
-0.06479698081507085 -0.05650525664221181 -0.08706712454801697
-0.044792785301935624 -0.07255104388561585 -0.08776177609878304
-0.0247885897888004 -0.08859683112901989 -0.0884564276495491
-0.00478439427566516 -0.10464261837242395 -0.08915107920031516
0.015219801237470071 -0.12068840561582797 -0.08984573075108122
0.03522399675060531 -0.13673419285923202 -0.09054038230184729
-0.13057513521948758 0.025909236125176666 -0.09537893102152445
-0.11057093970635236 0.009863448881772622 -0.09607358257229051
-0.09056674419321713 -0.0061823383616314105 -0.09676823412305657
-0.07056254868008191 -0.02222812560503545 -0.09746288567382264
-0.05055835316694667 -0.03827391284843949 -0.0981575372245887
-0.030554157653811437 -0.05431970009184354 -0.09885218877535476
-0.010549962140676218 -0.07036548733524757 -0.09954684032612082
0.009454233372459023 -0.08641127457865162 -0.10024149187688688
0.029458428885594263 -0.10245706182205566 -0.10093614342765295
0.04946262439872949 -0.1185028490654597 -0.10163079497841901
-0.11633650757136342 0.04414057991894898 -0.10646934369809617
-0.09633231205822819 0.028094792675544936 -0.10716399524886223
-0.07632811654509294 0.0120490054321409 -0.1078586467996283
-0.05632392103195773 -0.0039967818112631405 -0.10855329835039436
-0.03631972551882249 -0.020042569054667184 -0.10924794990116042
-0.016315530005687254 -0.03608835629807122 -0.10994260145192648
0.0036886655074479615 -0.05213414354147526 -0.11063725300269255
0.023692861020583208 -0.06817993078487931 -0.1113319045534586
0.04369705653371843 -0.08422571802828334 -0.11202655610422466
0.06370125204685366 -0.10027150527168739 -0.11272120765499072
-0.10209787992323924 0.06237192371272129 -0.11755975637466788
-0.082093684410104 0.046326136469317235 -0.11825440792543394
-0.062089488896968775 0.030280349225913206 -0.1189490594762
-0.04208529338383355 0.01423456198250917 -0.11964371102696607
-0.022081097870698313 -0.0018112252608948772 -0.12033836257773213
-0.0020769023575630797 -0.017857012504298924 -0.12103301412849819
0.01792729315557214 -0.03390279974770295 -0.12172766567926425
0.03793148866870738 -0.049948586991107005 -0.12242231723003032
0.05793568418184261 -0.06599437423451103 -0.12311696878079638
0.07793987969497784 -0.08204016147791508 -0.12381162033156244
-0.08785925227511505 0.0806032675064936 -0.1286501690512396
-0.06785505676197982 0.06455748026308955 -0.12934482060200567
-0.04785086124884459 0.04851169301968553 -0.13003947215277173
-0.027846665735709365 0.03246590577628148 -0.1307341237035378
-0.007842470222574128 0.016420118532877438 -0.13142877525430385
0.012161725290561103 0.00037433128947339983 -0.13212342680506992
0.03216592080369632 -0.015671455953930637 -0.13281807835583598
0.052170116316831563 -0.03171724319733468 -0.13351272990660204
0.0721743118299668 -0.047763030440738714 -0.1342073814573681
0.09217850734310204 -0.06380881768414276 -0.13490203300813416
-0.07362062462699087 0.09883461130026591 -0.1397405817278113
-0.05361642911385565 0.08278882405686186 -0.14043523327857738
-0.033612233600720416 0.06674303681345782 -0.14112988482934344
-0.01360803808758519 0.05069724957005379 -0.1418245363801095
0.006396157425550048 0.03465146232664975 -0.14251918793087556
0.02640035293868528 0.0186056750832457 -0.14321383948164162
0.0464045484518205 0.00255988783984167 -0.1439084910324077
0.06640874396495575 -0.013485899403562382 -0.14460314258317375
0.08641293947809098 -0.029531686646966416 -0.1452977941339398
0.10641713499122621 -0.04557747389037046 -0.14599244568470587
-0.05938199697886669 0.11706595509403822 -0.15083099440438305
-0.03937780146573146 0.10102016785063417 -0.1515256459551491
-0.019373605952596223 0.08497438060723014 -0.15222029750591515
0.000630589560539 0.0689285933638261 -0.1529149490566812
0.02063478507367424 0.05288280612042207 -0.15360960060744727
0.04063898058680947 0.03683701887701802 -0.15430425215821333
0.060643176099944684 0.02079123163361399 -0.1549989037089794
0.08064737161307993 0.00474544439020994 -0.15569355525974546
0.10065156712621517 -0.011300342853194091 -0.15638820681051152
0.12065576263935038 -0.02734613009659814 -0.15708285836127758
-0.12065576263935038 0.02734613009659814 0.15708285836127758
-0.10065156712621517 0.011300342853194091 0.15638820681051152
-0.08064737161307993 -0.00474544439020994 0.15569355525974546
-0.06064317609994471 -0.020791231633613978 0.1549989037089794
-0.04063898058680947 -0.03683701887701802 0.15430425215821333
-0.02063478507367424 -0.05288280612042207 0.15360960060744727
-0.0006305895605390208 -0.06892859336382609 0.1529149490566812
0.019373605952596223 -0.08497438060723014 0.15222029750591515
0.03937780146573146 -0.10102016785063417 0.1515256459551491
0.05938199697886669 -0.11706595509403822 0.15083099440438305
-0.10641713499122621 0.04557747389037046 0.14599244568470587
-0.08641293947809098 0.029531686646966416 0.1452977941339398
-0.06640874396495575 0.013485899403562382 0.14460314258317375
-0.046404548451820515 -0.002559887839841656 0.1439084910324077
-0.02640035293868528 -0.0186056750832457 0.14321383948164162
-0.006396157425550048 -0.03465146232664975 0.14251918793087556
0.013608038087585173 -0.050697249570053775 0.1418245363801095
0.033612233600720416 -0.06674303681345782 0.14112988482934344
0.05361642911385565 -0.08278882405686186 0.14043523327857738
0.07362062462699087 -0.09883461130026591 0.1397405817278113
-0.09217850734310204 0.06380881768414276 0.13490203300813416
-0.0721743118299668 0.047763030440738714 0.1342073814573681
-0.052170116316831563 0.03171724319733468 0.13351272990660204
-0.032165920803696346 0.015671455953930647 0.13281807835583598
-0.012161725290561103 -0.00037433128947339983 0.13212342680506992
0.007842470222574128 -0.016420118532877438 0.13142877525430385
0.027846665735709347 -0.03246590577628148 0.1307341237035378
0.04785086124884459 -0.04851169301968553 0.13003947215277173
0.06785505676197982 -0.06455748026308955 0.12934482060200567
0.08785925227511505 -0.0806032675064936 0.1286501690512396
-0.07793987969497784 0.08204016147791507 0.12381162033156244
-0.05793568418184261 0.06599437423451102 0.12311696878079638
-0.03793148866870738 0.04994858699110699 0.12242231723003032
-0.017927293155572167 0.03390279974770295 0.12172766567926425
0.0020769023575630727 0.01785701250429891 0.12103301412849819
0.022081097870698303 0.0018112252608948633 0.12033836257773213
0.04208529338383352 -0.01423456198250917 0.11964371102696607
0.06208948889696877 -0.03028034922591322 0.1189490594762
0.08209368441010399 -0.04632613646931725 0.11825440792543396
0.10209787992323924 -0.0623719237127213 0.1175597563746679
-0.06370125204685366 0.10027150527168739 0.11272120765499072
-0.04369705653371843 0.08422571802828334 0.11202655610422466
-0.023692861020583208 0.06817993078487931 0.1113319045534586
-0.0036886655074479823 0.05213414354147527 0.11063725300269255
0.016315530005687254 0.03608835629807122 0.10994260145192648
0.03631972551882249 0.020042569054667184 0.10924794990116042
0.056323921031957706 0.003996781811263147 0.10855329835039436
0.07632811654509294 -0.0120490054321409 0.1078586467996283
0.09633231205822819 -0.028094792675544936 0.10716399524886223
0.11633650757136342 -0.04414057991894898 0.10646934369809617
-0.04946262439872949 0.1185028490654597 0.10163079497841901
-0.029458428885594263 0.10245706182205566 0.10093614342765295
-0.009454233372459023 0.08641127457865162 0.10024149187688688
0.010549962140676201 0.07036548733524758 0.09954684032612082
0.030554157653811437 0.05431970009184354 0.09885218877535476
0.05055835316694667 0.03827391284843949 0.0981575372245887
0.07056254868008188 0.02222812560503546 0.09746288567382264
0.09056674419321713 0.0061823383616314105 0.09676823412305657
0.11057093970635236 -0.009863448881772622 0.09607358257229051
0.13057513521948758 -0.025909236125176666 0.09537893102152445
-0.03522399675060531 0.136734192859232 0.0905403823018473
-0.015219801237470078 0.12068840561582796 0.08984573075108124
0.0047843942756651495 0.10464261837242393 0.08915107920031518
0.024788589788800372 0.08859683112901989 0.08845642764954911
0.04479278530193561 0.07255104388561584 0.08776177609878305
0.06479698081507085 0.056505256642211794 0.08706712454801699
0.08480117632820607 0.04045946939880776 0.08637247299725093
0.10480537184134131 0.024413682155403717 0.08567782144648486
0.12480956735447654 0.008367894911999683 0.0849831698957188
0.14481376286761177 -0.007677892331404358 0.08428851834495274
-0.020985369102481128 0.15496553665300433 0.07944996962527558
-0.0009811735893458953 0.13891974940960028 0.07875531807450951
0.019023021923789334 0.12287396216619625 0.07806066652374345
0.03902721743692456 0.1068281749227922 0.07736601497297739
0.0590314129500598 0.09078238767938816 0.07667136342221133
0.07903560846319503 0.07473660043598412 0.07597671187144527
0.09903980397633025 0.058690813192580085 0.0752820603206792
0.1190439994894655 0.04264502594917603 0.07458740876991314
0.1390481950026007 0.026599238705772004 0.07389275721914708
0.15905239051573597 0.010553451462367957 0.07319810566838102
-0.00674674145435695 0.17319688044677664 0.06835955694870385
0.013257454058778281 0.1571510932033726 0.06766490539793779
0.033261649571913514 0.14110530595996854 0.06697025384717174
0.05326584508504874 0.1250595187165645 0.06627560229640568
0.07327004059818397 0.10901373147316047 0.06558095074563962
0.0932742361113192 0.09296794422975642 0.06488629919487356
0.11327843162445443 0.0769221569863524 0.0641916476441075
0.13328262713758968 0.060876369742948334 0.06349699609334143
0.1532868226507249 0.0448305824995443 0.06280234454257537
0.17329101816386014 0.02878479525614026 0.062107692991809314
0.00749188619376724 0.19142822424054895 0.05726914427213214
0.02749608170690247 0.1753824369971449 0.056574492721366075
0.047500277220037704 0.15933664975374087 0.05587984117060002
0.06750447273317292 0.14329086251033682 0.05518518961983396
0.08750866824630817 0.1272450752669328 0.054490538069067895
0.1075128637594434 0.11119928802352874 0.05379588651830183
0.12751705927257861 0.09515350078012472 0.05310123496753577
0.14752125478571385 0.07910771353672066 0.05240658341676971
0.1675254502988491 0.06306192629331663 0.05171193186600365
0.1875296458119843 0.04701613904991258 0.05101728031523759
