# .PCD v0.7 - Point Cloud Data file format
VERSION 0.7
FIELDS x y z
SIZE 4 4 4
TYPE F F F
COUNT 1 1 1
WIDTH 600
HEIGHT 1
VIEWPOINT 0 0 0 1 0 0 0
POINTS 600
DATA ascii
-0.021311736152855247 -0.09544689265912784 -0.0033546133674548424
-0.025090645199188626 -0.08687788826857294 -0.011716089269485122
-0.02886955424552201 -0.07830888387801803 -0.02007756517151541
-0.03264846329185539 -0.06973987948746312 -0.028439041073545696
-0.036427372338188775 -0.06117087509690821 -0.03680051697557598
-0.040206281384522154 -0.0526018707063533 -0.04516199287760627
-0.04398519043085554 -0.0440328663157984 -0.05352346877963655
-0.04776409947718892 -0.035463861925243485 -0.06188494468166684
-0.051543008523522296 -0.02689485753468857 -0.07024642058369712
-0.05532191756985569 -0.018325853144133666 -0.0786078964857274
-0.024371782391909704 -0.08766130724918636 0.006007173103374196
-0.028150691438243083 -0.07909230285863146 -0.0023543027986560852
-0.031929600484576465 -0.07052329846807655 -0.010715778700686372
-0.03570850953090984 -0.061954294077521635 -0.019077254602716656
-0.03948741857724323 -0.05338528968696673 -0.027438730504746944
-0.04326632762357661 -0.044816285296411816 -0.03580020640677723
-0.04704523666990999 -0.03624728090585691 -0.044161682308807515
-0.05082414571624337 -0.027678276515301997 -0.0525231582108378
-0.05460305476257675 -0.019109272124747084 -0.06088463411286809
-0.05838196380891014 -0.010540267734192182 -0.06924611001489837
-0.02743182863096416 -0.07987572183924486 0.015368959574203239
-0.03121073767729754 -0.07130671744868997 0.007007483672172958
-0.034989646723630925 -0.06273771305813505 -0.0013539922298573296
-0.038768555769964304 -0.05416870866758014 -0.009715468131887613
-0.04254746481629769 -0.045599704277025234 -0.0180769440339179
-0.04632637386263107 -0.03703069988647032 -0.026438419935948188
-0.05010528290896445 -0.028461695495915422 -0.03479989583797847
-0.05388419195529783 -0.01989269110536051 -0.04316137174000876
-0.05766310100163121 -0.011323686714805594 -0.051522847642039044
-0.0614420100479646 -0.0027546823242506923 -0.05988432354406933
-0.030491874870018615 -0.07209013642930338 0.024730746045032274
-0.03427078391635199 -0.06352113203874848 0.016369270143001994
-0.03804969296268538 -0.05495212764819357 0.008007794240971708
-0.04182860200901876 -0.04638312325763866 -0.00035368166105857583
-0.04560751105535214 -0.03781411886708375 -0.008715157563088863
-0.04938642010168552 -0.02924511447652884 -0.01707663346511915
-0.05316532914801891 -0.020676110085973937 -0.025438109367149433
-0.056944238194352285 -0.012107105695419023 -0.03379958526917972
-0.060723147240685664 -0.0035381013048641097 -0.042161061171210004
-0.06450205628701906 0.005030903085690793 -0.05052253707324029
-0.033551921109073075 -0.06430455101936189 0.03409253251586132
-0.037330830155406454 -0.055735546628806996 0.025731056613831037
-0.04110973920173984 -0.047166542238252084 0.01736958071180075
-0.04488864824807322 -0.03859753784769717 0.009008104809770467
-0.0486675572944066 -0.03002853345714226 0.0006466289077401806
-0.05244646634073998 -0.021459529066587348 -0.007714846994290107
-0.05622537538707337 -0.012890524676032446 -0.01607632289632039
-0.060004284433406746 -0.004321520285477534 -0.024437798798350677
-0.06378319347974012 0.004247484105077379 -0.032799274700380965
-0.06756210252607352 0.012816488495632283 -0.04116075060241124
-0.03661196734812753 -0.0565189656094204 0.04345431898669036
-0.04039087639446091 -0.0479499612188655 0.03509284308466008
-0.04416978544079429 -0.03938095682831059 0.026731367182629796
-0.04794869448712767 -0.03081195243775568 0.01836989128059951
-0.05172760353346106 -0.022242948047200773 0.010008415378569224
-0.055506512579794436 -0.01367394365664586 0.001646939476538936
-0.05928542162612782 -0.005104939266090957 -0.006714536425491345
-0.0630643306724612 0.0034640651244639557 -0.015076012327521633
-0.06684323971879458 0.012033069515018868 -0.02343748822955192
-0.07062214876512797 0.02060207390557377 -0.0317989641315822
-0.03967201358718198 -0.04873338019947892 0.0528161054575194
-0.04345092263351536 -0.04016437580892402 0.044454629555489115
-0.04722983167984875 -0.03159537141836911 0.03609315365345883
-0.051008740726182125 -0.023026367027814194 0.027731677751428544
-0.05478764977251551 -0.01445736263725929 0.01937020184939826
-0.05856655881884889 -0.005888358246704376 0.011008725947367971
-0.062345467865182275 0.002680646143850526 0.0026472500453376896
-0.06612437691151565 0.011249650534405438 -0.005714225856692598
-0.06990328595784903 0.019818654924960353 -0.014075701758722884
-0.07368219500418242 0.028387659315515255 -0.022437177660753167
-0.04273205982623644 -0.04094779478953743 0.062177891928348446
-0.04651096887256982 -0.03237879039898253 0.05381641602631816
-0.05028987791890321 -0.023809786008427616 0.04545494012428788
-0.054068786965236586 -0.015240781617872705 0.037093464222257594
-0.05784769601156997 -0.006671777227317798 0.028731988320227303
-0.06162660505790335 0.001897227163237115 0.020370512418197016
-0.06540551410423674 0.010466231553792017 0.012009036516166735
-0.06918442315057012 0.01903523594434693 0.003647560614136448
-0.0729633321969035 0.027604240334901844 -0.00471391528789384
-0.07674224124323689 0.036173244725456744 -0.01307539118992412
-0.045792106065290904 -0.033162209379595936 0.07153967839917749
-0.04957101511162428 -0.02459320498904104 0.0631782024971472
-0.05334992415795767 -0.016024200598486128 0.05481672659511692
-0.057128833204291046 -0.007455196207931215 0.04645525069308663
-0.06090774225062443 0.0011138081826236915 0.03809377479105635
-0.0646866512969578 0.009682812573178604 0.02973229888902606
-0.0684655603432912 0.018251816963733507 0.021370822986995778
-0.07224446938962457 0.02682082135428842 0.01300934708496549
-0.07602337843595795 0.03538982574484333 0.004647871182935203
-0.07980228748229135 0.04395883013539824 -0.003713604719095077
-0.04885215230434536 -0.025376623969654455 0.08090146487000652
-0.052631061350678736 -0.016807619579099556 0.07253998896797624
-0.05640997039701212 -0.008238615188544643 0.06417851306594595
-0.0601888794433455 0.0003303892020102706 0.05581703716391567
-0.06396778848967888 0.008899393592565176 0.04745556126188538
-0.06774669753601226 0.01746839798312009 0.0390940853598551
-0.07152560658234565 0.02603740237367499 0.030732609457824817
-0.07530451562867903 0.03460640676422991 0.02237113355579453
-0.0790834246750124 0.04317541115478482 0.01400965765376424
-0.0828623337213458 0.05174441554533972 0.00564818175173396
0.0828623337213458 -0.05174441554533972 -0.00564818175173396
0.0790834246750124 -0.04317541115478482 -0.01400965765376424
0.07530451562867903 -0.03460640676422991 -0.02237113355579453
0.07152560658234565 -0.026037402373675 -0.03073260945782481
0.06774669753601226 -0.01746839798312009 -0.0390940853598551
0.06396778848967888 -0.008899393592565176 -0.04745556126188538
0.0601888794433455 -0.0003303892020102706 -0.055817037163915666
0.05640997039701212 0.008238615188544643 -0.06417851306594595
0.052631061350678736 0.016807619579099556 -0.07253998896797624
0.04885215230434536 0.025376623969654455 -0.08090146487000652
0.07980228748229135 -0.04395883013539824 0.003713604719095077
0.07602337843595795 -0.03538982574484333 -0.004647871182935203
0.07224446938962457 -0.02682082135428842 -0.01300934708496549
0.0684655603432912 -0.018251816963733514 -0.02137082298699577
0.0646866512969578 -0.009682812573178604 -0.02973229888902606
0.06090774225062443 -0.0011138081826236915 -0.03809377479105635
0.057128833204291046 0.007455196207931215 -0.046455250693086626
0.05334992415795767 0.016024200598486128 -0.05481672659511692
0.04957101511162428 0.02459320498904104 -0.0631782024971472
0.045792106065290904 0.033162209379595936 -0.07153967839917749
0.07674224124323689 -0.036173244725456744 0.01307539118992412
0.0729633321969035 -0.027604240334901844 0.00471391528789384
0.06918442315057012 -0.01903523594434693 -0.003647560614136448
0.06540551410423674 -0.010466231553792024 -0.012009036516166728
0.06162660505790335 -0.001897227163237115 -0.020370512418197016
0.05784769601156997 0.006671777227317798 -0.028731988320227303
0.054068786965236586 0.015240781617872705 -0.03709346422225759
0.05028987791890321 0.023809786008427616 -0.04545494012428788
0.04651096887256982 0.03237879039898253 -0.05381641602631816
0.04273205982623644 0.04094779478953743 -0.062177891928348446
0.07368219500418242 -0.028387659315515262 0.022437177660753156
0.06990328595784903 -0.01981865492496036 0.014075701758722877
0.06612437691151565 -0.011249650534405445 0.00571422585669259
0.06234546786518228 -0.002680646143850539 -0.0026472500453376905
0.058566558818848896 0.00588835824670437 -0.01100872594736798
0.05478764977251552 0.014457362637259283 -0.019370201849398267
0.05100874072618213 0.023026367027814187 -0.027731677751428548
0.047229831679848754 0.0315953714183691 -0.03609315365345884
0.04345092263351537 0.04016437580892401 -0.04445462955548912
0.03967201358718199 0.04873338019947891 -0.052816105457519406
0.07062214876512797 -0.02060207390557377 0.0317989641315822
0.06684323971879458 -0.012033069515018868 0.02343748822955192
0.0630643306724612 -0.0034640651244639557 0.015076012327521633
0.05928542162612782 0.00510493926609095 0.006714536425491352
0.055506512579794436 0.01367394365664586 -0.001646939476538936
0.05172760353346106 0.022242948047200773 -0.010008415378569224
0.04794869448712767 0.03081195243775568 -0.018369891280599505
0.04416978544079429 0.03938095682831059 -0.026731367182629796
0.04039087639446091 0.0479499612188655 -0.03509284308466008
0.03661196734812753 0.0565189656094204 -0.04345431898669036
0.06756210252607352 -0.012816488495632283 0.04116075060241124
0.06378319347974012 -0.004247484105077379 0.032799274700380965
0.060004284433406746 0.004321520285477534 0.024437798798350677
0.05622537538707337 0.012890524676032439 0.016076322896320397
0.05244646634073998 0.021459529066587348 0.007714846994290107
0.0486675572944066 0.03002853345714226 -0.0006466289077401806
0.04488864824807322 0.03859753784769717 -0.00900810480977046
0.04110973920173984 0.047166542238252084 -0.01736958071180075
0.037330830155406454 0.055735546628806996 -0.025731056613831037
0.033551921109073075 0.06430455101936189 -0.03409253251586132
0.06450205628701906 -0.005030903085690799 0.05052253707324028
0.06072314724068567 0.0035381013048641037 0.04216106117121
0.05694423819435229 0.012107105695419016 0.03379958526917971
0.053165329148018914 0.020676110085973923 0.02543810936714943
0.04938642010168553 0.029245114476528833 0.017076633465119142
0.04560751105535215 0.037814118867083746 0.008715157563088854
0.041828602009018764 0.04638312325763865 0.000353681661058575
0.038049692962685386 0.054952127648193565 -0.008007794240971715
0.034270783916352 0.06352113203874847 -0.016369270143002004
0.03049187487001862 0.07209013642930337 -0.024730746045032285
0.0614420100479646 0.0027546823242506923 0.05988432354406933
0.05766310100163121 0.011323686714805594 0.051522847642039044
0.05388419195529783 0.01989269110536051 0.04316137174000876
0.05010528290896445 0.028461695495915415 0.034799895837978476
0.04632637386263107 0.03703069988647032 0.026438419935948188
0.04254746481629769 0.045599704277025234 0.0180769440339179
0.038768555769964304 0.05416870866758014 0.00971546813188762
0.034989646723630925 0.06273771305813505 0.0013539922298573296
0.03121073767729754 0.07130671744868997 -0.007007483672172958
0.02743182863096416 0.07987572183924486 -0.015368959574203239
0.05838196380891014 0.010540267734192182 0.06924611001489837
0.05460305476257675 0.019109272124747084 0.06088463411286809
0.05082414571624337 0.027678276515301997 0.0525231582108378
0.04704523666990999 0.0362472809058569 0.04416168230880752
0.04326632762357661 0.044816285296411816 0.03580020640677723
0.03948741857724323 0.05338528968696673 0.027438730504746944
0.03570850953090984 0.061954294077521635 0.019077254602716663
0.031929600484576465 0.07052329846807655 0.010715778700686372
0.028150691438243083 0.07909230285863146 0.0023543027986560852
0.024371782391909704 0.08766130724918636 -0.006007173103374196
0.05532191756985569 0.018325853144133666 0.0786078964857274
0.051543008523522296 0.02689485753468857 0.07024642058369712
0.04776409947718892 0.035463861925243485 0.06188494468166684
0.04398519043085554 0.04403286631579839 0.053523468779636554
0.040206281384522154 0.0526018707063533 0.04516199287760627
0.036427372338188775 0.06117087509690821 0.03680051697557598
0.03264846329185539 0.06973987948746312 0.028439041073545702
0.02886955424552201 0.07830888387801803 0.02007756517151541
0.025090645199188626 0.08687788826857294 0.011716089269485122
0.021311736152855247 0.09544689265912784 0.0033546133674548424
-0.021311736152855247 -0.09544689265912784 -0.0033546133674548424
-0.009736839500166248 -0.09059106186870694 -0.0036094542990414134
0.001838057152522758 -0.08573523107828604 -0.0038642952306279774
0.013412953805211758 -0.08087940028786514 -0.004119136162214548
0.02498785045790077 -0.07602356949744424 -0.004373977093801119
0.03656274711058977 -0.07116773870702334 -0.004628818025387683
0.048137643763278774 -0.06631190791660244 -0.004883658956974254
0.05971254041596778 -0.06145607712618153 -0.005138499888560825
0.07128743706865678 -0.05660024633576062 -0.005393340820147389
0.0828623337213458 -0.05174441554533972 -0.00564818175173396
-0.024371782391909704 -0.08766130724918636 0.006007173103374196
-0.012796885739220703 -0.08280547645876546 0.005752332171787625
-0.0012219890865316975 -0.07794964566834456 0.005497491240201061
0.010352907566157303 -0.07309381487792366 0.00524265030861449
0.02192780421884631 -0.06823798408750274 0.004987809377027919
0.03350270087153532 -0.06338215329708184 0.0047329684454413545
0.04507759752422432 -0.05852632250666095 0.0044781275138547835
0.05665249417691333 -0.05367049171624004 0.0042232865822682125
0.06822739082960233 -0.04881466092581914 0.0039684456506816485
0.07980228748229135 -0.04395883013539824 0.003713604719095077
-0.02743182863096416 -0.07987572183924486 0.015368959574203239
-0.01585693197827516 -0.07501989104882396 0.015114118642616668
-0.004282035325586154 -0.07016406025840306 0.014859277711030103
0.007292861327102847 -0.06530822946798216 0.014604436779443532
0.018867757979791854 -0.060452398677561255 0.014349595847856961
0.030442654632480862 -0.055596567887140354 0.014094754916270397
0.04201755128516986 -0.05074073709671945 0.013839913984683826
0.05359244793785887 -0.04588490630629855 0.013585073053097255
0.06516734459054788 -0.041029075515877644 0.013330232121510691
0.07674224124323689 -0.036173244725456744 0.01307539118992412
-0.030491874870018615 -0.07209013642930338 0.024730746045032274
-0.018916978217329614 -0.06723430563888248 0.024475905113445703
-0.007342081564640611 -0.06237847484846158 0.02422106418185914
0.004232815088048391 -0.05752264405804068 0.02396622325027257
0.0158077117407374 -0.05266681326761977 0.023711382318685997
0.02738260839342641 -0.04781098247719887 0.023456541387099433
0.03895750504611541 -0.04295515168677797 0.023201700455512862
0.050532401698804415 -0.038099320896357064 0.02294685952392629
0.06210729835149342 -0.03324349010593616 0.022692018592339727
0.07368219500418242 -0.028387659315515262 0.022437177660753156
-0.033551921109073075 -0.06430455101936189 0.03409253251586132
-0.02197702445638407 -0.059448720228940995 0.03383769158427475
-0.010402127803695068 -0.054592889438520094 0.033582850652688186
0.0011727688489939336 -0.04973705864809919 0.033328009721101615
0.012747665501682942 -0.044881227857678285 0.033073168789515044
0.02432256215437195 -0.040025397067257384 0.03281832785792848
0.035897458807060946 -0.035169566276836484 0.03256348692634191
0.047472355459749954 -0.030313735486415576 0.03230864599475534
0.05904725211243896 -0.02545790469599467 0.032053805063168773
0.07062214876512797 -0.02060207390557377 0.0317989641315822
-0.03661196734812753 -0.0565189656094204 0.04345431898669036
-0.02503707069543853 -0.0516631348189995 0.04319947805510379
-0.013462174042749525 -0.0468073040285786 0.042944637123517225
-0.0018872773900605235 -0.0419514732381577 0.042689796191930654
0.009687619262628485 -0.03709564244773679 0.04243495526034408
0.02126251591531749 -0.03223981165731589 0.04218011432875752
0.03283741256800649 -0.027383980866894992 0.04192527339717095
0.0444123092206955 -0.022528150076474088 0.04167043246558438
0.05598720587338451 -0.017672319286053183 0.04141559153399781
0.06756210252607352 -0.012816488495632283 0.04116075060241124
-0.03967201358718198 -0.04873338019947892 0.0528161054575194
-0.028097116934492985 -0.04387754940905802 0.05256126452593283
-0.01652222028180398 -0.03902171861863712 0.052306423594346264
-0.004947323629114978 -0.03416588782821622 0.05205158266275969
0.00662757302357403 -0.02931005703779531 0.05179674173117312
0.018202469676263038 -0.024454226247374408 0.05154190079958656
0.029777366328952035 -0.019598395456953507 0.05128705986799999
0.04135226298164105 -0.014742564666532605 0.051032218936413416
0.052927159634330055 -0.0098867338761117 0.05077737800482685
0.06450205628701906 -0.005030903085690799 0.05052253707324028
-0.04273205982623644 -0.04094779478953743 0.062177891928348446
-0.031157163173547442 -0.03609196399911653 0.061923050996761875
-0.019582266520858437 -0.031236133208695626 0.06166821006517531
-0.008007369868169436 -0.026380302418274725 0.06141336913358874
0.003567526784519572 -0.021524471627853817 0.06115852820200217
0.01514242343720858 -0.016668640837432917 0.060903687270415605
0.026717320089897578 -0.011812810047012018 0.060648846338829034
0.038292216742586586 -0.006956979256591112 0.06039400540724246
0.049867113395275595 -0.0021011484661702085 0.0601391644756559
0.0614420100479646 0.0027546823242506923 0.05988432354406933
-0.045792106065290904 -0.033162209379595936 0.07153967839917749
-0.0342172094126019 -0.02830637858917504 0.07128483746759091
-0.022642312759912894 -0.023450547798754138 0.07102999653600435
-0.011067416107223893 -0.018594717008333237 0.07077515560441779
0.0005074805454651145 -0.01373888621791233 0.07052031467283121
0.012082377198154123 -0.008883055427491428 0.07026547374124464
0.02365727385084312 -0.004027224637070528 0.07001063280965808
0.035232170503532126 0.0008286061533503767 0.0697557918780715
0.046807067156221134 0.005684436943771281 0.06950095094648494
0.05838196380891014 0.010540267734192182 0.06924611001489837
-0.04885215230434536 -0.025376623969654455 0.08090146487000652
-0.037277255651656356 -0.020520793179233554 0.08064662393841995
-0.02570235899896735 -0.015664962388812653 0.08039178300683339
-0.014127462346278348 -0.010809131598391752 0.08013694207524681
-0.002552565693589341 -0.005953300807970844 0.07988210114366025
0.009022330959099668 -0.0010974700175499432 0.07962726021207368
0.020597227611788664 0.0037583607728709574 0.0793724192804871
0.03217212426447767 0.008614191563291861 0.07911757834890054
0.04374702091716668 0.013470022353712766 0.07886273741731398
0.05532191756985569 0.018325853144133666 0.0786078964857274
-0.05532191756985569 -0.018325853144133666 -0.0786078964857274
-0.04374702091716668 -0.013470022353712766 -0.07886273741731398
-0.03217212426447767 -0.008614191563291861 -0.07911757834890054
-0.02059722761178867 -0.0037583607728709644 -0.0793724192804871
-0.009022330959099668 0.0010974700175499432 -0.07962726021207368
0.002552565693589341 0.005953300807970844 -0.07988210114366025
0.014127462346278338 0.010809131598391745 -0.08013694207524681
0.02570235899896735 0.015664962388812653 -0.08039178300683339
0.037277255651656356 0.020520793179233554 -0.08064662393841995
0.04885215230434536 0.025376623969654455 -0.08090146487000652
-0.05838196380891014 -0.010540267734192182 -0.06924611001489837
-0.046807067156221134 -0.005684436943771281 -0.06950095094648494
-0.035232170503532126 -0.0008286061533503767 -0.0697557918780715
-0.023657273850843128 0.004027224637070521 -0.07001063280965808
-0.012082377198154123 0.008883055427491428 -0.07026547374124464
-0.0005074805454651145 0.01373888621791233 -0.07052031467283121
0.011067416107223883 0.01859471700833323 -0.07077515560441779
0.022642312759912894 0.023450547798754138 -0.07102999653600435
0.0342172094126019 0.02830637858917504 -0.07128483746759091
0.045792106065290904 0.033162209379595936 -0.07153967839917749
-0.0614420100479646 -0.0027546823242506923 -0.05988432354406933
-0.049867113395275595 0.0021011484661702085 -0.0601391644756559
-0.038292216742586586 0.006956979256591112 -0.06039400540724246
-0.026717320089897585 0.01181281004701201 -0.060648846338829034
-0.01514242343720858 0.016668640837432917 -0.060903687270415605
-0.003567526784519572 0.021524471627853817 -0.06115852820200217
0.008007369868169426 0.026380302418274718 -0.06141336913358874
0.019582266520858437 0.031236133208695626 -0.06166821006517531
0.031157163173547442 0.03609196399911653 -0.061923050996761875
0.04273205982623644 0.04094779478953743 -0.062177891928348446
-0.06450205628701906 0.005030903085690793 -0.05052253707324029
-0.05292715963433005 0.009886733876111694 -0.05077737800482686
-0.04135226298164104 0.014742564666532598 -0.05103221893641342
-0.02977736632895204 0.019598395456953493 -0.051287059867999994
-0.018202469676263034 0.0244542262473744 -0.051541900799586565
-0.006627573023574028 0.029310057037795302 -0.05179674173117313
0.00494732362911497 0.0341658878282162 -0.0520515826627597
0.016522220281803984 0.03902171861863711 -0.05230642359434627
0.02809711693449299 0.04387754940905801 -0.052561264525932835
0.03967201358718199 0.04873338019947891 -0.052816105457519406
-0.06756210252607352 0.012816488495632283 -0.04116075060241124
-0.05598720587338451 0.017672319286053183 -0.04141559153399781
-0.0444123092206955 0.022528150076474088 -0.04167043246558438
-0.0328374125680065 0.027383980866894985 -0.04192527339717095
-0.02126251591531749 0.03223981165731589 -0.04218011432875752
-0.009687619262628485 0.03709564244773679 -0.04243495526034408
0.001887277390060513 0.04195147323815769 -0.042689796191930654
0.013462174042749525 0.0468073040285786 -0.042944637123517225
0.02503707069543853 0.0516631348189995 -0.04319947805510379
0.03661196734812753 0.0565189656094204 -0.04345431898669036
-0.07062214876512797 0.02060207390557377 -0.0317989641315822
-0.05904725211243896 0.02545790469599467 -0.032053805063168773
-0.047472355459749954 0.030313735486415576 -0.03230864599475534
-0.03589745880706095 0.03516956627683648 -0.03256348692634191
-0.02432256215437195 0.040025397067257384 -0.03281832785792848
-0.012747665501682942 0.044881227857678285 -0.033073168789515044
-0.001172768848993944 0.049737058648099186 -0.033328009721101615
0.010402127803695068 0.054592889438520094 -0.033582850652688186
0.02197702445638407 0.059448720228940995 -0.03383769158427475
0.033551921109073075 0.06430455101936189 -0.03409253251586132
-0.07368219500418242 0.028387659315515255 -0.022437177660753167
-0.062107298351493416 0.033243490105936156 -0.022692018592339738
-0.05053240169880441 0.03809932089635706 -0.0229468595239263
-0.03895750504611541 0.04295515168677796 -0.023201700455512873
-0.027382608393426405 0.047810982477198866 -0.023456541387099444
-0.015807711740737397 0.052666813267619766 -0.023711382318686008
-0.0042328150880483984 0.05752264405804067 -0.02396622325027258
0.007342081564640613 0.062378474848461575 -0.02422106418185915
0.018916978217329617 0.06723430563888247 -0.024475905113445714
0.03049187487001862 0.07209013642930337 -0.024730746045032285
-0.07674224124323689 0.036173244725456744 -0.01307539118992412
-0.06516734459054788 0.041029075515877644 -0.013330232121510691
-0.05359244793785887 0.04588490630629855 -0.013585073053097255
-0.04201755128516987 0.050740737096719446 -0.013839913984683826
-0.030442654632480862 0.055596567887140354 -0.014094754916270397
-0.018867757979791854 0.060452398677561255 -0.014349595847856961
-0.007292861327102857 0.06530822946798216 -0.014604436779443532
0.004282035325586154 0.07016406025840306 -0.014859277711030103
0.01585693197827516 0.07501989104882396 -0.015114118642616668
0.02743182863096416 0.07987572183924486 -0.015368959574203239
-0.07980228748229135 0.04395883013539824 -0.003713604719095077
-0.06822739082960233 0.04881466092581914 -0.0039684456506816485
-0.05665249417691333 0.05367049171624004 -0.0042232865822682125
-0.04507759752422433 0.05852632250666094 -0.0044781275138547835
-0.03350270087153532 0.06338215329708184 -0.0047329684454413545
-0.02192780421884631 0.06823798408750274 -0.004987809377027919
-0.010352907566157313 0.07309381487792364 -0.00524265030861449
0.0012219890865316975 0.07794964566834456 -0.005497491240201061
0.012796885739220703 0.08280547645876546 -0.005752332171787625
0.024371782391909704 0.08766130724918636 -0.006007173103374196
-0.0828623337213458 0.05174441554533972 0.00564818175173396
-0.07128743706865678 0.05660024633576062 0.005393340820147389
-0.05971254041596778 0.06145607712618153 0.005138499888560825
-0.04813764376327878 0.06631190791660242 0.004883658956974254
-0.03656274711058977 0.07116773870702334 0.004628818025387683
-0.02498785045790077 0.07602356949744424 0.004373977093801119
-0.013412953805211769 0.08087940028786514 0.004119136162214548
-0.001838057152522758 0.08573523107828604 0.0038642952306279774
0.009736839500166248 0.09059106186870694 0.0036094542990414134
0.021311736152855247 0.09544689265912784 0.0033546133674548424
-0.021311736152855247 -0.09544689265912784 -0.0033546133674548424
-0.009736839500166248 -0.09059106186870694 -0.0036094542990414134
0.001838057152522758 -0.08573523107828604 -0.0038642952306279774
0.013412953805211758 -0.08087940028786514 -0.004119136162214548
0.02498785045790077 -0.07602356949744424 -0.004373977093801119
0.03656274711058977 -0.07116773870702334 -0.004628818025387683
0.048137643763278774 -0.06631190791660244 -0.004883658956974254
0.05971254041596778 -0.06145607712618153 -0.005138499888560825
0.07128743706865678 -0.05660024633576062 -0.005393340820147389
0.0828623337213458 -0.05174441554533972 -0.00564818175173396
-0.025090645199188626 -0.08687788826857294 -0.011716089269485122
-0.013515748546499626 -0.08202205747815204 -0.011970930201071693
-0.001940851893810624 -0.07716622668773114 -0.012225771132658261
0.009634044758878378 -0.07231039589731024 -0.012480612064244829
0.021208941411567386 -0.06745456510688934 -0.012735452995831396
0.032783838064256395 -0.06259873431646842 -0.012990293927417967
0.044358734716945396 -0.05774290352604753 -0.013245134859004535
0.055933631369634404 -0.05288707273562662 -0.013499975790591102
0.0675085280223234 -0.04803124194520572 -0.01375481672217767
0.0790834246750124 -0.04317541115478482 -0.01400965765376424
-0.02886955424552201 -0.07830888387801803 -0.02007756517151541
-0.01729465759283301 -0.07345305308759713 -0.020332406103101983
-0.0057197609401440025 -0.06859722229717623 -0.02058724703468855
0.005855135712544997 -0.06374139150675533 -0.020842087966275118
0.017430032365234004 -0.05888556071633442 -0.021096928897861685
0.029004929017923013 -0.05402972992591352 -0.021351769829448256
0.04057982567061201 -0.04917389913549262 -0.021606610761034824
0.052154722323301025 -0.04431806834507171 -0.02186145169262139
0.06372961897599003 -0.03946223755465081 -0.02211629262420796
0.07530451562867903 -0.03460640676422991 -0.02237113355579453
-0.03264846329185539 -0.06973987948746312 -0.028439041073545696
-0.02107356663916639 -0.06488404869704222 -0.028693882005132263
-0.009498669986477385 -0.060028217906621315 -0.02894872293671883
0.0020762266662116167 -0.055172387116200414 -0.029203563868305398
0.013651123318900624 -0.05031655632577951 -0.02945840479989197
0.025226019971589634 -0.045460725535358605 -0.029713245731478537
0.03680091662427863 -0.04060489474493771 -0.029968086663065104
0.04837581327696764 -0.0357490639545168 -0.030222927594651672
0.05995070992965665 -0.0308932331640959 -0.030477768526238243
0.07152560658234565 -0.026037402373675 -0.03073260945782481
-0.036427372338188775 -0.06117087509690821 -0.03680051697557598
-0.024852475685499774 -0.05631504430648731 -0.03705535790716255
-0.013277579032810767 -0.05145921351606641 -0.037310198838749115
-0.001702682380121767 -0.04660338272564551 -0.037565039770335686
0.009872214272567242 -0.0417475519352246 -0.03781988070192226
0.02144711092525625 -0.0368917211448037 -0.03807472163350882
0.033022007577945246 -0.0320358903543828 -0.03832956256509539
0.04459690423063426 -0.027180059563961894 -0.03858440349668196
0.05617180088332326 -0.02232422877354099 -0.03883924442826853
0.06774669753601226 -0.01746839798312009 -0.0390940853598551
-0.040206281384522154 -0.0526018707063533 -0.04516199287760627
-0.028631384731833152 -0.047746039915932396 -0.045416833809192834
-0.01705648807914415 -0.042890209125511496 -0.045671674740779405
-0.005481591426455151 -0.038034378335090595 -0.045926515672365976
0.006093305226233859 -0.03317854754466969 -0.04618135660395254
0.017668201878922866 -0.028322716754248786 -0.04643619753553911
0.029243098531611864 -0.023466885963827885 -0.04669103846712568
0.040817995184300876 -0.01861105517340698 -0.04694587939871225
0.052392891836989884 -0.013755224382986077 -0.04720072033029882
0.06396778848967888 -0.008899393592565176 -0.04745556126188538
-0.04398519043085554 -0.0440328663157984 -0.05352346877963655
-0.03241029377816654 -0.0391770355253775 -0.05377830971122312
-0.02083539712547753 -0.03432120473495659 -0.05403315064280969
-0.00926050047278853 -0.02946537394453569 -0.054287991574396254
0.002314396179900479 -0.024609543154114788 -0.054542832505982825
0.013889292832589486 -0.019753712363693884 -0.05479767343756939
0.025464189485278486 -0.014897881573272983 -0.05505251436915596
0.0370390861379675 -0.010042050782852079 -0.05530735530074253
0.0486139827906565 -0.005186219992431175 -0.055562196232329095
0.0601888794433455 -0.0003303892020102706 -0.055817037163915666
-0.04776409947718892 -0.035463861925243485 -0.06188494468166684
-0.036189202824499916 -0.03060803113482258 -0.06213978561325341
-0.024614306171810915 -0.025752200344401677 -0.06239462654483997
-0.013039409519121916 -0.020896369553980776 -0.06264946747642654
-0.0014645128664329049 -0.01604053876355987 -0.06290430840801312
0.010110383786256102 -0.01118470797313897 -0.06315914933959968
0.0216852804389451 -0.006328877182718071 -0.06341399027118624
0.03326017709163411 -0.0014730463922971663 -0.06366883120277282
0.04483507374432312 0.0033827843981237417 -0.06392367213435939
0.05640997039701212 0.008238615188544643 -0.06417851306594595
-0.051543008523522296 -0.02689485753468857 -0.07024642058369712
-0.0399681118708333 -0.022039026744267668 -0.0705012615152837
-0.028393215218144294 -0.017183195953846764 -0.07075610244687026
-0.016818318565455292 -0.012327365163425863 -0.07101094337845683
-0.005243421912766285 -0.0074715343730049595 -0.07126578431004339
0.006331474739922721 -0.002615703582584055 -0.07152062524162997
0.017906371392611718 0.002240127207836839 -0.07177546617321653
0.029481268045300733 0.007095957998257746 -0.0720303071048031
0.041056164697989735 0.011951788788678655 -0.07228514803638968
0.052631061350678736 0.016807619579099556 -0.07253998896797624
-0.05532191756985569 -0.018325853144133666 -0.0786078964857274
-0.04374702091716668 -0.013470022353712766 -0.07886273741731398
-0.03217212426447767 -0.008614191563291861 -0.07911757834890054
-0.02059722761178867 -0.0037583607728709644 -0.0793724192804871
-0.009022330959099668 0.0010974700175499432 -0.07962726021207368
0.002552565693589341 0.005953300807970844 -0.07988210114366025
0.014127462346278338 0.010809131598391745 -0.08013694207524681
0.02570235899896735 0.015664962388812653 -0.08039178300683339
0.037277255651656356 0.020520793179233554 -0.08064662393841995
0.04885215230434536 0.025376623969654455 -0.08090146487000652
-0.04885215230434536 -0.025376623969654455 0.08090146487000652
-0.037277255651656356 -0.020520793179233554 0.08064662393841995
-0.02570235899896735 -0.015664962388812653 0.08039178300683339
-0.014127462346278348 -0.010809131598391752 0.08013694207524681
-0.002552565693589341 -0.005953300807970844 0.07988210114366025
0.009022330959099668 -0.0010974700175499432 0.07962726021207368
0.020597227611788664 0.0037583607728709574 0.0793724192804871
0.03217212426447767 0.008614191563291861 0.07911757834890054
0.04374702091716668 0.013470022353712766 0.07886273741731398
0.05532191756985569 0.018325853144133666 0.0786078964857274
-0.052631061350678736 -0.016807619579099556 0.07253998896797624
-0.041056164697989735 -0.011951788788678655 0.07228514803638968
-0.029481268045300733 -0.007095957998257746 0.0720303071048031
-0.01790637139261173 -0.002240127207836846 0.07177546617321653
-0.006331474739922721 0.002615703582584055 0.07152062524162997
0.005243421912766285 0.0074715343730049595 0.07126578431004339
0.016818318565455286 0.01232736516342586 0.07101094337845683
0.028393215218144294 0.017183195953846764 0.07075610244687026
0.0399681118708333 0.022039026744267668 0.0705012615152837
0.051543008523522296 0.02689485753468857 0.07024642058369712
-0.05640997039701212 -0.008238615188544643 0.06417851306594595
-0.04483507374432312 -0.0033827843981237417 0.06392367213435939
-0.03326017709163411 0.0014730463922971663 0.06366883120277282
-0.02168528043894511 0.006328877182718067 0.06341399027118624
-0.010110383786256102 0.01118470797313897 0.06315914933959968
0.0014645128664329049 0.01604053876355987 0.06290430840801312
0.013039409519121902 0.020896369553980772 0.06264946747642654
0.024614306171810915 0.025752200344401677 0.06239462654483997
0.036189202824499916 0.03060803113482258 0.06213978561325341
0.04776409947718892 0.035463861925243485 0.06188494468166684
-0.0601888794433455 0.0003303892020102706 0.05581703716391567
-0.0486139827906565 0.005186219992431168 0.0555621962323291
-0.03703908613796749 0.010042050782852072 0.05530735530074254
-0.025464189485278493 0.014897881573272972 0.055052514369155967
-0.013889292832589484 0.019753712363693877 0.054797673437569396
-0.0023143961799004754 0.02460954315411478 0.05454283250598283
0.009260500472788523 0.02946537394453568 0.05428799157439626
0.02083539712547753 0.03432120473495658 0.054033150642809696
0.03241029377816654 0.03917703552537749 0.053778309711223125
0.04398519043085554 0.04403286631579839 0.053523468779636554
-0.06396778848967888 0.008899393592565176 0.04745556126188538
-0.052392891836989884 0.013755224382986077 0.04720072033029882
-0.040817995184300876 0.01861105517340698 0.04694587939871225
-0.029243098531611875 0.023466885963827882 0.04669103846712568
-0.017668201878922866 0.028322716754248786 0.04643619753553911
-0.006093305226233859 0.03317854754466969 0.04618135660395254
0.00548159142645514 0.03803437833509059 0.045926515672365976
0.01705648807914415 0.042890209125511496 0.045671674740779405
0.028631384731833152 0.047746039915932396 0.045416833809192834
0.040206281384522154 0.0526018707063533 0.04516199287760627
-0.06774669753601226 0.01746839798312009 0.0390940853598551
-0.05617180088332326 0.02232422877354099 0.03883924442826853
-0.04459690423063426 0.027180059563961894 0.03858440349668196
-0.03302200757794526 0.03203589035438279 0.03832956256509539
-0.02144711092525625 0.0368917211448037 0.03807472163350882
-0.009872214272567242 0.0417475519352246 0.03781988070192226
0.0017026823801217566 0.0466033827256455 0.037565039770335686
0.013277579032810767 0.05145921351606641 0.037310198838749115
0.024852475685499774 0.05631504430648731 0.03705535790716255
0.036427372338188775 0.06117087509690821 0.03680051697557598
-0.07152560658234565 0.02603740237367499 0.030732609457824817
-0.05995070992965665 0.030893233164095892 0.03047776852623825
-0.04837581327696764 0.035749063954516797 0.03022292759465168
-0.03680091662427864 0.0406048947449377 0.02996808666306511
-0.02522601997158963 0.0454607255353586 0.029713245731478544
-0.01365112331890062 0.050316556325779506 0.029458404799891976
-0.0020762266662116237 0.05517238711620041 0.029203563868305405
0.009498669986477389 0.06002821790662131 0.028948722936718838
0.02107356663916639 0.06488404869704222 0.02869388200513227
0.03264846329185539 0.06973987948746312 0.028439041073545702
-0.07530451562867903 0.03460640676422991 0.02237113355579453
-0.06372961897599003 0.03946223755465081 0.02211629262420796
-0.052154722323301025 0.04431806834507171 0.02186145169262139
-0.040579825670612024 0.04917389913549261 0.021606610761034824
-0.029004929017923013 0.05402972992591352 0.021351769829448256
-0.017430032365234004 0.05888556071633442 0.021096928897861685
-0.005855135712545007 0.06374139150675531 0.020842087966275118
0.0057197609401440025 0.06859722229717623 0.02058724703468855
0.01729465759283301 0.07345305308759713 0.020332406103101983
0.02886955424552201 0.07830888387801803 0.02007756517151541
-0.0790834246750124 0.04317541115478482 0.01400965765376424
-0.0675085280223234 0.04803124194520572 0.01375481672217767
-0.055933631369634404 0.05288707273562662 0.013499975790591102
-0.0443587347169454 0.05774290352604752 0.013245134859004535
-0.032783838064256395 0.06259873431646842 0.012990293927417967
-0.021208941411567386 0.06745456510688934 0.012735452995831396
-0.009634044758878389 0.07231039589731023 0.012480612064244829
0.001940851893810624 0.07716622668773114 0.012225771132658261
0.013515748546499626 0.08202205747815204 0.011970930201071693
0.025090645199188626 0.08687788826857294 0.011716089269485122
-0.0828623337213458 0.05174441554533972 0.00564818175173396
-0.07128743706865678 0.05660024633576062 0.005393340820147389
-0.05971254041596778 0.06145607712618153 0.005138499888560825
-0.04813764376327878 0.06631190791660242 0.004883658956974254
-0.03656274711058977 0.07116773870702334 0.004628818025387683
-0.02498785045790077 0.07602356949744424 0.004373977093801119
-0.013412953805211769 0.08087940028786514 0.004119136162214548
-0.001838057152522758 0.08573523107828604 0.0038642952306279774
0.009736839500166248 0.09059106186870694 0.0036094542990414134
0.021311736152855247 0.09544689265912784 0.0033546133674548424
