# .PCD v0.7 - Point Cloud Data file format
VERSION 0.7
FIELDS x y z
SIZE 4 4 4
TYPE F F F
COUNT 1 1 1
WIDTH 600
HEIGHT 1
VIEWPOINT 0 0 0 1 0 0 0
POINTS 600
DATA ascii
-0.03255203853126026 -0.07391219635566872 -0.11736589182971463
-0.03851224602008284 -0.05706815393079776 -0.11351001958844965
-0.04447245350890541 -0.0402241115059268 -0.10965414734718468
-0.05043266099772799 -0.02338006908105585 -0.1057982751059197
-0.05639286848655056 -0.0065360266561848845 -0.10194240286465472
-0.06235307597537315 0.010308015768686077 -0.09808653062338975
-0.06831328346419573 0.027152058193557028 -0.09423065838212477
-0.0742734909530183 0.043996100618427986 -0.0903747861408598
-0.08023369844184088 0.06084014304329894 -0.08651891389959482
-0.08619390593066345 0.07768418546816992 -0.08266304165832984
-0.036239709316022606 -0.07913692814751516 -0.10024231594299907
-0.04219991680484518 -0.06229288572264421 -0.09638644370173409
-0.048160124293667755 -0.045448843297773246 -0.09253057146046911
-0.05412033178249033 -0.028604800872902295 -0.08867469921920414
-0.060080539271312905 -0.01176075844803133 -0.08481882697793915
-0.0660407467601355 0.00508328397683963 -0.08096295473667417
-0.07200095424895807 0.021927326401710582 -0.0771070824954092
-0.07796116173778064 0.03877136882658154 -0.07325121025414422
-0.08392136922660322 0.055615411251452494 -0.06939533801287924
-0.08988157671542579 0.07245945367632348 -0.06553946577161426
-0.03992738010078494 -0.08436165993936161 -0.08311874005628352
-0.045887587589607516 -0.06751761751449065 -0.07926286781501854
-0.05184779507843009 -0.050673575089619685 -0.07540699557375356
-0.057808002567252666 -0.03382953266474874 -0.07155112333248859
-0.06376821005607523 -0.016985490239877773 -0.0676952510912236
-0.06972841754489782 -0.00014144781500680974 -0.06383937884995862
-0.0756886250337204 0.01670259460986414 -0.05998350660869365
-0.08164883252254297 0.0335466370347351 -0.05612763436742867
-0.08760904001136555 0.050390679459606055 -0.0522717621261637
-0.09356924750018812 0.06723472188447703 -0.048415889884898713
-0.04361505088554728 -0.08958639173120805 -0.06599516416956795
-0.04957525837436985 -0.07274234930633709 -0.062139291928302975
-0.055535465863192426 -0.055898306881466124 -0.058283419687038
-0.061495673352015 -0.03905426445659518 -0.05442754744577302
-0.06745588084083758 -0.022210222031724215 -0.05057167520450804
-0.07341608832966016 -0.005366179606853253 -0.04671580296324306
-0.07937629581848274 0.011477862818017699 -0.042859930721978086
-0.08533650330730531 0.028321905242888655 -0.03900405848071311
-0.09129671079612789 0.045165947667759616 -0.03514818623944813
-0.09725691828495046 0.06200999009263059 -0.031292313998183156
-0.04730272167030962 -0.0948111235230545 -0.04887158828285239
-0.053262929159132194 -0.07796708109818354 -0.04501571604158741
-0.05922313664795477 -0.06112303867331257 -0.041159843800322435
-0.06518334413677734 -0.04427899624844162 -0.03730397155905746
-0.07114355162559992 -0.027434953823570658 -0.033448099317792475
-0.07710375911442251 -0.010590911398699696 -0.029592227076527502
-0.08306396660324508 0.006253131026171254 -0.025736354835262525
-0.08902417409206766 0.023097173451042213 -0.02188048259399755
-0.09498438158089023 0.03994121587591317 -0.018024610352732572
-0.1009445890697128 0.056785258300784146 -0.014168738111467592
-0.05099039245507196 -0.10003585531490093 -0.031748012396136824
-0.056950599943894537 -0.08319181289002997 -0.027892140154871847
-0.06291080743271711 -0.06634777046515901 -0.02403626791360687
-0.06887101492153969 -0.04950372804028807 -0.020180395672341894
-0.07483122241036226 -0.0326596856154171 -0.016324523431076914
-0.08079142989918485 -0.015815643190546142 -0.012468651189811938
-0.08675163738800742 0.0010283992343248097 -0.008612778948546961
-0.09271184487683 0.017872441659195767 -0.004756906707281985
-0.09867205236565257 0.034716484084066725 -0.0009010344660170084
-0.10463225985447515 0.0515605265089377 0.002954837775247972
-0.0546780632398343 -0.10526058710674738 -0.01462443650942127
-0.06063827072865687 -0.08841654468187642 -0.010768564268156294
-0.06659847821747945 -0.07157250225700545 -0.006912692026891317
-0.07255868570630203 -0.05472845983213451 -0.0030568197856263406
-0.0785188931951246 -0.037884417407263546 0.0007990524556386394
-0.08447910068394719 -0.02104037498239258 0.004654924696903616
-0.09043930817276977 -0.004196332557521632 0.008510796938168592
-0.09639951566159234 0.012647709867349326 0.012366669179433569
-0.10235972315041492 0.029491752292220286 0.016222541420698545
-0.10831993063923749 0.04633579471709126 0.020078413661963525
-0.05836573402459664 -0.11048531889859382 0.0024991393772942935
-0.06432594151341921 -0.09364127647372286 0.0063550116185592705
-0.07028614900224178 -0.0767972340488519 0.010210883859824247
-0.07624635649106436 -0.05995319162398095 0.014066756101089224
-0.08220656397988693 -0.043109149199109985 0.017922628342354203
-0.08816677146870952 -0.026265106774239027 0.02177850058361918
-0.0941269789575321 -0.009421064349368076 0.025634372824884157
-0.10008718644635467 0.007422978075502882 0.029490245066149133
-0.10604739393517724 0.02426702050037384 0.03334611730741411
-0.11200760142399982 0.041111062925244815 0.037201989548679086
-0.062053404809358975 -0.11571005069044027 0.01962271526400985
-0.06801361229818155 -0.09886600826556931 0.023478587505274828
-0.07397381978700412 -0.08202196584069835 0.027334459746539804
-0.0799340272758267 -0.0651779234158274 0.03119033198780478
-0.08589423476464927 -0.04833388099095643 0.03504620422906976
-0.09185444225347186 -0.03148983856608547 0.03890207647033474
-0.09781464974229444 -0.014645796141214518 0.042757948711599714
-0.10377485723111701 0.00219824628365644 0.04661382095286469
-0.10973506471993959 0.019042288708527397 0.05046969319412967
-0.11569527220876216 0.035886331133398376 0.05432556543539464
-0.06574107559412132 -0.12093478248228672 0.03674629115072542
-0.07170128308294389 -0.10409074005741575 0.040602163391990395
-0.07766149057176647 -0.08724669763254479 0.04445803563325537
-0.08362169806058904 -0.07040265520767384 0.04831390787452035
-0.08958190554941162 -0.05355861278280288 0.05216978011578533
-0.0955421130382342 -0.036714570357931915 0.05602565235705031
-0.10150232052705678 -0.019870527933060964 0.059881524598315285
-0.10746252801587935 -0.0030264855081900063 0.06373739683958025
-0.11342273550470193 0.013817556916680952 0.06759326908084523
-0.1193829429935245 0.030661599341551927 0.07144914132211022
0.1193829429935245 -0.030661599341551927 -0.07144914132211022
0.11342273550470193 -0.013817556916680952 -0.06759326908084523
0.10746252801587935 0.0030264855081899994 -0.06373739683958027
0.10150232052705678 0.019870527933060954 -0.059881524598315285
0.0955421130382342 0.036714570357931915 -0.05602565235705031
0.08958190554941162 0.05355861278280288 -0.05216978011578533
0.08362169806058904 0.07040265520767383 -0.048313907874520355
0.07766149057176647 0.08724669763254479 -0.04445803563325537
0.07170128308294389 0.10409074005741575 -0.040602163391990395
0.06574107559412132 0.12093478248228672 -0.03674629115072542
0.11569527220876216 -0.035886331133398376 -0.05432556543539464
0.10973506471993959 -0.019042288708527397 -0.05046969319412967
0.10377485723111701 -0.002198246283656447 -0.04661382095286469
0.09781464974229444 0.014645796141214508 -0.042757948711599714
0.09185444225347186 0.03148983856608547 -0.03890207647033474
0.08589423476464927 0.04833388099095643 -0.03504620422906976
0.0799340272758267 0.06517792341582739 -0.031190331987804784
0.07397381978700412 0.08202196584069835 -0.027334459746539804
0.06801361229818155 0.09886600826556931 -0.023478587505274828
0.062053404809358975 0.11571005069044027 -0.01962271526400985
0.11200760142399983 -0.041111062925244815 -0.03720198954867909
0.10604739393517726 -0.02426702050037384 -0.033346117307414117
0.10008718644635468 -0.007422978075502887 -0.02949024506614914
0.09412697895753211 0.009421064349368067 -0.025634372824884167
0.08816677146870953 0.026265106774239027 -0.021778500583619187
0.08220656397988695 0.04310914919910999 -0.01792262834235421
0.07624635649106437 0.05995319162398094 -0.014066756101089234
0.0702861490022418 0.0767972340488519 -0.010210883859824254
0.06432594151341922 0.09364127647372286 -0.0063550116185592765
0.05836573402459664 0.11048531889859382 -0.0024991393772943
0.10831993063923749 -0.046335794717091254 -0.020078413661963536
0.10235972315041492 -0.029491752292220282 -0.016222541420698556
0.09639951566159234 -0.01264770986734933 -0.012366669179433581
0.09043930817276977 0.004196332557521624 -0.008510796938168606
0.08447910068394719 0.021040374982392585 -0.0046549246969036255
0.0785188931951246 0.037884417407263546 -0.0007990524556386492
0.07255868570630203 0.0547284598321345 0.003056819785626327
0.06659847821747945 0.07157250225700545 0.0069126920268913076
0.06063827072865688 0.08841654468187642 0.010768564268156283
0.054678063239834304 0.10526058710674738 0.01462443650942126
0.10463225985447515 -0.0515605265089377 -0.002954837775247972
0.09867205236565257 -0.034716484084066725 0.0009010344660170084
0.09271184487683 -0.017872441659195774 0.004756906707281983
0.08675163738800742 -0.0010283992343248201 0.008612778948546958
0.08079142989918485 0.015815643190546142 0.012468651189811938
0.07483122241036226 0.0326596856154171 0.016324523431076914
0.06887101492153969 0.049503728040288054 0.02018039567234189
0.06291080743271711 0.06634777046515901 0.02403626791360687
0.056950599943894537 0.08319181289002997 0.027892140154871847
0.05099039245507196 0.10003585531490093 0.031748012396136824
0.1009445890697128 -0.056785258300784146 0.014168738111467592
0.09498438158089023 -0.03994121587591317 0.018024610352732572
0.08902417409206766 -0.02309717345104222 0.021880482593997545
0.08306396660324508 -0.006253131026171264 0.025736354835262522
0.07710375911442251 0.010590911398699696 0.029592227076527502
0.07114355162559992 0.027434953823570658 0.033448099317792475
0.06518334413677734 0.04427899624844161 0.03730397155905745
0.05922313664795477 0.06112303867331257 0.041159843800322435
0.053262929159132194 0.07796708109818354 0.04501571604158741
0.04730272167030962 0.0948111235230545 0.04887158828285239
0.09725691828495046 -0.062009990092630585 0.03129231399818315
0.09129671079612789 -0.04516594766775961 0.035148186239448126
0.08533650330730531 -0.02832190524288866 0.0390040584807131
0.07937629581848274 -0.011477862818017706 0.04285993072197808
0.07341608832966016 0.005366179606853256 0.046715802963243055
0.06745588084083758 0.02221022203172422 0.05057167520450803
0.06149567335201501 0.03905426445659517 0.05442754744577301
0.05553546586319243 0.05589830688146613 0.05828341968703799
0.04957525837436986 0.07274234930633709 0.06213929192830297
0.043615050885547284 0.08958639173120805 0.06599516416956794
0.09356924750018814 -0.06723472188447703 0.04841588988489871
0.08760904001136556 -0.050390679459606055 0.05227176212616369
0.08164883252254299 -0.0335466370347351 0.056127634367428667
0.07568862503372041 -0.01670259460986415 0.059983506608693636
0.06972841754489784 0.00014144781500681172 0.06383937884995862
0.06376821005607525 0.016985490239877773 0.0676952510912236
0.057808002567252666 0.033829532664748724 0.07155112333248857
0.05184779507843009 0.050673575089619685 0.07540699557375355
0.045887587589607516 0.06751761751449065 0.07926286781501853
0.03992738010078494 0.08436165993936161 0.0831187400562835
0.08988157671542579 -0.07245945367632348 0.06553946577161426
0.08392136922660322 -0.055615411251452494 0.06939533801287924
0.07796116173778064 -0.03877136882658155 0.07325121025414422
0.07200095424895807 -0.021927326401710592 0.0771070824954092
0.0660407467601355 -0.00508328397683963 0.08096295473667417
0.060080539271312905 0.01176075844803133 0.08481882697793915
0.05412033178249033 0.02860480087290228 0.08867469921920412
0.048160124293667755 0.045448843297773246 0.09253057146046911
0.04219991680484518 0.06229288572264421 0.09638644370173409
0.036239709316022606 0.07913692814751516 0.10024231594299907
0.08619390593066345 -0.07768418546816992 0.08266304165832984
0.08023369844184088 -0.06084014304329894 0.08651891389959482
0.0742734909530183 -0.04399610061842799 0.0903747861408598
0.06831328346419573 -0.027152058193557038 0.09423065838212477
0.06235307597537315 -0.010308015768686077 0.09808653062338975
0.05639286848655056 0.0065360266561848845 0.10194240286465472
0.05043266099772799 0.023380069081055836 0.1057982751059197
0.04447245350890541 0.0402241115059268 0.10965414734718468
0.03851224602008284 0.05706815393079776 0.11351001958844965
0.03255203853126026 0.07391219635566872 0.11736589182971463
-0.03255203853126026 -0.07391219635566872 -0.11736589182971463
-0.015670373917395276 -0.06910657446521129 -0.11226403066220303
0.0012112906964696865 -0.06430095257475388 -0.10716216949469143
0.018092955310334658 -0.05949533068429646 -0.10206030832717983
0.03497461992419963 -0.05468970879383903 -0.09695844715966823
0.05185628453806461 -0.04988408690338162 -0.09185658599215663
0.06873794915192957 -0.045078465012924195 -0.08675472482464502
0.08561961376579455 -0.04027284312246677 -0.08165286365713342
0.10250127837965951 -0.035467221232009356 -0.07655100248962182
0.1193829429935245 -0.030661599341551927 -0.07144914132211022
-0.036239709316022606 -0.07913692814751516 -0.10024231594299907
-0.019358044702157618 -0.07433130625705774 -0.09514045477548747
-0.002476380088292655 -0.06952568436660032 -0.09003859360797586
0.014405284525572316 -0.0647200624761429 -0.08493673244046426
0.03128694913943729 -0.05991444058568548 -0.07983487127295265
0.04816861375330227 -0.055108818695228066 -0.07473301010544105
0.06505027836716723 -0.05030319680477064 -0.06963114893792945
0.08193194298103221 -0.045497574914313214 -0.06452928777041785
0.09881360759489717 -0.0406919530238558 -0.05942742660290625
0.11569527220876216 -0.035886331133398376 -0.05432556543539464
-0.03992738010078494 -0.08436165993936161 -0.08311874005628352
-0.023045715486919957 -0.07955603804890418 -0.07801687888877192
-0.006164050873054993 -0.07475041615844677 -0.07291501772126031
0.010717613740809978 -0.06994479426798934 -0.06781315655374871
0.027599278354674954 -0.06513917237753192 -0.0627112953862371
0.04448094296853993 -0.060333550487074505 -0.057609434218725504
0.061362607582404895 -0.05552792859661708 -0.0525075730512139
0.07824427219626988 -0.05072230670615965 -0.0474057118837023
0.09512593681013484 -0.04591668481570224 -0.0423038507161907
0.11200760142399983 -0.041111062925244815 -0.03720198954867909
-0.04361505088554728 -0.08958639173120805 -0.06599516416956795
-0.026733386271682296 -0.08478076984075063 -0.06089330300205635
-0.009851721657817333 -0.07997514795029322 -0.05579144183454475
0.007029942956047638 -0.07516952605983579 -0.05068958066703315
0.023911607569912615 -0.07036390416937836 -0.04558771949952154
0.040793272183777596 -0.06555828227892095 -0.04048585833200994
0.05767493679764256 -0.06075266038846352 -0.03538399716449834
0.07455660141150754 -0.05594703849800609 -0.030282135996986738
0.0914382660253725 -0.05114141660754868 -0.02518027482947514
0.10831993063923749 -0.046335794717091254 -0.020078413661963536
-0.04730272167030962 -0.0948111235230545 -0.04887158828285239
-0.030421057056444635 -0.09000550163259707 -0.04376972711534079
-0.013539392442579673 -0.08519987974213966 -0.038667865947829186
0.003342272171285298 -0.08039425785168224 -0.033566004780317585
0.020223936785150276 -0.07558863596122481 -0.02846414361280598
0.03710560139901525 -0.0707830140707674 -0.02336228244529438
0.05398726601288022 -0.06597739218030997 -0.01826042127778278
0.0708689306267452 -0.06117177028985254 -0.013158560110271176
0.08775059524061016 -0.056366148399395126 -0.008056698942759576
0.10463225985447515 -0.0515605265089377 -0.002954837775247972
-0.05099039245507196 -0.10003585531490093 -0.031748012396136824
-0.03410872784120698 -0.0952302334244435 -0.026646151228625223
-0.017227063227342014 -0.0904246115339861 -0.021544290061113622
-0.0003453986134770426 -0.08561898964352867 -0.01644242889360202
0.016536266000387934 -0.08081336775307124 -0.011340567726090416
0.03341793061425291 -0.07600774586261383 -0.006238706558578815
0.050299595228117874 -0.0712021239721564 -0.0011368453910672145
0.06718125984198285 -0.06639650208169898 0.0039650157764443885
0.08406292445584782 -0.06159088019124157 0.009066876943955988
0.1009445890697128 -0.056785258300784146 0.014168738111467592
-0.0546780632398343 -0.10526058710674738 -0.01462443650942127
-0.03779639862596931 -0.10045496521628995 -0.009522575341909669
-0.02091473401210435 -0.09564934332583254 -0.004420714174398068
-0.004033069398239381 -0.09084372143537511 0.0006811469931135329
0.012848595215625596 -0.08603809954491769 0.005783008160625137
0.029730259829490575 -0.08123247765446028 0.010884869328136738
0.04661192444335554 -0.07642685576400285 0.01598673049564834
0.06349358905722051 -0.07162123387354542 0.021088591663159944
0.08037525367108547 -0.06681561198308801 0.02619045283067154
0.09725691828495046 -0.062009990092630585 0.03129231399818315
-0.05836573402459664 -0.11048531889859382 0.0024991393772942935
-0.041484069410731655 -0.1056796970081364 0.007601000544805895
-0.024602404796866692 -0.10087407511767899 0.012702861712317496
-0.007720740183001721 -0.09606845322722156 0.017804722879829097
0.009160924430863256 -0.09126283133676413 0.0229065840473407
0.026042589044728233 -0.08645720944630672 0.028008445214852302
0.042924253658593196 -0.0816515875558493 0.033110306382363903
0.059805918272458174 -0.07684596566539187 0.038212167549875505
0.07668758288632314 -0.07204034377493446 0.043314028717387106
0.09356924750018814 -0.06723472188447703 0.04841588988489871
-0.062053404809358975 -0.11571005069044027 0.01962271526400985
-0.04517174019549399 -0.11090442879998284 0.024724576431521452
-0.02829007558162903 -0.10609880690952543 0.029826437599033053
-0.01140841096776406 -0.101293185019068 0.03492829876654465
0.0054732536461009175 -0.09648756312861058 0.04003015993405626
0.022354918259965894 -0.09168194123815317 0.04513202110156786
0.03923658287383086 -0.08687631934769574 0.05023388226907946
0.05611824748769584 -0.08207069745723831 0.05533574343659106
0.0729999121015608 -0.0772650755667809 0.06043760460410266
0.08988157671542579 -0.07245945367632348 0.06553946577161426
-0.06574107559412132 -0.12093478248228672 0.03674629115072542
-0.04885941098025633 -0.11612916059182929 0.04184815231823702
-0.03197774636639137 -0.11132353870137188 0.04695001348574862
-0.015096081752526401 -0.10651791681091445 0.05205187465326022
0.0017855828613385755 -0.10171229492045702 0.05715373582077183
0.01866724747520355 -0.09690667302999961 0.06225559698828343
0.03554891208906852 -0.09210105113954219 0.06735745815579502
0.052430576702933496 -0.08729542924908476 0.07245931932330664
0.06931224131679846 -0.08248980735862735 0.07756118049081823
0.08619390593066345 -0.07768418546816992 0.08266304165832984
-0.08619390593066345 0.07768418546816992 -0.08266304165832984
-0.06931224131679846 0.08248980735862735 -0.07756118049081823
-0.05243057670293351 0.08729542924908476 -0.07245931932330664
-0.03554891208906853 0.09210105113954219 -0.06735745815579504
-0.01866724747520355 0.09690667302999961 -0.06225559698828343
-0.0017855828613385755 0.10171229492045702 -0.05715373582077183
0.015096081752526391 0.10651791681091445 -0.05205187465326023
0.03197774636639136 0.11132353870137188 -0.04695001348574862
0.04885941098025633 0.11612916059182929 -0.04184815231823702
0.06574107559412132 0.12093478248228672 -0.03674629115072542
-0.08988157671542579 0.07245945367632348 -0.06553946577161426
-0.0729999121015608 0.0772650755667809 -0.06043760460410266
-0.05611824748769585 0.08207069745723831 -0.05533574343659106
-0.039236582873830875 0.08687631934769574 -0.05023388226907946
-0.022354918259965894 0.09168194123815317 -0.04513202110156786
-0.0054732536461009175 0.09648756312861058 -0.04003015993405626
0.01140841096776405 0.101293185019068 -0.03492829876654466
0.028290075581629024 0.10609880690952543 -0.029826437599033053
0.04517174019549399 0.11090442879998284 -0.024724576431521452
0.062053404809358975 0.11571005069044027 -0.01962271526400985
-0.09356924750018812 0.06723472188447703 -0.048415889884898713
-0.07668758288632313 0.07204034377493446 -0.04331402871738711
-0.05980591827245819 0.07684596566539187 -0.03821216754987551
-0.04292425365859321 0.0816515875558493 -0.03311030638236391
-0.026042589044728233 0.08645720944630672 -0.02800844521485231
-0.009160924430863254 0.09126283133676413 -0.02290658404734071
0.007720740183001712 0.09606845322722156 -0.017804722879829107
0.024602404796866685 0.10087407511767899 -0.012702861712317503
0.041484069410731655 0.1056796970081364 -0.007601000544805901
0.05836573402459664 0.11048531889859382 -0.0024991393772943
-0.09725691828495046 0.06200999009263059 -0.031292313998183156
-0.08037525367108547 0.06681561198308801 -0.026190452830671552
-0.06349358905722052 0.07162123387354542 -0.021088591663159954
-0.046611924443355546 0.07642685576400285 -0.015986730495648353
-0.029730259829490572 0.08123247765446028 -0.010884869328136749
-0.012848595215625595 0.08603809954491769 -0.005783008160625147
0.004033069398239372 0.09084372143537511 -0.0006811469931135461
0.020914734012104346 0.09564934332583254 0.0044207141743980586
0.03779639862596932 0.10045496521628995 0.009522575341909659
0.054678063239834304 0.10526058710674738 0.01462443650942126
-0.1009445890697128 0.056785258300784146 -0.014168738111467592
-0.08406292445584782 0.06159088019124157 -0.009066876943955988
-0.06718125984198287 0.06639650208169898 -0.00396501577644439
-0.05029959522811789 0.0712021239721564 0.001136845391067211
-0.03341793061425291 0.07600774586261383 0.006238706558578815
-0.016536266000387934 0.08081336775307124 0.011340567726090416
0.0003453986134770322 0.08561898964352867 0.016442428893602017
0.017227063227342007 0.0904246115339861 0.021544290061113622
0.03410872784120698 0.0952302334244435 0.026646151228625223
0.05099039245507196 0.10003585531490093 0.031748012396136824
-0.10463225985447515 0.0515605265089377 0.002954837775247972
-0.08775059524061016 0.056366148399395126 0.008056698942759576
-0.07086893062674521 0.06117177028985254 0.013158560110271174
-0.05398726601288023 0.06597739218030997 0.018260421277782775
-0.03710560139901525 0.0707830140707674 0.02336228244529438
-0.020223936785150276 0.07558863596122481 0.02846414361280598
-0.0033422721712853083 0.08039425785168224 0.03356600478031758
0.013539392442579666 0.08519987974213966 0.038667865947829186
0.030421057056444635 0.09000550163259707 0.04376972711534079
0.04730272167030962 0.0948111235230545 0.04887158828285239
-0.10831993063923749 0.04633579471709126 0.020078413661963525
-0.0914382660253725 0.05114141660754869 0.02518027482947513
-0.07455660141150755 0.0559470384980061 0.030282135996986728
-0.057674936797642566 0.060752660388463525 0.03538399716449833
-0.04079327218377759 0.06555828227892095 0.04048585833200993
-0.02391160756991261 0.07036390416937836 0.045587719499521534
-0.007029942956047646 0.07516952605983579 0.050689580667033135
0.009851721657817327 0.07997514795029322 0.05579144183454474
0.0267333862716823 0.08478076984075063 0.060893303002056344
0.043615050885547284 0.08958639173120805 0.06599516416956794
-0.11200760142399982 0.041111062925244815 0.037201989548679086
-0.09512593681013483 0.04591668481570224 0.042303850716190694
-0.07824427219626988 0.05072230670615965 0.04740571188370229
-0.06136260758240491 0.05552792859661708 0.05250757305121389
-0.04448094296853993 0.060333550487074505 0.0576094342187255
-0.027599278354674954 0.06513917237753192 0.0627112953862371
-0.010717613740809987 0.06994479426798934 0.0678131565537487
0.006164050873054988 0.07475041615844677 0.0729150177212603
0.023045715486919957 0.07955603804890418 0.0780168788887719
0.03992738010078494 0.08436165993936161 0.0831187400562835
-0.11569527220876216 0.035886331133398376 0.05432556543539464
-0.09881360759489717 0.0406919530238558 0.05942742660290625
-0.08193194298103222 0.045497574914313214 0.06452928777041785
-0.06505027836716724 0.05030319680477064 0.06963114893792945
-0.04816861375330227 0.055108818695228066 0.07473301010544105
-0.03128694913943729 0.05991444058568548 0.07983487127295265
-0.014405284525572326 0.0647200624761429 0.08493673244046425
0.002476380088292648 0.06952568436660032 0.09003859360797586
0.019358044702157618 0.07433130625705774 0.09514045477548747
0.036239709316022606 0.07913692814751516 0.10024231594299907
-0.1193829429935245 0.030661599341551927 0.07144914132211022
-0.10250127837965951 0.035467221232009356 0.07655100248962182
-0.08561961376579456 0.04027284312246677 0.08165286365713342
-0.06873794915192959 0.045078465012924195 0.08675472482464502
-0.05185628453806461 0.04988408690338162 0.09185658599215663
-0.03497461992419963 0.05468970879383903 0.09695844715966823
-0.01809295531033467 0.05949533068429646 0.10206030832717983
-0.0012112906964696934 0.06430095257475388 0.10716216949469143
0.015670373917395276 0.06910657446521129 0.11226403066220303
0.03255203853126026 0.07391219635566872 0.11736589182971463
-0.03255203853126026 -0.07391219635566872 -0.11736589182971463
-0.015670373917395276 -0.06910657446521129 -0.11226403066220303
0.0012112906964696865 -0.06430095257475388 -0.10716216949469143
0.018092955310334658 -0.05949533068429646 -0.10206030832717983
0.03497461992419963 -0.05468970879383903 -0.09695844715966823
0.05185628453806461 -0.04988408690338162 -0.09185658599215663
0.06873794915192957 -0.045078465012924195 -0.08675472482464502
0.08561961376579455 -0.04027284312246677 -0.08165286365713342
0.10250127837965951 -0.035467221232009356 -0.07655100248962182
0.1193829429935245 -0.030661599341551927 -0.07144914132211022
-0.03851224602008284 -0.05706815393079776 -0.11351001958844965
-0.021630581406217857 -0.052262532040340336 -0.10840815842093805
-0.004748916792352891 -0.04745691014988291 -0.10330629725342645
0.012132747821512078 -0.0426512882594255 -0.09820443608591485
0.029014412435377057 -0.03784566636896807 -0.09310257491840325
0.045896077049242034 -0.033040044478510645 -0.08800071375089165
0.062777741663107 -0.028234422588053223 -0.08289885258338005
0.07965940627697198 -0.023428800697595804 -0.07779699141586845
0.09654107089083694 -0.018623178807138378 -0.07269513024835685
0.11342273550470193 -0.013817556916680952 -0.06759326908084523
-0.04447245350890541 -0.0402241115059268 -0.10965414734718468
-0.027590788895040425 -0.035418489615469374 -0.10455228617967308
-0.010709124281175464 -0.03061286772501196 -0.09945042501216148
0.006172540332689506 -0.025807245834554533 -0.09434856384464987
0.023054204946554482 -0.021001623944097113 -0.08924670267713827
0.03993586956041946 -0.016196002053639687 -0.08414484150962667
0.05681753417428442 -0.011390380163182268 -0.07904298034211507
0.0736991987881494 -0.006584758272724849 -0.07394111917460347
0.09058086340201436 -0.0017791363822674269 -0.06883925800709187
0.10746252801587935 0.0030264855081899994 -0.06373739683958027
-0.05043266099772799 -0.02338006908105585 -0.1057982751059197
-0.03355099638386301 -0.018574447190598423 -0.1006964139384081
-0.016669331769998044 -0.013768825300140997 -0.0955945527708965
0.00021233284386692902 -0.008963203409683578 -0.0904926916033849
0.017093997457731908 -0.004157581519226159 -0.0853908304358733
0.033975662071596885 0.0006480403712312668 -0.0802889692683617
0.05085732668546185 0.005453662261688686 -0.0751871081008501
0.06773899129932683 0.010259284152146107 -0.0700852469333385
0.08462065591319179 0.015064906042603528 -0.06498338576582689
0.10150232052705678 0.019870527933060954 -0.059881524598315285
-0.05639286848655056 -0.0065360266561848845 -0.10194240286465472
-0.039511203872685585 -0.0017304047657274587 -0.09684054169714312
-0.02262953925882062 0.0030752171247299606 -0.09173868052963152
-0.005747874644955649 0.007880839015187383 -0.08663681936211992
0.01113378996890933 0.012686460905644804 -0.08153495819460832
0.028015454582774307 0.017492082796102225 -0.07643309702709672
0.044897119196639274 0.022297704686559647 -0.07133123585958512
0.061778783810504244 0.027103326577017067 -0.06622937469207352
0.07866044842436921 0.03190894846747449 -0.06112751352456191
0.0955421130382342 0.036714570357931915 -0.05602565235705031
-0.06235307597537315 0.010308015768686077 -0.09808653062338975
-0.04547141136150816 0.015113637659143503 -0.09298466945587815
-0.028589746747643193 0.019919259549600922 -0.08788280828836655
-0.011708082133778224 0.02472488144005834 -0.08278094712085494
0.005173582480086752 0.029530503330515764 -0.07767908595334334
0.02205524709395173 0.034336125220973186 -0.07257722478583174
0.0389369117078167 0.039141747111430605 -0.06747536361832014
0.05581857632168167 0.043947369001888024 -0.062373502450808534
0.07270024093554664 0.04875299089234545 -0.05727164128329693
0.08958190554941162 0.05355861278280288 -0.05216978011578533
-0.06831328346419573 0.027152058193557028 -0.09423065838212477
-0.051431618850330735 0.03195768008401445 -0.08912879721461317
-0.03454995423646577 0.03676330197447187 -0.08402693604710157
-0.017668289622600798 0.04156892386492929 -0.07892507487958997
-0.0007866250087358215 0.046374545755386715 -0.07382321371207837
0.016095039605129157 0.051180167645844134 -0.06872135254456677
0.032976704218994124 0.05598578953630155 -0.06361949137705517
0.049858368832859094 0.06079141142675898 -0.05851763020954356
0.06674003344672406 0.0655970333172164 -0.053415769042031956
0.08362169806058904 0.07040265520767383 -0.048313907874520355
-0.0742734909530183 0.043996100618427986 -0.0903747861408598
-0.05739182633915331 0.04880172250888541 -0.0852729249733482
-0.040510161725288346 0.05360734439934283 -0.08017106380583659
-0.02362849711142338 0.05841296628980025 -0.07506920263832499
-0.006746832497558399 0.06321858818025768 -0.06996734147081339
0.010134832116306577 0.0680242100707151 -0.06486548030330179
0.027016496730171546 0.07282983196117251 -0.05976361913579018
0.04389816134403652 0.07763545385162994 -0.05466175796827858
0.06077982595790149 0.08244107574208737 -0.04955989680076698
0.07766149057176647 0.08724669763254479 -0.04445803563325537
-0.08023369844184088 0.06084014304329894 -0.08651891389959482
-0.06335203382797588 0.06564576493375637 -0.08141705273208322
-0.04647036921411092 0.0704513868242138 -0.07631519156457162
-0.029588704600245954 0.07525700871467121 -0.07121333039706002
-0.012707039986380975 0.08006263060512864 -0.06611146922954841
0.004174624627484003 0.08486825249558606 -0.061009608062036806
0.02105628924134897 0.08967387438604348 -0.055907746894525205
0.037937953855213945 0.0944794962765009 -0.050805885727013604
0.054819618469078915 0.09928511816695833 -0.045704024559502
0.07170128308294389 0.10409074005741575 -0.040602163391990395
-0.08619390593066345 0.07768418546816992 -0.08266304165832984
-0.06931224131679846 0.08248980735862735 -0.07756118049081823
-0.05243057670293351 0.08729542924908476 -0.07245931932330664
-0.03554891208906853 0.09210105113954219 -0.06735745815579504
-0.01866724747520355 0.09690667302999961 -0.06225559698828343
-0.0017855828613385755 0.10171229492045702 -0.05715373582077183
0.015096081752526391 0.10651791681091445 -0.05205187465326023
0.03197774636639136 0.11132353870137188 -0.04695001348574862
0.04885941098025633 0.11612916059182929 -0.04184815231823702
0.06574107559412132 0.12093478248228672 -0.03674629115072542
-0.06574107559412132 -0.12093478248228672 0.03674629115072542
-0.04885941098025633 -0.11612916059182929 0.04184815231823702
-0.03197774636639137 -0.11132353870137188 0.04695001348574862
-0.015096081752526401 -0.10651791681091445 0.05205187465326022
0.0017855828613385755 -0.10171229492045702 0.05715373582077183
0.01866724747520355 -0.09690667302999961 0.06225559698828343
0.03554891208906852 -0.09210105113954219 0.06735745815579502
0.052430576702933496 -0.08729542924908476 0.07245931932330664
0.06931224131679846 -0.08248980735862735 0.07756118049081823
0.08619390593066345 -0.07768418546816992 0.08266304165832984
-0.07170128308294389 -0.10409074005741575 0.040602163391990395
-0.054819618469078915 -0.09928511816695833 0.045704024559502
-0.03793795385521395 -0.0944794962765009 0.050805885727013604
-0.02105628924134898 -0.08967387438604349 0.055907746894525205
-0.004174624627484003 -0.08486825249558606 0.061009608062036806
0.012707039986380975 -0.08006263060512864 0.06611146922954841
0.02958870460024594 -0.07525700871467121 0.07121333039706002
0.04647036921411092 -0.0704513868242138 0.07631519156457162
0.06335203382797588 -0.06564576493375637 0.08141705273208322
0.08023369844184088 -0.06084014304329894 0.08651891389959482
-0.07766149057176647 -0.08724669763254479 0.04445803563325537
-0.06077982595790148 -0.08244107574208737 0.04955989680076698
-0.04389816134403652 -0.07763545385162995 0.054661757968278574
-0.027016496730171553 -0.07282983196117253 0.05976361913579018
-0.010134832116306575 -0.0680242100707151 0.06486548030330178
0.006746832497558403 -0.06321858818025768 0.06996734147081339
0.023628497111423365 -0.05841296628980026 0.07506920263832499
0.040510161725288346 -0.05360734439934284 0.08017106380583659
0.05739182633915331 -0.04880172250888542 0.0852729249733482
0.0742734909530183 -0.04399610061842799 0.0903747861408598
-0.08362169806058904 -0.07040265520767384 0.04831390787452035
-0.06674003344672406 -0.06559703331721642 0.053415769042031956
-0.0498583688328591 -0.060791411426758986 0.05851763020954355
-0.03297670421899413 -0.05598578953630157 0.06361949137705515
-0.016095039605129154 -0.05118016764584415 0.06872135254456675
0.000786625008735825 -0.04637454575538672 0.07382321371207837
0.01766828962260079 -0.0415689238649293 0.07892507487958997
0.03454995423646577 -0.03676330197447188 0.08402693604710157
0.051431618850330735 -0.031957680084014464 0.08912879721461317
0.06831328346419573 -0.027152058193557038 0.09423065838212477
-0.08958190554941162 -0.05355861278280288 0.05216978011578533
-0.07270024093554664 -0.04875299089234545 0.05727164128329693
-0.055818576321681676 -0.04394736900188803 0.062373502450808534
-0.038936911707816706 -0.039141747111430605 0.06747536361832013
-0.02205524709395173 -0.034336125220973186 0.07257722478583174
-0.005173582480086752 -0.029530503330515764 0.07767908595334334
0.011708082133778214 -0.024724881440058345 0.08278094712085494
0.028589746747643186 -0.019919259549600922 0.08788280828836655
0.04547141136150816 -0.015113637659143503 0.09298466945587815
0.06235307597537315 -0.010308015768686077 0.09808653062338975
-0.0955421130382342 -0.036714570357931915 0.05602565235705031
-0.07866044842436921 -0.03190894846747449 0.06112751352456191
-0.06177878381050425 -0.02710332657701707 0.0662293746920735
-0.04489711919663928 -0.022297704686559647 0.07133123585958512
-0.028015454582774307 -0.017492082796102225 0.07643309702709672
-0.01113378996890933 -0.012686460905644804 0.08153495819460832
0.005747874644955638 -0.007880839015187383 0.08663681936211992
0.02262953925882061 -0.003075217124729964 0.09173868052963152
0.039511203872685585 0.0017304047657274587 0.09684054169714312
0.05639286848655056 0.0065360266561848845 0.10194240286465472
-0.10150232052705678 -0.019870527933060964 0.059881524598315285
-0.08462065591319179 -0.015064906042603538 0.06498338576582689
-0.06773899129932683 -0.010259284152146119 0.07008524693333848
-0.050857326685461855 -0.0054536622616887 0.07518710810085008
-0.03397566207159688 -0.0006480403712312737 0.0802889692683617
-0.017093997457731904 0.004157581519226145 0.0853908304358733
-0.00021233284386693596 0.008963203409683564 0.0904926916033849
0.016669331769998037 0.01376882530014099 0.0955945527708965
0.03355099638386301 0.01857444719059841 0.1006964139384081
0.05043266099772799 0.023380069081055836 0.1057982751059197
-0.10746252801587935 -0.0030264855081900063 0.06373739683958025
-0.09058086340201436 0.00177913638226742 0.06883925800709187
-0.0736991987881494 0.006584758272724839 0.07394111917460346
-0.05681753417428444 0.011390380163182261 0.07904298034211506
-0.03993586956041946 0.01619600205363968 0.08414484150962667
-0.023054204946554482 0.021001623944097107 0.08924670267713827
-0.006172540332689515 0.025807245834554526 0.09434856384464987
0.01070912428117546 0.030612867725011945 0.09945042501216148
0.027590788895040432 0.035418489615469374 0.10455228617967308
0.04447245350890541 0.0402241115059268 0.10965414734718468
-0.11342273550470193 0.013817556916680952 0.06759326908084523
-0.09654107089083694 0.018623178807138378 0.07269513024835685
-0.07965940627697198 0.023428800697595804 0.07779699141586843
-0.06277774166310701 0.028234422588053223 0.08289885258338003
-0.045896077049242034 0.033040044478510645 0.08800071375089165
-0.029014412435377057 0.03784566636896807 0.09310257491840325
-0.012132747821512089 0.042651288259425484 0.09820443608591485
0.004748916792352884 0.04745691014988291 0.10330629725342645
0.021630581406217857 0.052262532040340336 0.10840815842093805
0.03851224602008284 0.05706815393079776 0.11351001958844965
-0.1193829429935245 0.030661599341551927 0.07144914132211022
-0.10250127837965951 0.035467221232009356 0.07655100248962182
-0.08561961376579456 0.04027284312246677 0.08165286365713342
-0.06873794915192959 0.045078465012924195 0.08675472482464502
-0.05185628453806461 0.04988408690338162 0.09185658599215663
-0.03497461992419963 0.05468970879383903 0.09695844715966823
-0.01809295531033467 0.05949533068429646 0.10206030832717983
-0.0012112906964696934 0.06430095257475388 0.10716216949469143
0.015670373917395276 0.06910657446521129 0.11226403066220303
0.03255203853126026 0.07391219635566872 0.11736589182971463
