# .PCD v0.7 - Point Cloud Data file format
VERSION 0.7
FIELDS x y z
SIZE 4 4 4
TYPE F F F
COUNT 1 1 1
WIDTH 600
HEIGHT 1
VIEWPOINT 0 0 0 1 0 0 0
POINTS 600
DATA ascii
-0.10579850796016287 -0.08932702309763435 -0.02561311050789825
-0.1074711346853208 -0.07143347255084538 -0.02376349585093186
-0.10914376141047874 -0.05353992200405642 -0.02191388119396547
-0.11081638813563667 -0.035646371457267456 -0.020064266536999085
-0.1124890148607946 -0.017752820910478476 -0.018214651880032687
-0.11416164158595254 0.00014072963631049076 -0.016365037223066304
-0.11583426831111047 0.01803428018309945 -0.014515422566099914
-0.1175068950362684 0.03592783072988842 -0.012665807909133523
-0.11917952176142634 0.05382138127667739 -0.010816193252167133
-0.12085214848658428 0.07171493182346636 -0.008966578595200742
-0.09500933773973746 -0.08981554795730914 -0.011130256675602811
-0.0966819644648954 -0.07192199741052017 -0.009280642018636421
-0.09835459119005333 -0.054028446863731205 -0.0074310273616700305
-0.10002721791521126 -0.03613489631694224 -0.005581412704703647
-0.10169984464036919 -0.018241345770153267 -0.00373179804773725
-0.10337247136552713 -0.0003477952233642991 -0.0018821833907708666
-0.10504509809068506 0.01754575532342466 -3.256873380447612e-05
-0.10671772481584299 0.035439305870213635 0.0018170459231619143
-0.10839035154100092 0.053332856417002604 0.0036666605801283047
-0.11006297826615886 0.07122640696379157 0.005516275237094696
-0.08422016751931206 -0.09030407281698394 0.0033525971566926204
-0.08589279424447 -0.07241052227019497 0.005202211813659011
-0.08756542096962792 -0.05451697172340599 0.007051826470625401
-0.08923804769478585 -0.03662342117661703 0.008901441127591784
-0.09091067441994378 -0.018729870629828057 0.010751055784558181
-0.09258330114510173 -0.0008363200830390887 0.012600670441524565
-0.09425592787025966 0.017057230463749868 0.014450285098490955
-0.09592855459541759 0.03495078101053885 0.016299899755457346
-0.09760118132057552 0.05284433155732782 0.018149514412423736
-0.09927380804573346 0.07073788210411677 0.019999129069390126
-0.07343099729888666 -0.09079259767665872 0.017835450988988054
-0.0751036240240446 -0.07289904712986975 0.019685065645954444
-0.07677625074920252 -0.055005496583080786 0.021534680302920835
-0.07844887747436045 -0.037111946036291824 0.023384294959887218
-0.08012150419951838 -0.019218395489502847 0.025233909616853616
-0.08179413092467633 -0.0013248449427138785 0.02708352427382
-0.08346675764983426 0.016568705604075078 0.02893313893078639
-0.08513938437499219 0.034462256150864054 0.03078275358775278
-0.08681201110015012 0.05235580669765302 0.03263236824471917
-0.08848463782530806 0.07024935724444199 0.03448198290168556
-0.06264182707846125 -0.09128112253633351 0.0323183048212835
-0.06431445380361918 -0.07338757198954454 0.03416791947824989
-0.06598708052877712 -0.05549402144275557 0.03601753413521628
-0.06765970725393505 -0.03760047089596661 0.03786714879218266
-0.06933233397909298 -0.019706920349177637 0.03971676344914906
-0.07100496070425093 -0.0018133698023886683 0.041566378106115444
-0.07267758742940886 0.016080180744400287 0.043415992763081834
-0.07435021415456679 0.03397373129118927 0.045265607420048225
-0.07602284087972472 0.05186728183797824 0.047115222077014615
-0.07769546760488266 0.0697608323847672 0.048964836733981006
-0.05185265685803585 -0.0917696473960083 0.04680115865357893
-0.05352528358319378 -0.07387609684921934 0.04865077331054532
-0.055197910308351715 -0.05598254630243037 0.05050038796751171
-0.056870537033509645 -0.038088995755641404 0.052350002624478094
-0.058543163758667575 -0.020195445208852424 0.05419961728144449
-0.06021579048382552 -0.002301894662063458 0.056049231938410875
-0.06188841720898345 0.015591655884725499 0.057898846595377265
-0.06356104393414137 0.03348520643151447 0.059748461252343656
-0.0652336706592993 0.05137875697830344 0.061598075909310046
-0.06690629738445725 0.0692723075250924 0.06344769056627644
-0.04106348663761045 -0.0922581722556831 0.06128401248587436
-0.04273611336276838 -0.07436462170889413 0.06313362714284075
-0.044408740087926314 -0.05647107116210515 0.06498324179980715
-0.046081366813084244 -0.03857752061531619 0.06683285645677353
-0.047753993538242175 -0.020683970068527215 0.06868247111373993
-0.04942662026340012 -0.002790419521738248 0.07053208577070631
-0.05109924698855805 0.01510313102505071 0.0723817004276727
-0.05277187371371598 0.03299668157183969 0.0742313150846391
-0.05444450043887391 0.050890232118628656 0.07608092974160548
-0.05611712716403185 0.06878378266541761 0.07793054439857187
-0.03027431641718504 -0.09274669711535788 0.0757668663181698
-0.03194694314234297 -0.07485314656856891 0.0776164809751362
-0.033619569867500906 -0.05695959602177995 0.07946609563210258
-0.03529219659265884 -0.039066045474990985 0.08131571028906896
-0.03696482331781677 -0.021172494928202005 0.08316532494603536
-0.03863745004297471 -0.0032789443814130377 0.08501493960300174
-0.04031007676813264 0.01461460616537592 0.08686455425996814
-0.04198270349329057 0.03250815671216489 0.08871416891693452
-0.0436553302184485 0.05040170725895386 0.09056378357390092
-0.045327956943606446 0.06829525780574283 0.0924133982308673
-0.019485146196759635 -0.09323522197503267 0.09024972015046524
-0.021157772921917565 -0.0753416714282437 0.09209933480743163
-0.022830399647075502 -0.057448120881454734 0.09394894946439802
-0.024503026372233432 -0.03955457033466577 0.09579856412136441
-0.026175653097391362 -0.021661019787876795 0.0976481787783308
-0.027848279822549307 -0.0037674692410878275 0.09949779343529719
-0.029520906547707237 0.01412608130570113 0.10134740809226357
-0.031193533272865167 0.032019631852490106 0.10319702274922997
-0.032866159998023094 0.049913182399279075 0.10504663740619635
-0.03453878672318104 0.06780673294606804 0.10689625206316275
-0.008695975976334229 -0.09372374683470747 0.10473257398276067
-0.010368602701492159 -0.0758301962879185 0.10658218863972707
-0.012041229426650096 -0.05793664574112952 0.10843180329669345
-0.013713856151808026 -0.04004309519434056 0.11028141795365984
-0.015386482876965956 -0.022149544647551585 0.11213103261062624
-0.0170591096021239 -0.004255994100762617 0.11398064726759262
-0.01873173632728183 0.01363755644602634 0.11583026192455902
-0.02040436305243976 0.03153110699281532 0.1176798765815254
-0.02207698977759769 0.04942465753960429 0.1195294912384918
-0.023749616502755633 0.06731820808639324 0.12137910589545818
0.023749616502755633 -0.06731820808639324 -0.12137910589545818
0.02207698977759769 -0.04942465753960429 -0.1195294912384918
0.02040436305243976 -0.031531106992815326 -0.1176798765815254
0.01873173632728183 -0.013637556446026353 -0.11583026192455902
0.0170591096021239 0.004255994100762617 -0.11398064726759262
0.015386482876965956 0.022149544647551585 -0.11213103261062624
0.013713856151808026 0.040043095194340544 -0.11028141795365985
0.012041229426650096 0.057936645741129514 -0.10843180329669345
0.010368602701492159 0.0758301962879185 -0.10658218863972707
0.008695975976334229 0.09372374683470747 -0.10473257398276067
0.03453878672318104 -0.06780673294606804 -0.10689625206316275
0.032866159998023094 -0.049913182399279075 -0.10504663740619635
0.031193533272865167 -0.03201963185249011 -0.10319702274922997
0.029520906547707237 -0.014126081305701144 -0.10134740809226359
0.027848279822549307 0.0037674692410878275 -0.09949779343529719
0.026175653097391362 0.021661019787876795 -0.0976481787783308
0.024503026372233432 0.03955457033466576 -0.09579856412136441
0.022830399647075502 0.05744812088145473 -0.09394894946439802
0.021157772921917565 0.0753416714282437 -0.09209933480743163
0.019485146196759635 0.09323522197503267 -0.09024972015046524
0.04532795694360644 -0.06829525780574283 -0.09241339823086732
0.043655330218448495 -0.05040170725895386 -0.09056378357390092
0.041982703493290564 -0.0325081567121649 -0.08871416891693454
0.040310076768132634 -0.014614606165375934 -0.08686455425996815
0.038637450042974704 0.0032789443814130377 -0.08501493960300176
0.03696482331781676 0.021172494928202005 -0.08316532494603537
0.03529219659265883 0.03906604547499097 -0.08131571028906898
0.0336195698675009 0.05695959602177994 -0.07946609563210259
0.03194694314234296 0.07485314656856891 -0.0776164809751362
0.030274316417185036 0.09274669711535788 -0.07576686631816981
0.056117127164031846 -0.06878378266541761 -0.07793054439857187
0.0544445004388739 -0.050890232118628656 -0.07608092974160549
0.05277187371371597 -0.032996681571839694 -0.0742313150846391
0.05109924698855804 -0.015103131025050722 -0.07238170042767271
0.04942662026340011 0.0027904195217382482 -0.07053208577070631
0.04775399353824217 0.020683970068527215 -0.06868247111373993
0.04608136681308424 0.03857752061531618 -0.06683285645677355
0.04440874008792631 0.056471071162105146 -0.06498324179980715
0.04273611336276837 0.07436462170889413 -0.06313362714284076
0.04106348663761044 0.0922581722556831 -0.061284012485874374
0.06690629738445725 -0.0692723075250924 -0.06344769056627644
0.0652336706592993 -0.05137875697830344 -0.061598075909310046
0.06356104393414137 -0.03348520643151448 -0.059748461252343656
0.06188841720898345 -0.015591655884725513 -0.05789884659537727
0.06021579048382552 0.002301894662063458 -0.056049231938410875
0.058543163758667575 0.020195445208852424 -0.05419961728144449
0.056870537033509645 0.03808899575564139 -0.0523500026244781
0.055197910308351715 0.05598254630243036 -0.05050038796751171
0.05352528358319378 0.07387609684921934 -0.04865077331054532
0.05185265685803585 0.0917696473960083 -0.04680115865357893
0.07769546760488266 -0.0697608323847672 -0.048964836733981006
0.07602284087972472 -0.05186728183797824 -0.047115222077014615
0.07435021415456679 -0.033973731291189274 -0.045265607420048225
0.07267758742940886 -0.0160801807444003 -0.04341599276308184
0.07100496070425093 0.0018133698023886683 -0.041566378106115444
0.06933233397909298 0.019706920349177637 -0.03971676344914906
0.06765970725393505 0.037600470895966596 -0.03786714879218267
0.06598708052877712 0.055494021442755566 -0.03601753413521628
0.06431445380361918 0.07338757198954454 -0.03416791947824989
0.06264182707846125 0.09128112253633351 -0.0323183048212835
0.08848463782530806 -0.07024935724444199 -0.034481982901685575
0.08681201110015012 -0.05235580669765302 -0.032632368244719184
0.08513938437499219 -0.03446225615086406 -0.030782753587752794
0.08346675764983426 -0.01656870560407509 -0.02893313893078641
0.08179413092467633 0.001324844942713879 -0.027083524273820013
0.08012150419951838 0.019218395489502847 -0.02523390961685363
0.07844887747436045 0.03711194603629181 -0.02338429495988724
0.07677625074920252 0.05500549658308078 -0.02153468030292085
0.07510362402404458 0.07289904712986975 -0.019685065645954458
0.07343099729888665 0.09079259767665872 -0.017835450988988068
0.09927380804573346 -0.07073788210411677 -0.019999129069390133
0.09760118132057552 -0.05284433155732782 -0.018149514412423743
0.09592855459541759 -0.034950781010538855 -0.016299899755457353
0.09425592787025966 -0.017057230463749882 -0.014450285098490969
0.09258330114510173 0.0008363200830390889 -0.012600670441524572
0.09091067441994378 0.018729870629828057 -0.010751055784558188
0.08923804769478585 0.036623421176617016 -0.008901441127591798
0.08756542096962792 0.054516971723405985 -0.0070518264706254065
0.08589279424447 0.07241052227019497 -0.005202211813659016
0.08422016751931206 0.09030407281698394 -0.0033525971566926256
0.11006297826615886 -0.07122640696379157 -0.005516275237094696
0.10839035154100092 -0.053332856417002604 -0.0036666605801283047
0.10671772481584299 -0.03543930587021364 -0.0018170459231619143
0.10504509809068506 -0.017545755323424672 3.256873380446918e-05
0.10337247136552713 0.0003477952233642991 0.0018821833907708666
0.10169984464036919 0.018241345770153267 0.00373179804773725
0.10002721791521126 0.03613489631694223 0.00558141270470364
0.09835459119005333 0.0540284468637312 0.0074310273616700305
0.0966819644648954 0.07192199741052017 0.009280642018636421
0.09500933773973746 0.08981554795730914 0.011130256675602811
0.12085214848658428 -0.07171493182346636 0.008966578595200742
0.11917952176142634 -0.05382138127667739 0.010816193252167133
0.1175068950362684 -0.03592783072988843 0.012665807909133523
0.11583426831111047 -0.018034280183099462 0.014515422566099907
0.11416164158595254 -0.00014072963631049076 0.016365037223066304
0.1124890148607946 0.017752820910478476 0.018214651880032687
0.11081638813563667 0.03564637145726744 0.020064266536999078
0.10914376141047874 0.05353992200405641 0.02191388119396547
0.1074711346853208 0.07143347255084538 0.02376349585093186
0.10579850796016287 0.08932702309763435 0.02561311050789825
-0.10579850796016287 -0.08932702309763435 -0.02561311050789825
-0.09140427190872749 -0.08688159920749644 -0.03625377666207158
-0.0770100358572921 -0.08443617531735854 -0.046894442816244906
-0.06261579980585671 -0.08199075142722065 -0.057535108970418226
-0.04822156375442131 -0.07954532753708275 -0.06817577512459155
-0.033827327702985924 -0.07709990364694484 -0.07881644127876489
-0.01943309165155054 -0.07465447975680695 -0.08945710743293821
-0.0050388556001151495 -0.07220905586666905 -0.10009777358711153
0.009355380451320247 -0.06976363197653115 -0.11073843974128486
0.023749616502755633 -0.06731820808639324 -0.12137910589545818
-0.09500933773973746 -0.08981554795730914 -0.011130256675602811
-0.08061510168830208 -0.08737012406717123 -0.02177092282977614
-0.06622086563686669 -0.08492470017703334 -0.03241158898394947
-0.0518266295854313 -0.08247927628689544 -0.04305225513812279
-0.03743239353399591 -0.08003385239675755 -0.053692921292296115
-0.023038157482560516 -0.07758842850661964 -0.06433358744646944
-0.008643921431125133 -0.07514300461648174 -0.07497425360064276
0.005750314620310256 -0.07269758072634384 -0.0856149197548161
0.020144550671745653 -0.07025215683620595 -0.09625558590898942
0.03453878672318104 -0.06780673294606804 -0.10689625206316275
-0.08422016751931206 -0.09030407281698394 0.0033525971566926204
-0.06982593146787668 -0.08785864892684603 -0.0072880689974807065
-0.055431695416441294 -0.08541322503670813 -0.017928735151654034
-0.0410374593650059 -0.08296780114657024 -0.028569401305827354
-0.026643223313570507 -0.08052237725643234 -0.039210067460000685
-0.012248987262135117 -0.07807695336629443 -0.04985073361417401
0.002145248789300269 -0.07563152947615653 -0.06049139976834733
0.01653948484073566 -0.07318610558601864 -0.07113206592252067
0.030933720892171054 -0.07074068169588074 -0.08177273207669399
0.04532795694360644 -0.06829525780574283 -0.09241339823086732
-0.07343099729888666 -0.09079259767665872 0.017835450988988054
-0.059036761247451275 -0.08834717378652081 0.007194784834814728
-0.044642525196015886 -0.08590174989638291 -0.0034458813193585986
-0.030248289144580498 -0.08345632600624502 -0.01408654747353192
-0.015854053093145106 -0.08101090211610712 -0.02472721362770525
-0.0014598170417097127 -0.07856547822596921 -0.03536787978187858
0.012934419009725672 -0.07612005433583131 -0.0460085459360519
0.02732865506116106 -0.07367463044569342 -0.05664921209022523
0.04172289111259646 -0.07122920655555552 -0.06728987824439855
0.056117127164031846 -0.06878378266541761 -0.07793054439857187
-0.06264182707846125 -0.09128112253633351 0.0323183048212835
-0.04824759102702587 -0.0888356986461956 0.021677638667110168
-0.03385335497559048 -0.0863902747560577 0.011036972512936841
-0.01945911892415509 -0.08394485086591981 0.00039630635876351984
-0.0050648828727196974 -0.08149942697578191 -0.01024435979540981
0.009329353178715695 -0.079054003085644 -0.020885025949583136
0.02372358923015108 -0.07660857919550611 -0.031525692103756456
0.03811782528158647 -0.07416315530536821 -0.04216635825792978
0.052512061333021866 -0.07171773141523032 -0.05280702441210311
0.06690629738445725 -0.0692723075250924 -0.06344769056627644
-0.05185265685803585 -0.0917696473960083 0.04680115865357893
-0.037458420806600466 -0.0893242235058704 0.0361604924994056
-0.023064184755165074 -0.0868787996157325 0.02551982634523228
-0.008669948703729686 -0.0844333757255946 0.014879160191058957
0.005724287347705709 -0.08198795183545671 0.004238494036885627
0.0201185233991411 -0.0795425279453188 -0.0064021721172877
0.03451275945057648 -0.0770971040551809 -0.01704283827146102
0.04890699550201187 -0.074651680165043 -0.02768350442563435
0.06330123155344727 -0.07220625627490511 -0.03832417057980768
0.07769546760488266 -0.0697608323847672 -0.048964836733981006
-0.04106348663761045 -0.0922581722556831 0.06128401248587436
-0.026669250586175065 -0.08981274836554519 0.050643346331701034
-0.012275014534739677 -0.0873673244754073 0.04000268017752771
0.0021192215166957137 -0.0849219005852694 0.029362014023354387
0.016513457568131107 -0.0824764766951315 0.018721347869181056
0.0309076936195665 -0.08003105280499359 0.00808068171500773
0.045301929671001884 -0.0775856289148557 -0.0025599844391655923
0.05969616572243727 -0.0751402050247178 -0.01320065059333892
0.07409040177387267 -0.0726947811345799 -0.023841316747512248
0.08848463782530806 -0.07024935724444199 -0.034481982901685575
-0.03027431641718504 -0.09274669711535788 0.0757668663181698
-0.015880080365749658 -0.09030127322521997 0.06512620016399648
-0.001485844314314269 -0.08785584933508207 0.05448553400982315
0.012908391737121121 -0.08541042544494418 0.043844867855649824
0.027302627788556515 -0.08296500155480628 0.0332042017014765
0.04169686383999191 -0.08051957766466837 0.02256353554730317
0.05609109989142729 -0.07807415377453047 0.011922869393129847
0.07048533594286269 -0.07562872988439258 0.001282203238956521
0.08487957199429808 -0.07318330599425468 -0.009358462915216807
0.09927380804573346 -0.07073788210411677 -0.019999129069390133
-0.019485146196759635 -0.09323522197503267 0.09024972015046524
-0.0050909101453242515 -0.09078979808489476 0.07960905399629191
0.009303325906111137 -0.08834437419475687 0.06896838784211859
0.023697561957546527 -0.08589895030461897 0.05832772168794526
0.03809179800898192 -0.08345352641448107 0.047687055533771935
0.05248603406041731 -0.08100810252434316 0.03704638937959861
0.0668802701118527 -0.07856267863420527 0.026405723225425285
0.08127450616328809 -0.07611725474406737 0.015765057071251958
0.09566874221472348 -0.07367183085392948 0.005124390917078631
0.11006297826615886 -0.07122640696379157 -0.005516275237094696
-0.008695975976334229 -0.09372374683470747 0.10473257398276067
0.005698260075101154 -0.09127832294456956 0.09409190782858735
0.020092496126536543 -0.08883289905443166 0.08345124167441402
0.034486732177971935 -0.08638747516429376 0.0728105755202407
0.04888096822940732 -0.08394205127415587 0.06216990936606737
0.06327520428084271 -0.08149662738401796 0.051529243211894046
0.0776694403322781 -0.07905120349388006 0.040888577057720726
0.09206367638371349 -0.07660577960374217 0.030247910903547396
0.10645791243514889 -0.07416035571360427 0.01960724474937407
0.12085214848658428 -0.07171493182346636 0.008966578595200742
-0.12085214848658428 0.07171493182346636 -0.008966578595200742
-0.10645791243514889 0.07416035571360427 -0.01960724474937407
-0.0920636763837135 0.07660577960374217 -0.03024791090354739
-0.07766944033227811 0.07905120349388006 -0.04088857705772072
-0.06327520428084271 0.08149662738401796 -0.051529243211894046
-0.04888096822940732 0.08394205127415587 -0.06216990936606737
-0.03448673217797194 0.08638747516429376 -0.07281057552024069
-0.02009249612653655 0.08883289905443166 -0.08345124167441402
-0.005698260075101154 0.09127832294456956 -0.09409190782858735
0.008695975976334229 0.09372374683470747 -0.10473257398276067
-0.11006297826615886 0.07122640696379157 0.005516275237094696
-0.09566874221472348 0.07367183085392948 -0.005124390917078631
-0.08127450616328809 0.07611725474406737 -0.01576505707125195
-0.0668802701118527 0.07856267863420527 -0.026405723225425278
-0.05248603406041731 0.08100810252434316 -0.03704638937959861
-0.03809179800898192 0.08345352641448107 -0.047687055533771935
-0.023697561957546538 0.08589895030461897 -0.058327721687945255
-0.009303325906111144 0.08834437419475687 -0.06896838784211859
0.0050909101453242515 0.09078979808489476 -0.07960905399629191
0.019485146196759635 0.09323522197503267 -0.09024972015046524
-0.09927380804573346 0.07073788210411677 0.019999129069390126
-0.08487957199429808 0.07318330599425468 0.0093584629152168
-0.07048533594286269 0.07562872988439258 -0.0012822032389565197
-0.056091099891427305 0.07807415377453047 -0.011922869393129847
-0.04169686383999191 0.08051957766466837 -0.022563535547303174
-0.027302627788556518 0.08296500155480628 -0.033204201701476505
-0.012908391737121137 0.08541042544494418 -0.043844867855649824
0.0014858443143142576 0.08785584933508207 -0.05448553400982315
0.015880080365749654 0.09030127322521997 -0.06512620016399648
0.030274316417185036 0.09274669711535788 -0.07576686631816981
-0.08848463782530806 0.07024935724444199 0.03448198290168556
-0.07409040177387267 0.0726947811345799 0.023841316747512234
-0.059696165722437286 0.0751402050247178 0.013200650593338916
-0.0453019296710019 0.0775856289148557 0.0025599844391655884
-0.03090769361956651 0.08003105280499359 -0.00808068171500774
-0.016513457568131117 0.0824764766951315 -0.018721347869181067
-0.0021192215166957328 0.0849219005852694 -0.029362014023354387
0.012275014534739661 0.0873673244754073 -0.04000268017752772
0.026669250586175055 0.08981274836554519 -0.05064334633170105
0.04106348663761044 0.0922581722556831 -0.061284012485874374
-0.07769546760488266 0.0697608323847672 0.048964836733981006
-0.06330123155344727 0.07220625627490511 0.03832417057980768
-0.04890699550201188 0.074651680165043 0.027683504425634355
-0.03451275945057649 0.0770971040551809 0.01704283827146103
-0.0201185233991411 0.0795425279453188 0.0064021721172877
-0.005724287347705709 0.08198795183545671 -0.004238494036885627
0.008669948703729675 0.0844333757255946 -0.014879160191058947
0.023064184755165067 0.0868787996157325 -0.02551982634523228
0.037458420806600466 0.0893242235058704 -0.0361604924994056
0.05185265685803585 0.0917696473960083 -0.04680115865357893
-0.06690629738445725 0.0692723075250924 0.06344769056627644
-0.052512061333021866 0.07171773141523032 0.05280702441210311
-0.03811782528158648 0.07416315530536821 0.04216635825792979
-0.023723589230151085 0.07660857919550611 0.03152569210375646
-0.009329353178715695 0.079054003085644 0.020885025949583136
0.0050648828727196974 0.08149942697578191 0.01024435979540981
0.01945911892415508 0.08394485086591981 -0.00039630635876350943
0.03385335497559047 0.0863902747560577 -0.011036972512936841
0.04824759102702587 0.0888356986461956 -0.021677638667110168
0.06264182707846125 0.09128112253633351 -0.0323183048212835
-0.05611712716403185 0.06878378266541761 0.07793054439857187
-0.041722891112596465 0.07122920655555552 0.06728987824439854
-0.027328655061161077 0.07367463044569342 0.05664921209022522
-0.012934419009725688 0.07612005433583131 0.046008545936051894
0.0014598170417097045 0.07856547822596921 0.03536787978187857
0.015854053093145096 0.08101090211610712 0.02472721362770524
0.03024828914458048 0.08345632600624502 0.01408654747353192
0.04464252519601587 0.08590174989638291 0.0034458813193585878
0.05903676124745127 0.08834717378652081 -0.007194784834814739
0.07343099729888665 0.09079259767665872 -0.017835450988988068
-0.045327956943606446 0.06829525780574283 0.0924133982308673
-0.030933720892171057 0.07074068169588074 0.08177273207669399
-0.01653948484073567 0.07318610558601864 0.07113206592252067
-0.00214524878930028 0.07563152947615653 0.06049139976834734
0.012248987262135112 0.07807695336629443 0.049850733614174005
0.026643223313570503 0.08052237725643234 0.03921006746000068
0.041037459365005885 0.08296780114657024 0.02856940130582736
0.05543169541644128 0.08541322503670813 0.017928735151654027
0.06982593146787668 0.08785864892684603 0.007288068997480701
0.08422016751931206 0.09030407281698394 -0.0033525971566926256
-0.03453878672318104 0.06780673294606804 0.10689625206316275
-0.020144550671745653 0.07025215683620595 0.09625558590898942
-0.005750314620310263 0.07269758072634384 0.0856149197548161
0.008643921431125126 0.07514300461648174 0.07497425360064278
0.023038157482560516 0.07758842850661964 0.06433358744646944
0.03743239353399591 0.08003385239675755 0.053692921292296115
0.05182662958543129 0.08247927628689544 0.043052255138122796
0.06622086563686669 0.08492470017703334 0.03241158898394947
0.08061510168830208 0.08737012406717123 0.02177092282977614
0.09500933773973746 0.08981554795730914 0.011130256675602811
-0.023749616502755633 0.06731820808639324 0.12137910589545818
-0.009355380451320247 0.06976363197653115 0.11073843974128486
0.0050388556001151425 0.07220905586666905 0.10009777358711154
0.019433091651550532 0.07465447975680695 0.08945710743293821
0.033827327702985924 0.07709990364694484 0.07881644127876489
0.04822156375442131 0.07954532753708275 0.06817577512459155
0.0626157998058567 0.08199075142722065 0.05753510897041823
0.07701003585729209 0.08443617531735854 0.046894442816244906
0.09140427190872749 0.08688159920749644 0.03625377666207158
0.10579850796016287 0.08932702309763435 0.02561311050789825
-0.10579850796016287 -0.08932702309763435 -0.02561311050789825
-0.09140427190872749 -0.08688159920749644 -0.03625377666207158
-0.0770100358572921 -0.08443617531735854 -0.046894442816244906
-0.06261579980585671 -0.08199075142722065 -0.057535108970418226
-0.04822156375442131 -0.07954532753708275 -0.06817577512459155
-0.033827327702985924 -0.07709990364694484 -0.07881644127876489
-0.01943309165155054 -0.07465447975680695 -0.08945710743293821
-0.0050388556001151495 -0.07220905586666905 -0.10009777358711153
0.009355380451320247 -0.06976363197653115 -0.11073843974128486
0.023749616502755633 -0.06731820808639324 -0.12137910589545818
-0.1074711346853208 -0.07143347255084538 -0.02376349585093186
-0.09307689863388542 -0.06898804866070747 -0.03440416200510519
-0.07868266258245003 -0.06654262477056958 -0.045044828159278516
-0.06428842653101464 -0.06409720088043168 -0.055685494313451836
-0.04989419047957925 -0.06165177699029379 -0.06632616046762517
-0.035499954428143854 -0.05920635310015589 -0.07696682662179849
-0.021105718376708476 -0.056760929210017984 -0.08760749277597181
-0.00671148232527308 -0.05431550531988009 -0.09824815893014514
0.007682753726162316 -0.051870081429742185 -0.10888882508431846
0.02207698977759769 -0.04942465753960429 -0.1195294912384918
-0.10914376141047874 -0.05353992200405642 -0.02191388119396547
-0.09474952535904335 -0.05109449811391852 -0.0325545473481388
-0.08035528930760796 -0.04864907422378062 -0.043195213502312126
-0.06596105325617257 -0.04620365033364272 -0.053835879656485446
-0.05156681720473718 -0.04375822644350482 -0.06447654581065877
-0.03717258115330179 -0.041312802553366924 -0.0751172119648321
-0.022778345101866406 -0.03886737866322902 -0.08575787811900543
-0.008384109050431016 -0.036421954773091125 -0.09639854427317876
0.0060101270010043785 -0.03397653088295322 -0.10703921042735208
0.02040436305243976 -0.031531106992815326 -0.1176798765815254
-0.11081638813563667 -0.035646371457267456 -0.020064266536999085
-0.09642215208420128 -0.03320094756712955 -0.030704932691172405
-0.0820279160327659 -0.030755523676991654 -0.041345598845345735
-0.0676336799813305 -0.028310099786853754 -0.051986264999519055
-0.05323944392989512 -0.025864675896715855 -0.06262693115369239
-0.03884520787845972 -0.02341925200657795 -0.07326759730786571
-0.02445097182702434 -0.020973828116440055 -0.08390826346203903
-0.010056735775588946 -0.018528404226302152 -0.09454892961621236
0.004337500275846448 -0.016082980336164256 -0.10518959577038568
0.01873173632728183 -0.013637556446026353 -0.11583026192455902
-0.1124890148607946 -0.017752820910478476 -0.018214651880032687
-0.09809477880935923 -0.01530739702034058 -0.028855318034206014
-0.08370054275792384 -0.01286197313020268 -0.039495984188379345
-0.06930630670648844 -0.010416549240064781 -0.050136650342552665
-0.05491207065505305 -0.00797112534992688 -0.060777316496726
-0.04051783460361766 -0.005525701459788981 -0.07141798265089933
-0.026123598552182273 -0.003080277569651082 -0.08205864880507265
-0.011729362500746883 -0.0006348536795131818 -0.09269931495924598
0.002664873550688511 0.0018105702106247176 -0.1033399811134193
0.0170591096021239 0.004255994100762617 -0.11398064726759262
-0.11416164158595254 0.00014072963631049076 -0.016365037223066304
-0.09976740553451716 0.0025861535264483904 -0.02700570337723963
-0.08537316948308177 0.005031577416586289 -0.037646369531412954
-0.07097893343164638 0.007477001306724188 -0.048287035685586274
-0.056584697380210984 0.00992242519686209 -0.05892770183975961
-0.04219046132877559 0.012367849086999989 -0.06956836799393293
-0.02779622527734021 0.014813272977137887 -0.08020903414810625
-0.013401989225904814 0.017258696867275786 -0.09084970030227958
0.000992246825530581 0.01970412075741369 -0.10149036645645292
0.015386482876965956 0.022149544647551585 -0.11213103261062624
-0.11583426831111047 0.01803428018309945 -0.014515422566099914
-0.10144003225967509 0.02047970407323735 -0.02515608872027324
-0.0870457962082397 0.022925127963375248 -0.035796754874446564
-0.07265156015680431 0.025370551853513147 -0.046437421028619884
-0.058257324105368914 0.027815975743651047 -0.05707808718279322
-0.043863088053933526 0.03026139963378895 -0.06771875333696654
-0.02946885200249814 0.03270682352392684 -0.07835941949113986
-0.01507461595106275 0.035152247414064745 -0.0890000856453132
-0.0006803798996273561 0.03759767130420264 -0.09964075179948652
0.013713856151808026 0.040043095194340544 -0.11028141795365985
-0.1175068950362684 0.03592783072988842 -0.012665807909133523
-0.10311265898483302 0.03837325462002632 -0.02330647406330685
-0.08871842293339763 0.04081867851016422 -0.03394714021748017
-0.07432418688196224 0.04326410240030212 -0.04458780637165349
-0.05992995083052685 0.04570952629044002 -0.05522847252582683
-0.045535714779091456 0.048154950180577916 -0.06586913868000015
-0.031141478727656078 0.05060037407071582 -0.07650980483417347
-0.016747242676220683 0.053045797960853715 -0.0871504709883468
-0.0023530066247852864 0.05549122185099162 -0.09779113714252013
0.012041229426650096 0.057936645741129514 -0.10843180329669345
-0.11917952176142634 0.05382138127667739 -0.010816193252167133
-0.10478528570999096 0.05626680516681529 -0.02145685940634046
-0.09039104965855557 0.05871222905695319 -0.03209752556051378
-0.07599681360712018 0.061157652947091086 -0.04273819171468711
-0.06160257755568478 0.06360307683722899 -0.05337885786886044
-0.04720834150424939 0.0660485007273669 -0.06401952402303376
-0.032814105452814005 0.0684939246175048 -0.07466019017720708
-0.01841986940137862 0.07093934850764269 -0.08530085633138042
-0.0040256333499432235 0.07338477239778059 -0.09594152248555374
0.010368602701492159 0.0758301962879185 -0.10658218863972707
-0.12085214848658428 0.07171493182346636 -0.008966578595200742
-0.10645791243514889 0.07416035571360427 -0.01960724474937407
-0.0920636763837135 0.07660577960374217 -0.03024791090354739
-0.07766944033227811 0.07905120349388006 -0.04088857705772072
-0.06327520428084271 0.08149662738401796 -0.051529243211894046
-0.04888096822940732 0.08394205127415587 -0.06216990936606737
-0.03448673217797194 0.08638747516429376 -0.07281057552024069
-0.02009249612653655 0.08883289905443166 -0.08345124167441402
-0.005698260075101154 0.09127832294456956 -0.09409190782858735
0.008695975976334229 0.09372374683470747 -0.10473257398276067
-0.008695975976334229 -0.09372374683470747 0.10473257398276067
0.005698260075101154 -0.09127832294456956 0.09409190782858735
0.020092496126536543 -0.08883289905443166 0.08345124167441402
0.034486732177971935 -0.08638747516429376 0.0728105755202407
0.04888096822940732 -0.08394205127415587 0.06216990936606737
0.06327520428084271 -0.08149662738401796 0.051529243211894046
0.0776694403322781 -0.07905120349388006 0.040888577057720726
0.09206367638371349 -0.07660577960374217 0.030247910903547396
0.10645791243514889 -0.07416035571360427 0.01960724474937407
0.12085214848658428 -0.07171493182346636 0.008966578595200742
-0.010368602701492159 -0.0758301962879185 0.10658218863972707
0.0040256333499432235 -0.07338477239778059 0.09594152248555374
0.018419869401378613 -0.07093934850764269 0.08530085633138042
0.032814105452814 -0.0684939246175048 0.0746601901772071
0.04720834150424939 -0.0660485007273669 0.06401952402303376
0.06160257755568478 -0.06360307683722899 0.05337885786886044
0.07599681360712017 -0.061157652947091086 0.04273819171468712
0.09039104965855556 -0.05871222905695319 0.03209752556051379
0.10478528570999096 -0.05626680516681529 0.02145685940634046
0.11917952176142634 -0.05382138127667739 0.010816193252167133
-0.012041229426650096 -0.05793664574112952 0.10843180329669345
0.0023530066247852864 -0.055491221850991625 0.09779113714252013
0.016747242676220676 -0.05304579796085372 0.0871504709883468
0.031141478727656064 -0.050600374070715826 0.07650980483417348
0.045535714779091456 -0.04815495018057792 0.06586913868000015
0.05992995083052685 -0.045709526290440027 0.05522847252582683
0.07432418688196224 -0.043264102400302124 0.04458780637165351
0.08871842293339763 -0.04081867851016423 0.03394714021748017
0.10311265898483302 -0.038373254620026324 0.02330647406330685
0.1175068950362684 -0.03592783072988843 0.012665807909133523
-0.013713856151808026 -0.04004309519434056 0.11028141795365984
0.0006803798996273561 -0.037597671304202655 0.09964075179948652
0.015074615951062744 -0.03515224741406476 0.0890000856453132
0.029468852002498134 -0.03270682352392686 0.07835941949113988
0.043863088053933526 -0.030261399633788964 0.06771875333696654
0.058257324105368914 -0.02781597574365106 0.05707808718279322
0.0726515601568043 -0.025370551853513165 0.0464374210286199
0.0870457962082397 -0.02292512796337526 0.035796754874446564
0.10144003225967509 -0.020479704073237365 0.02515608872027324
0.11583426831111047 -0.018034280183099462 0.014515422566099907
-0.015386482876965956 -0.022149544647551585 0.11213103261062624
-0.000992246825530581 -0.01970412075741369 0.10149036645645292
0.013401989225904807 -0.01725869686727579 0.09084970030227958
0.0277962252773402 -0.01481327297713789 0.08020903414810626
0.04219046132877559 -0.012367849086999989 0.06956836799393293
0.056584697380210984 -0.00992242519686209 0.05892770183975961
0.07097893343164637 -0.00747700130672419 0.04828703568558629
0.08537316948308175 -0.0050315774165862895 0.037646369531412954
0.09976740553451716 -0.0025861535264483904 0.02700570337723963
0.11416164158595254 -0.00014072963631049076 0.016365037223066304
-0.0170591096021239 -0.004255994100762617 0.11398064726759262
-0.002664873550688511 -0.0018105702106247176 0.1033399811134193
0.011729362500746876 0.000634853679513181 0.09269931495924598
0.026123598552182263 0.0030802775696510804 0.08205864880507266
0.04051783460361766 0.005525701459788981 0.07141798265089933
0.05491207065505305 0.00797112534992688 0.060777316496726
0.06930630670648844 0.010416549240064778 0.05013665034255268
0.08370054275792382 0.012861973130202679 0.039495984188379345
0.09809477880935923 0.01530739702034058 0.028855318034206014
0.1124890148607946 0.017752820910478476 0.018214651880032687
-0.01873173632728183 0.01363755644602634 0.11583026192455902
-0.004337500275846448 0.016082980336164242 0.10518959577038568
0.01005673577558894 0.01852840422630214 0.09454892961621236
0.024450971827024333 0.020973828116440038 0.08390826346203904
0.03884520787845972 0.023419252006577938 0.07326759730786571
0.05323944392989512 0.02586467589671584 0.06262693115369239
0.0676336799813305 0.028310099786853737 0.05198626499951906
0.0820279160327659 0.03075552367699164 0.041345598845345735
0.09642215208420128 0.03320094756712954 0.030704932691172405
0.11081638813563667 0.03564637145726744 0.020064266536999078
-0.02040436305243976 0.03153110699281532 0.1176798765815254
-0.0060101270010043785 0.033976530882953215 0.10703921042735208
0.008384109050431009 0.03642195477309112 0.09639854427317876
0.0227783451018664 0.038867378663229014 0.08575787811900544
0.03717258115330179 0.04131280255336692 0.0751172119648321
0.05156681720473718 0.043758226443504813 0.06447654581065877
0.06596105325617256 0.046203650333642717 0.05383587965648546
0.08035528930760796 0.04864907422378061 0.043195213502312126
0.09474952535904335 0.051094498113918516 0.0325545473481388
0.10914376141047874 0.05353992200405641 0.02191388119396547
-0.02207698977759769 0.04942465753960429 0.1195294912384918
-0.007682753726162316 0.051870081429742185 0.10888882508431846
0.006711482325273073 0.05431550531988009 0.09824815893014514
0.021105718376708462 0.056760929210017984 0.08760749277597182
0.035499954428143854 0.05920635310015589 0.07696682662179849
0.04989419047957925 0.06165177699029379 0.06632616046762517
0.06428842653101463 0.06409720088043168 0.05568549431345184
0.07868266258245002 0.06654262477056958 0.045044828159278516
0.09307689863388542 0.06898804866070747 0.03440416200510519
0.1074711346853208 0.07143347255084538 0.02376349585093186
-0.023749616502755633 0.06731820808639324 0.12137910589545818
-0.009355380451320247 0.06976363197653115 0.11073843974128486
0.0050388556001151425 0.07220905586666905 0.10009777358711154
0.019433091651550532 0.07465447975680695 0.08945710743293821
0.033827327702985924 0.07709990364694484 0.07881644127876489
0.04822156375442131 0.07954532753708275 0.06817577512459155
0.0626157998058567 0.08199075142722065 0.05753510897041823
0.07701003585729209 0.08443617531735854 0.046894442816244906
0.09140427190872749 0.08688159920749644 0.03625377666207158
0.10579850796016287 0.08932702309763435 0.02561311050789825
