# .PCD v0.7 - Point Cloud Data file format
VERSION 0.7
FIELDS x y z
SIZE 4 4 4
TYPE F F F
COUNT 1 1 1
WIDTH 600
HEIGHT 1
VIEWPOINT 0 0 0 1 0 0 0
POINTS 600
DATA ascii
0.026900759745655492 -0.07839075034913794 -0.10674714491368693
0.020746336766342674 -0.062199064435465086 -0.10751502859719034
0.014591913787029858 -0.04600737852179223 -0.10828291228069374
0.00843749080771704 -0.029815692608119372 -0.10905079596419714
0.0022830678284042217 -0.01362400669444651 -0.10981867964770055
-0.0038713551509085963 0.002567679219226346 -0.11058656333120395
-0.010025778130221407 0.018759365132899195 -0.11135444701470736
-0.016180201109534227 0.034951051046572056 -0.11212233069821077
-0.022334624088847045 0.05114273696024491 -0.11289021438171418
-0.028489047068159863 0.06733442287391779 -0.11365809806521758
0.015527218702649974 -0.08211885866374821 -0.09420198517678763
0.009372795723337156 -0.06592717275007536 -0.09496986886029103
0.003218372744024338 -0.0497354868364025 -0.09573775254379444
-0.00293605023528848 -0.03354380092272964 -0.09650563622729784
-0.009090473214601298 -0.01735211500905678 -0.09727351991080126
-0.015244896193914117 -0.0011604290953839249 -0.09804140359430466
-0.021399319173226926 0.015031256818288926 -0.09880928727780806
-0.027553742152539744 0.031222942731961783 -0.09957717096131147
-0.03370816513185256 0.04741462864563464 -0.10034505464481487
-0.03986258811116538 0.06360631455930751 -0.10111293832831827
0.0041536776596444586 -0.08584696697835849 -0.08165682543988834
-0.002000745319668359 -0.06965528106468563 -0.08242470912339174
-0.008155168298981177 -0.05346359515101277 -0.08319259280689514
-0.014309591278293995 -0.03727190923733991 -0.08396047649039855
-0.020464014257606813 -0.02108022332366705 -0.08472836017390196
-0.02661843723691963 -0.004888537409994194 -0.08549624385740537
-0.03277286021623244 0.011303148503678655 -0.08626412754090877
-0.03892728319554526 0.027494834417351514 -0.08703201122441218
-0.04508170617485808 0.043686520331024374 -0.08779989490791558
-0.0512361291541709 0.059878206244697245 -0.08856777859141898
-0.007219863383361056 -0.08957507529296875 -0.06911166570298904
-0.013374286362673874 -0.0733833893792959 -0.06987954938649245
-0.01952870934198669 -0.05719170346562304 -0.07064743306999585
-0.02568313232129951 -0.04100001755195018 -0.07141531675349926
-0.03183755530061233 -0.02480833163827732 -0.07218320043700266
-0.03799197827992515 -0.008616645724604464 -0.07295108412050606
-0.04414640125923796 0.007575040189068386 -0.07371896780400947
-0.05030082423855078 0.023766726102741245 -0.07448685148751288
-0.056455247217863595 0.039958412016414105 -0.07525473517101629
-0.0626096701971764 0.056150097930086976 -0.07602261885451969
-0.018593404426366575 -0.09330318360757903 -0.05656650596608974
-0.024747827405679393 -0.07711149769390617 -0.05733438964959314
-0.03090225038499221 -0.060919811780233306 -0.058102273333096546
-0.03705667336430503 -0.04472812586656045 -0.05887015701659995
-0.04321109634361785 -0.028536439952887592 -0.05963804070010336
-0.049365519322930665 -0.012344754039214735 -0.060405924383606764
-0.055519942302243476 0.0038469318744581153 -0.06117380806711017
-0.061674365281556294 0.020038617788130972 -0.06194169175061358
-0.0678287882608691 0.036230303701803836 -0.06270957543411698
-0.07398321124018192 0.052421989615476706 -0.06347745911762039
-0.02996694546937209 -0.09703129192218929 -0.04402134622919045
-0.03612136844868491 -0.08083960600851643 -0.04478922991269385
-0.04227579142799773 -0.06464792009484358 -0.045557113596197255
-0.048430214407310546 -0.048456234181170725 -0.04632499727970066
-0.054584637386623364 -0.03226454826749786 -0.04709288096320407
-0.06073906036593618 -0.016072862353825004 -0.04786076464670747
-0.066893483345249 0.00011882355984784516 -0.048628648330210876
-0.07304790632456182 0.016310509473520703 -0.04939653201371429
-0.07920232930387464 0.03250219538719356 -0.05016441569721769
-0.08535675228318745 0.04869388130086643 -0.050932299380721094
-0.0413404865123776 -0.10075940023679957 -0.031476186492291156
-0.04749490949169042 -0.08456771432312671 -0.03224407017579456
-0.05364933247100324 -0.06837602840945385 -0.03301195385929796
-0.059803755450316055 -0.05218434249578099 -0.033779837542801366
-0.06595817842962888 -0.03599265658210813 -0.03454772122630478
-0.0721126014089417 -0.019800970668435273 -0.03531560490980818
-0.0782670243882545 -0.003609284754762423 -0.036083488593311584
-0.08442144736756732 0.012582401158910433 -0.036851372276814995
-0.09057587034688014 0.028774087072583294 -0.0376192559603184
-0.09673029332619296 0.04496577298625617 -0.0383871396438218
-0.05271402755538312 -0.10448750855140983 -0.018931026755391853
-0.058868450534695936 -0.08829582263773697 -0.019698910438895257
-0.06502287351400876 -0.07210413672406411 -0.02046679412239866
-0.07117729649332158 -0.05591245081039126 -0.021234677805902064
-0.0773317194726344 -0.0397207648967184 -0.022002561489405475
-0.08348614245194722 -0.023529078983045543 -0.02277044517290888
-0.08964056543126002 -0.007337393069372694 -0.023538328856412282
-0.09579498841057284 0.008854292844300164 -0.024306212539915693
-0.10194941138988566 0.025045978757973025 -0.025074096223419096
-0.10810383436919847 0.04123766467164589 -0.0258419799069225
-0.06408756859838864 -0.1082156168660201 -0.006385867018492554
-0.07024199157770146 -0.09202393095234725 -0.007153750701995957
-0.07639641455701428 -0.07583224503867439 -0.007921634385499362
-0.0825508375363271 -0.05964055912500153 -0.008689518069002766
-0.08870526051563991 -0.04344887321132867 -0.009457401752506176
-0.09485968349495273 -0.027257187297655815 -0.01022528543600958
-0.10101410647426554 -0.011065501383982965 -0.010993169119512983
-0.10716852945357835 0.005126184529689892 -0.011761052803016394
-0.11332295243289117 0.021317870443362752 -0.012528936486519798
-0.11947737541220399 0.03750955635703562 -0.013296820170023201
-0.07546110964139416 -0.11194372518063038 0.006159292718406747
-0.08161553262070698 -0.09575203926695752 0.005391409034903343
-0.0877699556000198 -0.07956035335328467 0.004623525351399939
-0.09392437857933261 -0.06336866743961181 0.0038556416678965358
-0.10007880155864543 -0.047176981525938945 0.003087757984393125
-0.10623322453795825 -0.030985295612266085 0.0023198743008897215
-0.11238764751727107 -0.014793609698593236 0.001551990617386318
-0.11854207049658388 0.0013980762150796213 0.0007841069338829074
-0.1246964934758967 0.017589762128752483 1.6223250379503792e-05
-0.13085091645520952 0.033781448042425354 -0.0007516604331238998
0.13085091645520952 -0.033781448042425354 0.0007516604331238998
0.1246964934758967 -0.017589762128752483 -1.6223250379503792e-05
0.11854207049658388 -0.0013980762150796282 -0.0007841069338829074
0.11238764751727107 0.014793609698593226 -0.001551990617386311
0.10623322453795825 0.030985295612266085 -0.0023198743008897215
0.10007880155864543 0.047176981525938945 -0.003087757984393125
0.09392437857933263 0.0633686674396118 -0.003855641667896529
0.08776995560001981 0.07956035335328465 -0.004623525351399939
0.08161553262070698 0.09575203926695752 -0.005391409034903343
0.07546110964139416 0.11194372518063038 -0.006159292718406747
0.11947737541220399 -0.03750955635703562 0.013296820170023201
0.11332295243289117 -0.021317870443362752 0.012528936486519798
0.10716852945357835 -0.005126184529689899 0.011761052803016394
0.10101410647426555 0.011065501383982955 0.01099316911951299
0.09485968349495273 0.027257187297655815 0.01022528543600958
0.08870526051563991 0.04344887321132867 0.009457401752506176
0.0825508375363271 0.05964055912500152 0.008689518069002772
0.07639641455701428 0.07583224503867438 0.007921634385499362
0.07024199157770146 0.09202393095234725 0.007153750701995957
0.06408756859838864 0.1082156168660201 0.006385867018492554
0.10810383436919849 -0.04123766467164589 0.025841979906922496
0.10194941138988567 -0.02504597875797302 0.025074096223419093
0.09579498841057285 -0.00885429284430017 0.02430621253991569
0.08964056543126003 0.007337393069372685 0.023538328856412286
0.08348614245194722 0.023529078983045546 0.022770445172908875
0.0773317194726344 0.0397207648967184 0.02200256148940547
0.07117729649332159 0.05591245081039125 0.021234677805902068
0.06502287351400877 0.0721041367240641 0.020466794122398657
0.05886845053469594 0.08829582263773697 0.019698910438895254
0.052714027555383125 0.10448750855140983 0.01893102675539185
0.09673029332619297 -0.04496577298625616 0.03838713964382179
0.09057587034688015 -0.02877408707258329 0.037619255960318385
0.08442144736756733 -0.012582401158910439 0.03685137227681498
0.07826702438825452 0.0036092847547624153 0.03608348859331158
0.0721126014089417 0.019800970668435277 0.03531560490980817
0.06595817842962888 0.03599265658210813 0.03454772122630476
0.05980375545031607 0.05218434249578098 0.03377983754280136
0.05364933247100325 0.06837602840945384 0.03301195385929795
0.047494909491690426 0.08456771432312671 0.032244070175794545
0.04134048651237761 0.10075940023679957 0.03147618649229114
0.08535675228318745 -0.04869388130086643 0.050932299380721094
0.07920232930387464 -0.03250219538719356 0.05016441569721769
0.07304790632456182 -0.01631050947352071 0.04939653201371429
0.066893483345249 -0.00011882355984785557 0.04862864833021088
0.06073906036593618 0.016072862353825004 0.04786076464670747
0.054584637386623364 0.03226454826749786 0.04709288096320407
0.04843021440731055 0.04845623418117071 0.046324997279700665
0.042275791427997735 0.06464792009484356 0.045557113596197255
0.03612136844868491 0.08083960600851643 0.04478922991269385
0.02996694546937209 0.09703129192218929 0.04402134622919045
0.07398321124018192 -0.052421989615476706 0.06347745911762039
0.0678287882608691 -0.036230303701803836 0.06270957543411698
0.061674365281556294 -0.02003861778813098 0.06194169175061358
0.05551994230224348 -0.0038469318744581258 0.061173808067110175
0.049365519322930665 0.012344754039214735 0.060405924383606764
0.04321109634361785 0.028536439952887592 0.05963804070010336
0.037056673364305036 0.044728125866560435 0.05887015701659996
0.030902250384992218 0.06091981178023329 0.058102273333096546
0.024747827405679393 0.07711149769390617 0.05733438964959314
0.018593404426366575 0.09330318360757903 0.05656650596608974
0.06260967019717642 -0.05615009793008697 0.07602261885451968
0.0564552472178636 -0.0399584120164141 0.07525473517101627
0.050300824238550784 -0.023766726102741248 0.07448685148751287
0.04414640125923797 -0.0075750401890683945 0.07371896780400947
0.037991978279925155 0.008616645724604466 0.07295108412050606
0.03183755530061234 0.024808331638277323 0.07218320043700266
0.025683132321299523 0.04100001755195017 0.07141531675349926
0.019528709341986705 0.05719170346562303 0.07064743306999584
0.013374286362673881 0.0733833893792959 0.06987954938649243
0.007219863383361063 0.08957507529296875 0.06911166570298903
0.051236129154170904 -0.059878206244697245 0.08856777859141898
0.045081706174858086 -0.043686520331024374 0.08779989490791558
0.03892728319554527 -0.027494834417351517 0.08703201122441218
0.032772860216232456 -0.011303148503678664 0.08626412754090877
0.026618437236919635 0.004888537409994196 0.08549624385740535
0.020464014257606817 0.021080223323667054 0.08472836017390195
0.014309591278294006 0.0372719092373399 0.08396047649039855
0.008155168298981188 0.053463595151012754 0.08319259280689514
0.0020007453196683638 0.06965528106468563 0.08242470912339174
-0.004153677659644454 0.08584696697835849 0.08165682543988834
0.03986258811116538 -0.06360631455930751 0.10111293832831827
0.03370816513185256 -0.04741462864563464 0.10034505464481487
0.027553742152539744 -0.03122294273196179 0.09957717096131147
0.021399319173226933 -0.015031256818288936 0.09880928727780806
0.015244896193914117 0.0011604290953839249 0.09804140359430466
0.009090473214601298 0.01735211500905678 0.09727351991080126
0.002936050235288487 0.03354380092272963 0.09650563622729785
-0.003218372744024331 0.049735486836402484 0.09573775254379444
-0.009372795723337156 0.06592717275007536 0.09496986886029103
-0.015527218702649974 0.08211885866374821 0.09420198517678763
0.028489047068159863 -0.06733442287391779 0.11365809806521758
0.022334624088847045 -0.05114273696024491 0.11289021438171418
0.016180201109534227 -0.03495105104657206 0.11212233069821077
0.010025778130221414 -0.018759365132899206 0.11135444701470737
0.0038713551509085963 -0.002567679219226346 0.11058656333120395
-0.0022830678284042217 0.01362400669444651 0.10981867964770055
-0.008437490807717033 0.029815692608119358 0.10905079596419714
-0.01459191378702985 0.046007378521792215 0.10828291228069374
-0.020746336766342674 0.062199064435465086 0.10751502859719034
-0.026900759745655492 0.07839075034913794 0.10674714491368693
0.026900759745655492 -0.07839075034913794 -0.10674714491368693
0.038450777157828166 -0.07343416120394765 -0.09480283320848573
0.05000079457000083 -0.06847757205875736 -0.08285852150328452
0.0615508119821735 -0.06352098291356707 -0.07091420979808331
0.07310082939434617 -0.05856439376837679 -0.05896989809288212
0.08465084680651884 -0.053607804623186504 -0.04702558638768091
0.0962008642186915 -0.04865121547799622 -0.035081274682479714
0.10775088163086419 -0.04369462633280593 -0.023136962977278512
0.11930089904303685 -0.03873803718761564 -0.011192651272077303
0.13085091645520952 -0.033781448042425354 0.0007516604331238998
0.015527218702649974 -0.08211885866374821 -0.09420198517678763
0.02707723611482265 -0.07716226951855792 -0.08225767347158643
0.038627253526995316 -0.07220568037336764 -0.07031336176638522
0.05017727093916798 -0.06724909122817735 -0.05836905006118402
0.061727288351340656 -0.06229250208298706 -0.04642473835598281
0.07327730576351332 -0.057335912937796774 -0.03448042665078161
0.08482732317568599 -0.052379323792606486 -0.022536114945580412
0.09637734058785866 -0.0474227346474162 -0.01059180324037921
0.10792735800003132 -0.04246614550222591 0.0013525084648219983
0.11947737541220399 -0.03750955635703562 0.013296820170023201
0.0041536776596444586 -0.08584696697835849 -0.08165682543988834
0.015703695071817132 -0.0808903778331682 -0.06971251373468713
0.0272537124839898 -0.07593378868797791 -0.057768202029485925
0.038803729896162466 -0.07097719954278763 -0.04582389032428472
0.05035374730833514 -0.06602061039759734 -0.03387957861908352
0.061903764720507806 -0.06106402125240704 -0.021935266913882315
0.07345378213268047 -0.056107432107216755 -0.009990955208681117
0.08500379954485315 -0.05115084296202647 0.001953356496520085
0.09655381695702582 -0.04619425381683618 0.013897668201721294
0.10810383436919849 -0.04123766467164589 0.025841979906922496
-0.007219863383361056 -0.08957507529296875 -0.06911166570298904
0.004330154028811617 -0.08461848614777846 -0.05716735399778784
0.015880171440984286 -0.07966189700258818 -0.045223042292586633
0.027430188853156953 -0.07470530785739789 -0.03327873058738543
0.03898020626532962 -0.0697487187122076 -0.021334418882184222
0.05053022367750229 -0.06479212956701731 -0.00939010717698302
0.062080241089674956 -0.059835540421827024 0.002554204528218178
0.07363025850184764 -0.05487895127663674 0.01449851623341938
0.0851802759140203 -0.04992236213144645 0.02644282793862059
0.09673029332619297 -0.04496577298625616 0.03838713964382179
-0.018593404426366575 -0.09330318360757903 -0.05656650596608974
-0.007043387014193901 -0.08834659446238874 -0.04462219426088854
0.004506630397978766 -0.08339000531719845 -0.03267788255568733
0.016056647810151432 -0.07843341617200816 -0.02073357085048613
0.027606665222324106 -0.07347682702681788 -0.008789259145284925
0.03915668263449677 -0.06852023788162759 0.003155052559916279
0.05070670004666944 -0.0635636487364373 0.015099364265117477
0.06225671745884211 -0.058607059591247006 0.02704367597031868
0.07380673487101479 -0.05365047044605672 0.03898798767551989
0.08535675228318745 -0.04869388130086643 0.050932299380721094
-0.02996694546937209 -0.09703129192218929 -0.04402134622919045
-0.018416928057199418 -0.092074702776999 -0.032077034523989245
-0.006866910645026751 -0.08711811363180871 -0.020132722818788033
0.004683106767145916 -0.08216152448661843 -0.00818841111358683
0.01623312417931859 -0.07720493534142814 0.0037559005916143733
0.027783141591491256 -0.07224834619623785 0.015700212296815577
0.03933315900366392 -0.06729175705104756 0.027644524002016776
0.050883176415836597 -0.06233516790585728 0.039588835707217974
0.06243319382800926 -0.057378578760666994 0.051533147412419184
0.07398321124018192 -0.052421989615476706 0.06347745911762039
-0.0413404865123776 -0.10075940023679957 -0.031476186492291156
-0.02979046910020493 -0.09580281109160928 -0.01953187478708995
-0.018240451688032264 -0.09084622194641899 -0.007587563081888741
-0.006690434275859596 -0.0858896328012287 0.004356748623312461
0.004859583136313078 -0.08093304365603841 0.016301060328513667
0.016409600548485743 -0.07597645451084813 0.02824537203371487
0.02795961796065841 -0.07101986536565784 0.040189683738916064
0.03950963537283109 -0.06606327622046755 0.052133995444117266
0.051059652785003753 -0.061106687075277256 0.06407830714931848
0.06260967019717642 -0.05615009793008697 0.07602261885451968
-0.05271402755538312 -0.10448750855140983 -0.018931026755391853
-0.041164010143210444 -0.09953091940621954 -0.006986715050190652
-0.02961399273103778 -0.09457433026102925 0.004957596655010557
-0.018063975318865114 -0.08961774111583896 0.01690190836021176
-0.00651395790669244 -0.08466115197064868 0.028846220065412962
0.005036059505480227 -0.07970456282545839 0.04079053177061417
0.016586076917652893 -0.0747479736802681 0.05273484347581536
0.028136094329825567 -0.06979138453507781 0.06467915518101656
0.03968611174199824 -0.06483479538988753 0.07662346688621778
0.051236129154170904 -0.059878206244697245 0.08856777859141898
-0.06408756859838864 -0.1082156168660201 -0.006385867018492554
-0.05253755118621597 -0.10325902772082982 0.005558444686708648
-0.0409875337740433 -0.09830243857563953 0.017502756391909857
-0.029437516361870635 -0.09334584943044924 0.02944706809711106
-0.01788749894969796 -0.08838926028525895 0.041391379802312264
-0.006337481537525292 -0.08343267114006866 0.053335691507513466
0.005212535874647374 -0.07847608199487838 0.06528000321271467
0.016762553286820046 -0.07351949284968809 0.07722431491791587
0.028312570698992713 -0.0685629037044978 0.08916862662311707
0.03986258811116538 -0.06360631455930751 0.10111293832831827
-0.07546110964139416 -0.11194372518063038 0.006159292718406747
-0.06391109222922149 -0.10698713603544009 0.01810360442360795
-0.05236107481704882 -0.1020305468902498 0.03004791612880916
-0.04081105740487615 -0.09707395774505952 0.04199222783401036
-0.029261039992703478 -0.09211736859986923 0.05393653953921156
-0.01771102258053081 -0.08716077945467894 0.06588085124441277
-0.006161005168358146 -0.08220419030948865 0.07782516294961396
0.005389012243814528 -0.07724760116429837 0.08976947465481516
0.016939029655987196 -0.07229101201910808 0.10171378636001638
0.028489047068159863 -0.06733442287391779 0.11365809806521758
-0.028489047068159863 0.06733442287391779 -0.11365809806521758
-0.016939029655987196 0.07229101201910808 -0.10171378636001638
-0.005389012243814528 0.07724760116429837 -0.08976947465481518
0.006161005168358139 0.08220419030948865 -0.07782516294961397
0.01771102258053081 0.08716077945467894 -0.06588085124441277
0.029261039992703478 0.09211736859986923 -0.05393653953921156
0.040811057404876144 0.09707395774505952 -0.04199222783401037
0.05236107481704882 0.1020305468902498 -0.030047916128809162
0.06391109222922149 0.10698713603544009 -0.01810360442360795
0.07546110964139416 0.11194372518063038 -0.006159292718406747
-0.03986258811116538 0.06360631455930751 -0.10111293832831827
-0.028312570698992713 0.0685629037044978 -0.08916862662311707
-0.016762553286820046 0.07351949284968809 -0.07722431491791587
-0.005212535874647381 0.07847608199487838 -0.06528000321271467
0.006337481537525292 0.08343267114006866 -0.053335691507513466
0.01788749894969796 0.08838926028525895 -0.041391379802312264
0.029437516361870628 0.09334584943044924 -0.029447068097111066
0.040987533774043294 0.09830243857563953 -0.01750275639190986
0.05253755118621597 0.10325902772082982 -0.005558444686708648
0.06408756859838864 0.1082156168660201 0.006385867018492554
-0.0512361291541709 0.059878206244697245 -0.08856777859141898
-0.03968611174199823 0.06483479538988753 -0.07662346688621778
-0.028136094329825563 0.06979138453507781 -0.06467915518101658
-0.016586076917652896 0.0747479736802681 -0.05273484347581538
-0.005036059505480223 0.07970456282545839 -0.040790531770614175
0.006513957906692444 0.08466115197064868 -0.02884622006541297
0.01806397531886511 0.08961774111583896 -0.01690190836021177
0.02961399273103778 0.09457433026102925 -0.004957596655010566
0.04116401014321045 0.09953091940621954 0.006986715050190647
0.052714027555383125 0.10448750855140983 0.01893102675539185
-0.0626096701971764 0.056150097930086976 -0.07602261885451969
-0.05105965278500375 0.06110668707527726 -0.06407830714931849
-0.03950963537283108 0.06606327622046755 -0.05213399544411729
-0.02795961796065841 0.07101986536565784 -0.040189683738916085
-0.016409600548485736 0.07597645451084813 -0.028245372033714876
-0.004859583136313071 0.08093304365603841 -0.016301060328513674
0.006690434275859596 0.0858896328012287 -0.004356748623312475
0.018240451688032268 0.09084622194641899 0.0075875630818887305
0.029790469100204938 0.09580281109160928 0.019531874787089943
0.04134048651237761 0.10075940023679957 0.03147618649229114
-0.07398321124018192 0.052421989615476706 -0.06347745911762039
-0.06243319382800926 0.057378578760666994 -0.051533147412419184
-0.050883176415836597 0.06233516790585728 -0.03958883570721798
-0.03933315900366393 0.06729175705104756 -0.027644524002016783
-0.027783141591491256 0.07224834619623785 -0.015700212296815577
-0.01623312417931859 0.07720493534142814 -0.0037559005916143733
-0.0046831067671459226 0.08216152448661843 0.008188411113586824
0.006866910645026748 0.08711811363180871 0.02013272281878803
0.018416928057199418 0.092074702776999 0.032077034523989245
0.02996694546937209 0.09703129192218929 0.04402134622919045
-0.08535675228318745 0.04869388130086643 -0.050932299380721094
-0.07380673487101479 0.05365047044605672 -0.03898798767551989
-0.06225671745884211 0.058607059591247006 -0.027043675970318686
-0.050706700046669446 0.0635636487364373 -0.015099364265117484
-0.03915668263449677 0.06852023788162759 -0.003155052559916279
-0.027606665222324106 0.07347682702681788 0.008789259145284925
-0.01605664781015144 0.07843341617200816 0.020733570850486122
-0.004506630397978769 0.08339000531719845 0.03267788255568733
0.007043387014193901 0.08834659446238874 0.04462219426088854
0.018593404426366575 0.09330318360757903 0.05656650596608974
-0.09673029332619296 0.04496577298625617 -0.0383871396438218
-0.08518027591402029 0.049922362131446456 -0.026442827938620597
-0.07363025850184762 0.054878951276636743 -0.014498516233419394
-0.062080241089674956 0.05983554042182703 -0.0025542045282181927
-0.05053022367750228 0.06479212956701731 0.009390107176983013
-0.038980206265329616 0.0697487187122076 0.021334418882184215
-0.027430188853156953 0.07470530785739789 0.03327873058738541
-0.015880171440984282 0.07966189700258818 0.04522304229258662
-0.00433015402881161 0.08461848614777846 0.05716735399778783
0.007219863383361063 0.08957507529296875 0.06911166570298903
-0.10810383436919847 0.04123766467164589 -0.0258419799069225
-0.0965538169570258 0.04619425381683618 -0.0138976682017213
-0.08500379954485314 0.05115084296202647 -0.0019533564965200966
-0.07345378213268047 0.056107432107216755 0.009990955208681105
-0.0619037647205078 0.06106402125240704 0.021935266913882312
-0.05035374730833513 0.06602061039759734 0.033879578619083514
-0.038803729896162466 0.07097719954278763 0.04582389032428471
-0.0272537124839898 0.07593378868797791 0.05776820202948592
-0.01570369507181713 0.0808903778331682 0.06971251373468713
-0.004153677659644454 0.08584696697835849 0.08165682543988834
-0.11947737541220399 0.03750955635703562 -0.013296820170023201
-0.10792735800003132 0.04246614550222591 -0.0013525084648219983
-0.09637734058785866 0.0474227346474162 0.010591803240379203
-0.08482732317568599 0.052379323792606486 0.022536114945580405
-0.07327730576351332 0.057335912937796774 0.03448042665078161
-0.061727288351340656 0.06229250208298706 0.04642473835598281
-0.05017727093916799 0.06724909122817735 0.058369050061184015
-0.038627253526995316 0.07220568037336764 0.07031336176638522
-0.02707723611482265 0.07716226951855792 0.08225767347158643
-0.015527218702649974 0.08211885866374821 0.09420198517678763
-0.13085091645520952 0.033781448042425354 -0.0007516604331238998
-0.11930089904303685 0.03873803718761564 0.011192651272077303
-0.10775088163086419 0.04369462633280593 0.023136962977278505
-0.09620086421869152 0.04865121547799622 0.03508127468247971
-0.08465084680651884 0.053607804623186504 0.04702558638768091
-0.07310082939434617 0.05856439376837679 0.05896989809288212
-0.061550811982173506 0.06352098291356707 0.07091420979808331
-0.05000079457000084 0.06847757205875736 0.08285852150328452
-0.038450777157828166 0.07343416120394765 0.09480283320848573
-0.026900759745655492 0.07839075034913794 0.10674714491368693
0.026900759745655492 -0.07839075034913794 -0.10674714491368693
0.038450777157828166 -0.07343416120394765 -0.09480283320848573
0.05000079457000083 -0.06847757205875736 -0.08285852150328452
0.0615508119821735 -0.06352098291356707 -0.07091420979808331
0.07310082939434617 -0.05856439376837679 -0.05896989809288212
0.08465084680651884 -0.053607804623186504 -0.04702558638768091
0.0962008642186915 -0.04865121547799622 -0.035081274682479714
0.10775088163086419 -0.04369462633280593 -0.023136962977278512
0.11930089904303685 -0.03873803718761564 -0.011192651272077303
0.13085091645520952 -0.033781448042425354 0.0007516604331238998
0.020746336766342674 -0.062199064435465086 -0.10751502859719034
0.03229635417851535 -0.0572424752902748 -0.09557071689198914
0.043846371590688014 -0.05228588614508451 -0.08362640518678793
0.05539638900286068 -0.04732929699989422 -0.07168209348158673
0.06694640641503335 -0.04237270785470393 -0.05973778177638552
0.07849642382720602 -0.03741611870951364 -0.04779347007118432
0.09004644123937869 -0.03245952956432335 -0.03584915836598312
0.10159645865155137 -0.027502940419133065 -0.023904846660781916
0.11314647606372404 -0.022546351273942777 -0.011960534955580707
0.1246964934758967 -0.017589762128752483 -1.6223250379503792e-05
0.014591913787029858 -0.04600737852179223 -0.10828291228069374
0.02614193119920253 -0.041050789376601934 -0.09633860057549254
0.037691948611375196 -0.03609420023141165 -0.08439428887029134
0.04924196602354786 -0.03113761108622136 -0.07244997716509013
0.06079198343572054 -0.02618102194103107 -0.060505665459888926
0.0723420008478932 -0.021224432795840784 -0.048561353754687724
0.08389201826006587 -0.016267843650650496 -0.03661704204948652
0.09544203567223855 -0.011311254505460206 -0.02467273034428532
0.10699205308441122 -0.00635466536026992 -0.01272841863908411
0.11854207049658388 -0.0013980762150796282 -0.0007841069338829074
0.00843749080771704 -0.029815692608119372 -0.10905079596419714
0.01998750821988971 -0.024859103462929084 -0.09710648425899594
0.03153752563206238 -0.019902514317738797 -0.08516217255379474
0.043087543044235045 -0.014945925172548507 -0.07321786084859354
0.05463756045640772 -0.009989336027358216 -0.061273549143392336
0.06618757786858039 -0.005032746882167929 -0.04932923743819113
0.07773759528075305 -7.615773697764484e-05 -0.03738492573298993
0.08928761269292573 0.004880431408212644 -0.025440614027788726
0.1008376301050984 0.009837020553402935 -0.013496302322587514
0.11238764751727107 0.014793609698593226 -0.001551990617386311
0.0022830678284042217 -0.01362400669444651 -0.10981867964770055
0.013833085240576895 -0.008667417549256219 -0.09787436794249935
0.02538310265274956 -0.003710828404065932 -0.08593005623729814
0.03693312006492223 0.0012457607411243542 -0.07398574453209694
0.0484831374770949 0.0062023498863146434 -0.06204143282689574
0.06003315488926757 0.011158939031504932 -0.05009712112169454
0.07158317230144023 0.016115528176695218 -0.038152809416493336
0.08313318971361291 0.021072117321885506 -0.026208497711292134
0.09468320712578558 0.026028706467075793 -0.014264186006090925
0.10623322453795825 0.030985295612266085 -0.0023198743008897215
-0.0038713551509085963 0.002567679219226346 -0.11058656333120395
0.007678662261264077 0.007524268364416637 -0.09864225162600275
0.019228679673436742 0.012480857509606924 -0.08669793992080155
0.03077869708560941 0.017437446654797212 -0.07475362821560035
0.04232871449778208 0.0223940357999875 -0.06280931651039914
0.05387873190995475 0.027350624945177787 -0.05086500480519794
0.06542874932212742 0.032307214090368075 -0.03892069309999674
0.07697876673430008 0.03726380323555836 -0.026976381394795537
0.08852878414647276 0.04222039238074865 -0.015032069689594328
0.10007880155864543 0.047176981525938945 -0.003087757984393125
-0.010025778130221407 0.018759365132899195 -0.11135444701470736
0.0015242392819512591 0.023715954278089486 -0.09941013530950615
0.013074256694123926 0.028672543423279774 -0.08746582360430495
0.024624274106296595 0.03362913256847006 -0.07552151189910375
0.036174291518469265 0.03858572171366035 -0.06357720019390255
0.04772430893064194 0.04354231085885064 -0.051632888488701345
0.059274326342814605 0.048498900004040925 -0.03968857678350015
0.07082434375498728 0.05345548914923121 -0.027744265078298944
0.08237436116715995 0.0584120782944215 -0.015799953373097732
0.09392437857933263 0.0633686674396118 -0.003855641667896529
-0.016180201109534227 0.034951051046572056 -0.11212233069821077
-0.004630183697361559 0.03990764019176234 -0.10017801899300957
0.006919833714811108 0.04486422933695263 -0.08823370728780836
0.018469851126983773 0.04982081848214292 -0.07628939558260715
0.030019868539156447 0.054777407627333206 -0.06434508387740595
0.04156988595132912 0.059733996772523494 -0.052400772172204756
0.05311990336350179 0.06469058591771379 -0.040456460467003554
0.06466992077567446 0.06964717506290408 -0.02851214876180235
0.07621993818784713 0.07460376420809436 -0.016567837056601142
0.08776995560001981 0.07956035335328465 -0.004623525351399939
-0.022334624088847045 0.05114273696024491 -0.11289021438171418
-0.010784606676674377 0.05609932610543521 -0.10094590267651297
0.0007654107354982899 0.061055915250625495 -0.08900159097131177
0.012315428147670957 0.06601250439581578 -0.07705727926611057
0.02386544555984363 0.07096909354100607 -0.06511296756090937
0.035415462972016296 0.07592568268619636 -0.05316865585570816
0.04696548038418896 0.08088227183138665 -0.04122434415050696
0.058515497796361636 0.08583886097657693 -0.029280032445305755
0.07006551520853431 0.09079545012176723 -0.017335720740104546
0.08161553262070698 0.09575203926695752 -0.005391409034903343
-0.028489047068159863 0.06733442287391779 -0.11365809806521758
-0.016939029655987196 0.07229101201910808 -0.10171378636001638
-0.005389012243814528 0.07724760116429837 -0.08976947465481518
0.006161005168358139 0.08220419030948865 -0.07782516294961397
0.01771102258053081 0.08716077945467894 -0.06588085124441277
0.029261039992703478 0.09211736859986923 -0.05393653953921156
0.040811057404876144 0.09707395774505952 -0.04199222783401037
0.05236107481704882 0.1020305468902498 -0.030047916128809162
0.06391109222922149 0.10698713603544009 -0.01810360442360795
0.07546110964139416 0.11194372518063038 -0.006159292718406747
-0.07546110964139416 -0.11194372518063038 0.006159292718406747
-0.06391109222922149 -0.10698713603544009 0.01810360442360795
-0.05236107481704882 -0.1020305468902498 0.03004791612880916
-0.04081105740487615 -0.09707395774505952 0.04199222783401036
-0.029261039992703478 -0.09211736859986923 0.05393653953921156
-0.01771102258053081 -0.08716077945467894 0.06588085124441277
-0.006161005168358146 -0.08220419030948865 0.07782516294961396
0.005389012243814528 -0.07724760116429837 0.08976947465481516
0.016939029655987196 -0.07229101201910808 0.10171378636001638
0.028489047068159863 -0.06733442287391779 0.11365809806521758
-0.08161553262070698 -0.09575203926695752 0.005391409034903343
-0.07006551520853431 -0.09079545012176723 0.017335720740104546
-0.058515497796361636 -0.08583886097657695 0.02928003244530575
-0.04696548038418897 -0.08088227183138666 0.04122434415050695
-0.035415462972016296 -0.07592568268619636 0.05316865585570816
-0.02386544555984363 -0.07096909354100607 0.06511296756090937
-0.012315428147670964 -0.06601250439581578 0.07705727926611056
-0.0007654107354982899 -0.061055915250625495 0.08900159097131176
0.010784606676674377 -0.05609932610543521 0.10094590267651297
0.022334624088847045 -0.05114273696024491 0.11289021438171418
-0.0877699556000198 -0.07956035335328467 0.004623525351399939
-0.07621993818784713 -0.07460376420809436 0.016567837056601142
-0.06466992077567446 -0.06964717506290408 0.028512148761802348
-0.05311990336350179 -0.06469058591771379 0.04045646046700355
-0.041569885951329114 -0.0597339967725235 0.052400772172204756
-0.030019868539156447 -0.05477740762733321 0.06434508387740595
-0.01846985112698378 -0.049820818482142926 0.07628939558260715
-0.006919833714811108 -0.04486422933695264 0.08823370728780836
0.004630183697361559 -0.03990764019176235 0.10017801899300957
0.016180201109534227 -0.03495105104657206 0.11212233069821077
-0.09392437857933261 -0.06336866743961181 0.0038556416678965358
-0.08237436116715995 -0.058412078294421514 0.01579995337309774
-0.07082434375498728 -0.053455489149231226 0.02774426507829894
-0.059274326342814605 -0.04849890000404094 0.03968857678350014
-0.04772430893064193 -0.04354231085885065 0.051632888488701345
-0.036174291518469265 -0.03858572171366036 0.06357720019390255
-0.024624274106296598 -0.033629132568470076 0.07552151189910375
-0.013074256694123926 -0.028672543423279788 0.08746582360430495
-0.0015242392819512591 -0.023715954278089497 0.09941013530950617
0.010025778130221414 -0.018759365132899206 0.11135444701470737
-0.10007880155864543 -0.047176981525938945 0.003087757984393125
-0.08852878414647276 -0.04222039238074865 0.015032069689594328
-0.0769787667343001 -0.03726380323555836 0.026976381394795534
-0.06542874932212743 -0.032307214090368075 0.03892069309999673
-0.05387873190995475 -0.027350624945177787 0.05086500480519794
-0.04232871449778208 -0.0223940357999875 0.06280931651039914
-0.030778697085609416 -0.017437446654797215 0.07475362821560035
-0.019228679673436742 -0.012480857509606928 0.08669793992080155
-0.007678662261264077 -0.007524268364416637 0.09864225162600275
0.0038713551509085963 -0.002567679219226346 0.11058656333120395
-0.10623322453795825 -0.030985295612266085 0.0023198743008897215
-0.09468320712578558 -0.026028706467075793 0.014264186006090925
-0.08313318971361291 -0.02107211732188551 0.02620849771129213
-0.07158317230144025 -0.01611552817669522 0.03815280941649333
-0.06003315488926757 -0.011158939031504932 0.05009712112169454
-0.0484831374770949 -0.0062023498863146434 0.06204143282689574
-0.036933120064922234 -0.0012457607411243577 0.07398574453209694
-0.025383102652749564 0.003710828404065932 0.08593005623729814
-0.013833085240576895 0.008667417549256219 0.09787436794249935
-0.0022830678284042217 0.01362400669444651 0.10981867964770055
-0.11238764751727107 -0.014793609698593236 0.001551990617386318
-0.1008376301050984 -0.009837020553402945 0.013496302322587521
-0.08928761269292573 -0.004880431408212658 0.025440614027788723
-0.07773759528075305 7.615773697763096e-05 0.037384925732989925
-0.06618757786858039 0.005032746882167919 0.04932923743819113
-0.05463756045640771 0.009989336027358206 0.061273549143392336
-0.04308754304423505 0.014945925172548493 0.07321786084859352
-0.03153752563206238 0.019902514317738783 0.08516217255379474
-0.019987508219889708 0.02485910346292907 0.09710648425899594
-0.008437490807717033 0.029815692608119358 0.10905079596419714
-0.11854207049658388 0.0013980762150796213 0.0007841069338829074
-0.10699205308441122 0.006354665360269913 0.01272841863908411
-0.09544203567223855 0.0113112545054602 0.02467273034428532
-0.08389201826006588 0.01626784365065049 0.03661704204948652
-0.0723420008478932 0.021224432795840777 0.048561353754687724
-0.06079198343572053 0.026181021941031064 0.060505665459888926
-0.04924196602354787 0.031137611086221352 0.07244997716509012
-0.037691948611375196 0.03609420023141164 0.08439428887029132
-0.026141931199202526 0.04105078937660193 0.09633860057549254
-0.01459191378702985 0.046007378521792215 0.10828291228069374
-0.1246964934758967 0.017589762128752483 1.6223250379503792e-05
-0.11314647606372404 0.022546351273942777 0.011960534955580707
-0.10159645865155137 0.027502940419133065 0.02390484666078191
-0.0900464412393787 0.03245952956432335 0.03584915836598311
-0.07849642382720602 0.03741611870951364 0.04779347007118432
-0.06694640641503335 0.04237270785470393 0.05973778177638552
-0.05539638900286069 0.04732929699989421 0.07168209348158672
-0.04384637159068802 0.0522858861450845 0.08362640518678792
-0.03229635417851535 0.0572424752902748 0.09557071689198914
-0.020746336766342674 0.062199064435465086 0.10751502859719034
-0.13085091645520952 0.033781448042425354 -0.0007516604331238998
-0.11930089904303685 0.03873803718761564 0.011192651272077303
-0.10775088163086419 0.04369462633280593 0.023136962977278505
-0.09620086421869152 0.04865121547799622 0.03508127468247971
-0.08465084680651884 0.053607804623186504 0.04702558638768091
-0.07310082939434617 0.05856439376837679 0.05896989809288212
-0.061550811982173506 0.06352098291356707 0.07091420979808331
-0.05000079457000084 0.06847757205875736 0.08285852150328452
-0.038450777157828166 0.07343416120394765 0.09480283320848573
-0.026900759745655492 0.07839075034913794 0.10674714491368693
