# .PCD v0.7 - Point Cloud Data file format
VERSION 0.7
FIELDS x y z
SIZE 4 4 4
TYPE F F F
COUNT 1 1 1
WIDTH 600
HEIGHT 1
VIEWPOINT 0 0 0 1 0 0 0
POINTS 600
DATA ascii
-0.09433664326567277 -0.0033357739068509687 -0.021324332282090765
-0.08704881774196532 0.006636139871501239 -0.022592851281857562
-0.07976099221825786 0.016608053649853436 -0.023861370281624356
-0.07247316669455041 0.026579967428205637 -0.025129889281391152
-0.06518534117084294 0.03655188120655784 -0.02639840828115795
-0.05789751564713548 0.04652379498491004 -0.027666927280924743
-0.050609690123428024 0.056495708763262244 -0.02893544628069154
-0.043321864599720566 0.06646762254161445 -0.030203965280458333
-0.03603403907601311 0.07643953631996664 -0.03147248428022513
-0.02874621355230565 0.08641145009831885 -0.03274100327999193
-0.08943951253321995 -0.005489456675862937 -0.010119852515524677
-0.0821516870095125 0.004482457102489271 -0.011388371515291474
-0.07486386148580504 0.014454370880841469 -0.012656890515058267
-0.06757603596209759 0.024426284659193668 -0.013925409514825064
-0.060288210438390125 0.03439819843754587 -0.015193928514591861
-0.05300038491468266 0.044370112215898073 -0.016462447514358654
-0.0457125593909752 0.054342025994250275 -0.01773096651412545
-0.038424733867267746 0.06431393977260248 -0.018999485513892245
-0.031136908343560286 0.07428585355095467 -0.02026800451365904
-0.023849082819852825 0.08425776732930688 -0.02153652351342584
-0.08454238180076713 -0.0076431394448749045 0.0010846272510414057
-0.07725455627705968 0.0023287743334773035 -0.00018389174872539122
-0.06996673075335222 0.012300688111829501 -0.0014524107484921846
-0.06267890522964477 0.022272601890181702 -0.0027209297482589817
-0.055391079705937304 0.0322445156685339 -0.003989448748025778
-0.04810325418222984 0.042216429446886104 -0.0052579677477925715
-0.04081542865852238 0.052188343225238305 -0.006526486747559368
-0.033527603134814926 0.062160257003590506 -0.007795005747326162
-0.026239777611107466 0.0721321707819427 -0.009063524747092959
-0.018951952087400005 0.08210408456029492 -0.010332043746859755
-0.07964525106831431 -0.009796822213886872 0.012289107017607489
-0.07235742554460686 0.00017509156446533615 0.011020588017840692
-0.0650696000208994 0.010147005342817534 0.009752069018073899
-0.05778177449719194 0.020118919121169736 0.008483550018307102
-0.050493948973484484 0.03009083289952194 0.007215031018540305
-0.04320612344977702 0.04006274667787414 0.0059465120187735115
-0.03591829792606956 0.05003466045622634 0.004677993019006715
-0.028630472402362106 0.060006574234578544 0.003409474019239921
-0.021342646878654645 0.06997848801293073 0.002140955019473124
-0.014054821354947187 0.07995040179128295 0.0008724360197063274
-0.07474812033586149 -0.01195050498289884 0.023493586784173577
-0.06746029481215404 -0.001978591204546632 0.02222506778440678
-0.06017246928844658 0.007993322573805566 0.020956548784639987
-0.05288464376473912 0.017965236352157767 0.01968802978487319
-0.045596818241031664 0.027937150130509972 0.018419510785106393
-0.0383089927173242 0.03790906390886217 0.0171509917853396
-0.031021167193616743 0.047880977687214374 0.015882472785572803
-0.023733341669909286 0.057852891465566575 0.014613953785806008
-0.016445516146201825 0.06782480524391876 0.013345434786039211
-0.009157690622494365 0.07779671902227098 0.012076915786272414
-0.06985098960340867 -0.014104187751910809 0.03469806655073966
-0.06256316407970122 -0.0041322739735586 0.03342954755097287
-0.05527533855599376 0.005839639804793598 0.032161028551206075
-0.0479875130322863 0.015811553583145798 0.030892509551439275
-0.040699687508578844 0.025783467361498003 0.029623990551672478
-0.03341186198487138 0.035755381139850204 0.028355471551905684
-0.026124036461163923 0.045727294918202405 0.027086952552138888
-0.018836210937456466 0.055699208696554606 0.025818433552372094
-0.011548385413749005 0.0656711224749068 0.024549914552605297
-0.004260559890041544 0.07564303625325902 0.0232813955528385
-0.06495385887095585 -0.016257870520922774 0.04590254631730575
-0.0576660333472484 -0.006285956742570567 0.044634027317538946
-0.05037820782354094 0.003685957035781631 0.04336550831777215
-0.04309038229983348 0.013657870814133832 0.04209698931800536
-0.035802556776126024 0.023629784592486037 0.04082847031823856
-0.02851473125241856 0.033601698370838234 0.039559951318471766
-0.021226905728711103 0.043573612149190435 0.03829143231870497
-0.013939080205003647 0.053545525927542637 0.03702291331893818
-0.006651254681296186 0.06351743970589484 0.03575439431917138
0.0006365708424112746 0.07348935348424705 0.034485875319404585
-0.06005672813850303 -0.018411553289934744 0.05710702608387183
-0.05276890261479558 -0.008439639511582536 0.05583850708410503
-0.04548107709108812 0.0015322742667696627 0.05456998808433824
-0.03819325156738066 0.011504188045121863 0.053301469084571444
-0.030905426043673204 0.021476101823474068 0.052032950084804644
-0.02361760051996574 0.03144801560182627 0.05076443108503785
-0.016329774996258282 0.04141992938017847 0.04949591208527106
-0.009041949472550825 0.051391843158530674 0.048227393085504264
-0.0017541239488433652 0.06136375693688287 0.04695887408573746
0.005533701574864095 0.07133567071523508 0.04569035508597067
-0.05515959740605021 -0.02056523605894671 0.06831150585043792
-0.04787177188234276 -0.010593322280594503 0.06704298685067112
-0.0405839463586353 -0.0006214085022423052 0.06577446785090432
-0.03329612083492784 0.009350505276109896 0.06450594885113753
-0.026008295311220384 0.019322419054462102 0.06323742985137074
-0.01872046978751292 0.029294332832814303 0.06196891085160394
-0.011432644263805462 0.039266246611166504 0.06070039185183714
-0.004144818740098005 0.049238160389518705 0.05943187285207035
0.0031430067836094554 0.0592100741678709 0.058163353852303555
0.010430832307316916 0.06918198794622311 0.056894834852536755
-0.05026246667359739 -0.02271891882795868 0.079515985617004
-0.04297464114988994 -0.01274700504960647 0.07824746661723721
-0.03568681562618248 -0.0027750912712542737 0.07697894761747041
-0.028398990102475017 0.007196822507097927 0.07571042861770362
-0.02111116457876756 0.017168736285450133 0.07444190961793683
-0.013823339055060098 0.027140650063802334 0.07317339061817003
-0.00653551353135264 0.037112563842154535 0.07190487161840323
0.0007523119923548171 0.047084477620506736 0.07063635261863643
0.008040137516062277 0.05705639139885893 0.06936783361886964
0.015327963039769738 0.06702830517721114 0.06809931461910285
-0.015327963039769738 -0.06702830517721114 -0.06809931461910285
-0.008040137516062277 -0.05705639139885893 -0.06936783361886964
-0.0007523119923548206 -0.04708447762050674 -0.07063635261863643
0.00653551353135264 -0.03711256384215454 -0.07190487161840323
0.013823339055060098 -0.027140650063802334 -0.07317339061817003
0.02111116457876756 -0.017168736285450133 -0.07444190961793683
0.028398990102475017 -0.007196822507097931 -0.07571042861770362
0.03568681562618248 0.0027750912712542703 -0.07697894761747041
0.04297464114988994 0.01274700504960647 -0.07824746661723721
0.05026246667359739 0.02271891882795868 -0.079515985617004
-0.010430832307316916 -0.06918198794622311 -0.056894834852536755
-0.0031430067836094554 -0.0592100741678709 -0.058163353852303555
0.004144818740098002 -0.04923816038951871 -0.05943187285207035
0.011432644263805462 -0.03926624661116651 -0.06070039185183714
0.01872046978751292 -0.029294332832814303 -0.06196891085160394
0.026008295311220384 -0.019322419054462102 -0.06323742985137074
0.03329612083492784 -0.009350505276109899 -0.06450594885113753
0.0405839463586353 0.0006214085022423017 -0.06577446785090432
0.04787177188234276 0.010593322280594503 -0.06704298685067112
0.05515959740605021 0.02056523605894671 -0.06831150585043792
-0.005533701574864097 -0.07133567071523508 -0.04569035508597067
0.001754123948843364 -0.06136375693688287 -0.04695887408573747
0.00904194947255082 -0.05139184315853068 -0.048227393085504264
0.016329774996258282 -0.04141992938017848 -0.04949591208527106
0.02361760051996574 -0.03144801560182627 -0.05076443108503786
0.030905426043673204 -0.021476101823474068 -0.05203295008480465
0.03819325156738066 -0.011504188045121867 -0.053301469084571444
0.04548107709108812 -0.0015322742667696655 -0.05456998808433824
0.05276890261479558 0.008439639511582536 -0.05583850708410504
0.06005672813850303 0.018411553289934744 -0.05710702608387183
-0.0006365708424112773 -0.07348935348424705 -0.03448587531940459
0.006651254681296183 -0.06351743970589484 -0.035754394319171386
0.01393908020500364 -0.05354552592754264 -0.03702291331893818
0.021226905728711103 -0.04357361214919044 -0.03829143231870498
0.02851473125241856 -0.033601698370838234 -0.03955995131847177
0.035802556776126024 -0.023629784592486033 -0.040828470318238566
0.04309038229983348 -0.013657870814133834 -0.042096989318005366
0.05037820782354094 -0.003685957035781633 -0.04336550831777216
0.0576660333472484 0.006285956742570568 -0.04463402731753895
0.06495385887095585 0.016257870520922778 -0.045902546317305754
0.004260559890041544 -0.07564303625325902 -0.0232813955528385
0.011548385413749005 -0.0656711224749068 -0.024549914552605297
0.018836210937456462 -0.05569920869655461 -0.02581843355237209
0.026124036461163923 -0.04572729491820241 -0.027086952552138888
0.03341186198487138 -0.035755381139850204 -0.028355471551905684
0.040699687508578844 -0.025783467361498003 -0.029623990551672478
0.0479875130322863 -0.0158115535831458 -0.030892509551439275
0.05527533855599376 -0.005839639804793601 -0.03216102855120607
0.06256316407970122 0.0041322739735586 -0.03342954755097287
0.06985098960340867 0.014104187751910809 -0.03469806655073966
0.009157690622494365 -0.07779671902227098 -0.012076915786272414
0.016445516146201825 -0.06782480524391876 -0.013345434786039211
0.023733341669909282 -0.05785289146556658 -0.014613953785806004
0.031021167193616743 -0.04788097768721438 -0.015882472785572803
0.0383089927173242 -0.03790906390886217 -0.0171509917853396
0.045596818241031664 -0.027937150130509972 -0.018419510785106393
0.05288464376473912 -0.01796523635215777 -0.01968802978487319
0.06017246928844658 -0.00799332257380557 -0.020956548784639983
0.06746029481215404 0.001978591204546632 -0.02222506778440678
0.07474812033586149 0.01195050498289884 -0.023493586784173577
0.014054821354947183 -0.07995040179128295 -0.0008724360197063337
0.021342646878654645 -0.06997848801293073 -0.0021409550194731305
0.028630472402362103 -0.06000657423457855 -0.003409474019239924
0.03591829792606956 -0.05003466045622635 -0.004677993019006721
0.04320612344977702 -0.04006274667787414 -0.005946512018773518
0.050493948973484484 -0.030090832899521937 -0.007215031018540311
0.05778177449719194 -0.020118919121169736 -0.008483550018307107
0.0650696000208994 -0.010147005342817535 -0.0097520690180739
0.07235742554460686 -0.00017509156446533496 -0.011020588017840697
0.07964525106831431 0.009796822213886874 -0.012289107017607494
0.018951952087400005 -0.08210408456029492 0.010332043746859752
0.026239777611107466 -0.0721321707819427 0.009063524747092955
0.03352760313481492 -0.06216025700359051 0.007795005747326163
0.04081542865852238 -0.05218834322523831 0.006526486747559366
0.04810325418222984 -0.042216429446886104 0.005257967747792569
0.055391079705937304 -0.0322445156685339 0.0039894487480257755
0.06267890522964475 -0.022272601890181706 0.002720929748258978
0.06996673075335222 -0.012300688111829505 0.001452410748492185
0.07725455627705968 -0.0023287743334773027 0.00018389174872538808
0.08454238180076713 0.007643139444874905 -0.0010846272510414087
0.023849082819852825 -0.08425776732930688 0.02153652351342584
0.031136908343560286 -0.07428585355095467 0.02026800451365904
0.038424733867267746 -0.06431393977260248 0.018999485513892248
0.0457125593909752 -0.05434202599425028 0.01773096651412545
0.05300038491468266 -0.044370112215898073 0.016462447514358654
0.060288210438390125 -0.03439819843754587 0.015193928514591861
0.06757603596209759 -0.02442628465919367 0.013925409514825064
0.07486386148580504 -0.014454370880841472 0.01265689051505827
0.0821516870095125 -0.004482457102489271 0.011388371515291474
0.08943951253321995 0.005489456675862937 0.010119852515524677
0.02874621355230565 -0.08641145009831885 0.03274100327999193
0.03603403907601311 -0.07643953631996664 0.03147248428022513
0.043321864599720566 -0.06646762254161445 0.030203965280458336
0.050609690123428024 -0.05649570876326225 0.02893544628069154
0.05789751564713548 -0.04652379498491004 0.027666927280924743
0.06518534117084294 -0.03655188120655784 0.02639840828115795
0.07247316669455041 -0.02657996742820564 0.025129889281391152
0.07976099221825786 -0.01660805364985344 0.02386137028162436
0.08704881774196532 -0.006636139871501239 0.022592851281857562
0.09433664326567277 0.0033357739068509687 0.021324332282090765
-0.09433664326567277 -0.0033357739068509687 -0.021324332282090765
-0.08555790101835022 -0.010412721825779878 -0.026521552541758774
-0.07677915877102766 -0.017489669744708787 -0.031718772801426785
-0.0680004165237051 -0.024566617663637692 -0.03691599306109479
-0.05922167427638254 -0.031643565582566605 -0.0421132133207628
-0.05044293202905998 -0.03872051350149551 -0.047310433580430813
-0.04166418978173742 -0.045797461420424415 -0.05250765384009882
-0.03288544753441486 -0.052874409339353334 -0.05770487409976683
-0.0241067052870923 -0.05995135725828224 -0.06290209435943483
-0.015327963039769738 -0.06702830517721114 -0.06809931461910285
-0.08943951253321995 -0.005489456675862937 -0.010119852515524677
-0.0806607702858974 -0.012566404594791846 -0.015317072775192685
-0.07188202803857484 -0.019643352513720756 -0.020514293034860694
-0.06310328579125228 -0.02672030043264966 -0.025711513294528702
-0.05432454354392972 -0.033797248351578574 -0.030908733554196714
-0.04554580129660716 -0.04087419627050748 -0.03610595381386472
-0.0367670590492846 -0.047951144189436384 -0.04130317407353273
-0.027988316801962038 -0.055028092108365304 -0.04650039433320074
-0.019209574554639477 -0.06210504002729421 -0.05169761459286875
-0.010430832307316916 -0.06918198794622311 -0.056894834852536755
-0.08454238180076713 -0.0076431394448749045 0.0010846272510414057
-0.07576363955344458 -0.014720087363803813 -0.004112593008626602
-0.06698489730612202 -0.021797035282732722 -0.00930981326829461
-0.05820615505879946 -0.028873983201661627 -0.014507033527962619
-0.049427412811476897 -0.03595093112059054 -0.01970425378763063
-0.04064867056415434 -0.04302787903951945 -0.02490147404729864
-0.03186992831683178 -0.050104826958448354 -0.030098694306966645
-0.023091186069509217 -0.05718177487737727 -0.035295914566634654
-0.014312443822186658 -0.06425872279630618 -0.040493134826302665
-0.005533701574864097 -0.07133567071523508 -0.04569035508597067
-0.07964525106831431 -0.009796822213886872 0.012289107017607489
-0.07086650882099176 -0.01687377013281578 0.007091886757939481
-0.0620877665736692 -0.023950718051744688 0.0018946664982714722
-0.05330902432634664 -0.031027665970673593 -0.0033025537613965363
-0.044530282079024076 -0.038104613889602505 -0.008499774021064546
-0.03575153983170152 -0.04518156180853141 -0.013696994280732556
-0.02697279758437896 -0.052258509727460316 -0.018894214540400564
-0.018194055337056397 -0.059335457646389235 -0.024091434800068572
-0.009415313089733838 -0.06641240556531815 -0.02928865505973658
-0.0006365708424112773 -0.07348935348424705 -0.03448587531940459
-0.07474812033586149 -0.01195050498289884 0.023493586784173577
-0.06596937808853894 -0.019027452901827748 0.01829636652450557
-0.05719063584121638 -0.026104400820756657 0.013099146264837559
-0.04841189359389382 -0.03318134873968556 0.00790192600516955
-0.039633151346571256 -0.040258296658614474 0.002704705745501541
-0.030854409099248695 -0.04733524457754338 -0.002492514514166469
-0.02207566685192614 -0.054412192496472285 -0.007689734773834476
-0.013296924604603577 -0.061489140415401204 -0.012886955033502484
-0.004518182357281017 -0.06856608833433012 -0.018084175293170492
0.004260559890041544 -0.07564303625325902 -0.0232813955528385
-0.06985098960340867 -0.014104187751910809 0.03469806655073966
-0.061072247356086115 -0.021181135670839717 0.029500846291071654
-0.05229350510876356 -0.028258083589768626 0.024303626031403645
-0.043514762861441 -0.03533503150869753 0.019106405771735637
-0.034736020614118436 -0.042411979427626444 0.013909185512067629
-0.025957278366795875 -0.04948892734655535 0.008711965252399619
-0.01717853611947332 -0.056565875265484254 0.003514744992731612
-0.008399793872150757 -0.06364282318441317 -0.001682475266936397
0.0003789483751718045 -0.07071977110334207 -0.006879695526604406
0.009157690622494365 -0.07779671902227098 -0.012076915786272414
-0.06495385887095585 -0.016257870520922774 0.04590254631730575
-0.056175116623633295 -0.023334818439851683 0.040705326057637735
-0.04739637437631074 -0.030411766358780592 0.03550810579796973
-0.03861763212898818 -0.0374887142777095 0.03031088553830172
-0.029838889881665616 -0.04456566219663841 0.02511366527863371
-0.021060147634343055 -0.05164261011556732 0.0199164450189657
-0.012281405387020503 -0.05871955803449622 0.014719224759297694
-0.003502663139697938 -0.06579650595342514 0.009522004499629684
0.005276079107624623 -0.07287345387235404 0.004324784239961675
0.014054821354947183 -0.07995040179128295 -0.0008724360197063337
-0.06005672813850303 -0.018411553289934744 0.05710702608387183
-0.051277985891180475 -0.025488501208863652 0.05190980582420382
-0.04249924364385792 -0.03256544912779256 0.046712585564535815
-0.03372050139653536 -0.03964239704672146 0.0415153653048678
-0.024941759149212796 -0.046719344965650375 0.0363181450451998
-0.016163016901890235 -0.05379629288457928 0.031120924785531787
-0.007384274654567682 -0.060873240803508186 0.02592370452586378
0.0013944675927548829 -0.0679501887224371 0.02072648426619577
0.010173209840077444 -0.07502713664136601 0.01552926400652776
0.018951952087400005 -0.08210408456029492 0.010332043746859752
-0.05515959740605021 -0.02056523605894671 0.06831150585043792
-0.046380855158727655 -0.027642183977875618 0.06311428559076991
-0.0376021129114051 -0.03471913189680453 0.0579170653311019
-0.02882337066408254 -0.04179607981573343 0.052719845071433895
-0.020044628416759976 -0.048873027734662344 0.04752262481176588
-0.011265886169437415 -0.05594997565359125 0.04232540455209787
-0.002487143922114861 -0.06302692357252015 0.03712818429242987
0.0062915983252077035 -0.07010387149144907 0.031930964032761855
0.015070340572530264 -0.07718081941037798 0.026733743773093847
0.023849082819852825 -0.08425776732930688 0.02153652351342584
-0.05026246667359739 -0.02271891882795868 0.079515985617004
-0.041483724426274834 -0.029795866746887587 0.074318765357336
-0.03270498217895228 -0.036872814665816496 0.06912154509766799
-0.023926239931629716 -0.0439497625847454 0.06392432483799998
-0.015147497684307154 -0.051026710503674313 0.05872710457833197
-0.006368755436984592 -0.05810365842260322 0.05352988431866396
0.0024099868103379615 -0.06518060634153212 0.04833266405899595
0.011188729057660525 -0.07225755426046104 0.04313544379932795
0.019967471304983088 -0.07933450217938995 0.037938223539659935
0.02874621355230565 -0.08641145009831885 0.03274100327999193
-0.02874621355230565 0.08641145009831885 -0.03274100327999193
-0.019967471304983088 0.07933450217938995 -0.037938223539659935
-0.011188729057660529 0.07225755426046104 -0.04313544379932795
-0.0024099868103379684 0.06518060634153214 -0.04833266405899595
0.006368755436984592 0.05810365842260322 -0.05352988431866396
0.015147497684307154 0.051026710503674313 -0.05872710457833197
0.02392623993162971 0.04394976258474541 -0.06392432483799998
0.03270498217895228 0.036872814665816496 -0.06912154509766799
0.041483724426274834 0.029795866746887587 -0.074318765357336
0.05026246667359739 0.02271891882795868 -0.079515985617004
-0.023849082819852825 0.08425776732930688 -0.02153652351342584
-0.015070340572530264 0.07718081941037798 -0.026733743773093847
-0.006291598325207707 0.07010387149144907 -0.031930964032761855
0.002487143922114854 0.06302692357252017 -0.03712818429242986
0.011265886169437415 0.05594997565359125 -0.04232540455209787
0.020044628416759976 0.048873027734662344 -0.04752262481176588
0.028823370664082533 0.04179607981573344 -0.05271984507143389
0.0376021129114051 0.03471913189680453 -0.0579170653311019
0.046380855158727655 0.027642183977875618 -0.06311428559076991
0.05515959740605021 0.02056523605894671 -0.06831150585043792
-0.018951952087400005 0.08210408456029492 -0.010332043746859755
-0.010173209840077446 0.07502713664136601 -0.015529264006527764
-0.0013944675927548876 0.0679501887224371 -0.02072648426619577
0.007384274654567673 0.06087324080350819 -0.02592370452586378
0.016163016901890235 0.05379629288457928 -0.03112092478553179
0.024941759149212796 0.046719344965650375 -0.0363181450451998
0.03372050139653535 0.03964239704672147 -0.0415153653048678
0.04249924364385792 0.03256544912779256 -0.046712585564535815
0.051277985891180475 0.025488501208863652 -0.05190980582420383
0.06005672813850303 0.018411553289934744 -0.05710702608387183
-0.014054821354947187 0.07995040179128295 0.0008724360197063274
-0.005276079107624626 0.07287345387235404 -0.004324784239961681
0.0035026631396979317 0.06579650595342514 -0.009522004499629689
0.012281405387020492 0.05871955803449623 -0.014719224759297697
0.021060147634343055 0.05164261011556732 -0.019916445018965705
0.029838889881665616 0.04456566219663841 -0.025113665278633717
0.03861763212898817 0.03748871427770951 -0.030310885538301722
0.04739637437631074 0.030411766358780595 -0.03550810579796973
0.056175116623633295 0.023334818439851687 -0.04070532605763774
0.06495385887095585 0.016257870520922778 -0.045902546317305754
-0.009157690622494365 0.07779671902227098 0.012076915786272414
-0.0003789483751718045 0.07071977110334207 0.006879695526604406
0.008399793872150754 0.06364282318441317 0.0016824752669363987
0.017178536119473314 0.05656587526548426 -0.0035147449927316094
0.025957278366795875 0.04948892734655535 -0.008711965252399619
0.034736020614118436 0.042411979427626444 -0.013909185512067629
0.04351476286144099 0.03533503150869754 -0.019106405771735634
0.05229350510876356 0.028258083589768626 -0.024303626031403642
0.061072247356086115 0.021181135670839717 -0.029500846291071654
0.06985098960340867 0.014104187751910809 -0.03469806655073966
-0.004260559890041544 0.07564303625325902 0.0232813955528385
0.004518182357281017 0.06856608833433012 0.018084175293170492
0.013296924604603574 0.061489140415401204 0.012886955033502486
0.022075666851926135 0.05441219249647229 0.007689734773834478
0.030854409099248695 0.04733524457754338 0.002492514514166469
0.039633151346571256 0.040258296658614474 -0.002704705745501541
0.048411893593893814 0.03318134873968557 -0.007901926005169547
0.05719063584121638 0.026104400820756657 -0.013099146264837555
0.06596937808853894 0.019027452901827748 -0.01829636652450557
0.07474812033586149 0.01195050498289884 -0.023493586784173577
0.0006365708424112746 0.07348935348424705 0.034485875319404585
0.009415313089733835 0.06641240556531815 0.029288655059736574
0.018194055337056394 0.059335457646389235 0.02409143480006857
0.026972797584378955 0.05225850972746032 0.01889421454040056
0.03575153983170151 0.04518156180853141 0.01369699428073255
0.044530282079024076 0.038104613889602505 0.00849977402106454
0.053309024326346634 0.031027665970673603 0.0033025537613965332
0.0620877665736692 0.02395071805174469 -0.001894666498271475
0.07086650882099176 0.016873770132815782 -0.007091886757939487
0.07964525106831431 0.009796822213886874 -0.012289107017607494
0.005533701574864095 0.07133567071523508 0.04569035508597067
0.014312443822186657 0.06425872279630618 0.04049313482630266
0.023091186069509214 0.05718177487737727 0.035295914566634654
0.031869928316831775 0.05010482695844836 0.030098694306966645
0.04064867056415433 0.04302787903951945 0.024901474047298637
0.049427412811476897 0.03595093112059054 0.019704253787630625
0.058206155058799454 0.028873983201661634 0.014507033527962619
0.06698489730612202 0.021797035282732722 0.00930981326829461
0.07576363955344458 0.014720087363803813 0.0041125930086266
0.08454238180076713 0.007643139444874905 -0.0010846272510414087
0.010430832307316916 0.06918198794622311 0.056894834852536755
0.019209574554639477 0.06210504002729421 0.05169761459286875
0.027988316801962034 0.055028092108365304 0.04650039433320074
0.036767059049284595 0.04795114418943639 0.041303174073532734
0.04554580129660716 0.04087419627050748 0.03610595381386472
0.05432454354392972 0.033797248351578574 0.030908733554196714
0.06310328579125228 0.02672030043264967 0.025711513294528705
0.07188202803857484 0.019643352513720756 0.020514293034860697
0.0806607702858974 0.012566404594791846 0.015317072775192685
0.08943951253321995 0.005489456675862937 0.010119852515524677
0.015327963039769738 0.06702830517721114 0.06809931461910285
0.0241067052870923 0.05995135725828224 0.06290209435943483
0.03288544753441486 0.052874409339353334 0.05770487409976683
0.041664189781737415 0.04579746142042442 0.05250765384009882
0.05044293202905998 0.03872051350149551 0.047310433580430813
0.05922167427638254 0.031643565582566605 0.0421132133207628
0.0680004165237051 0.0245666176636377 0.0369159930610948
0.07677915877102766 0.017489669744708787 0.031718772801426785
0.08555790101835022 0.010412721825779878 0.026521552541758774
0.09433664326567277 0.0033357739068509687 0.021324332282090765
-0.09433664326567277 -0.0033357739068509687 -0.021324332282090765
-0.08555790101835022 -0.010412721825779878 -0.026521552541758774
-0.07677915877102766 -0.017489669744708787 -0.031718772801426785
-0.0680004165237051 -0.024566617663637692 -0.03691599306109479
-0.05922167427638254 -0.031643565582566605 -0.0421132133207628
-0.05044293202905998 -0.03872051350149551 -0.047310433580430813
-0.04166418978173742 -0.045797461420424415 -0.05250765384009882
-0.03288544753441486 -0.052874409339353334 -0.05770487409976683
-0.0241067052870923 -0.05995135725828224 -0.06290209435943483
-0.015327963039769738 -0.06702830517721114 -0.06809931461910285
-0.08704881774196532 0.006636139871501239 -0.022592851281857562
-0.07827007549464277 -0.0004408080474276695 -0.02779007154152557
-0.06949133324732021 -0.007517755966356578 -0.03298729180119358
-0.06071259099999764 -0.014594703885285484 -0.03818451206086159
-0.05193384875267508 -0.021671651804214397 -0.043381732320529595
-0.043155106505352515 -0.028748599723143302 -0.04857895258019761
-0.034376364258029965 -0.035825547642072214 -0.05377617283986561
-0.0255976220107074 -0.04290249556100112 -0.05897339309953362
-0.01681887976338484 -0.049979443479930025 -0.06417061335920163
-0.008040137516062277 -0.05705639139885893 -0.06936783361886964
-0.07976099221825786 0.016608053649853436 -0.023861370281624356
-0.0709822499709353 0.009531105730924527 -0.029058590541292367
-0.062203507723612744 0.0024541578119956194 -0.03425581080096037
-0.05342476547629019 -0.004622790106933286 -0.039453031060628384
-0.04464602322896762 -0.011699738025862196 -0.044650251320296395
-0.03586728098164506 -0.018776685944791108 -0.0498474715799644
-0.027088538734322504 -0.025853633863720013 -0.05504469183963241
-0.018309796486999944 -0.03293058178264892 -0.06024191209930042
-0.009531054239677381 -0.04000752970157783 -0.06543913235896842
-0.0007523119923548206 -0.04708447762050674 -0.07063635261863643
-0.07247316669455041 0.026579967428205637 -0.025129889281391152
-0.06369442444722785 0.01950301950927673 -0.03032710954105916
-0.05491568219990529 0.01242607159034782 -0.03552432980072717
-0.04613693995258272 0.005349123671418915 -0.04072155006039518
-0.037358197705260165 -0.0017278242475099936 -0.04591877032006319
-0.0285794554579376 -0.008804772166438907 -0.0511159905797312
-0.019800713210615047 -0.015881720085367812 -0.056313210839399205
-0.011021970963292483 -0.022958668004296717 -0.06151043109906721
-0.0022432287159699243 -0.03003561592322563 -0.06670765135873523
0.00653551353135264 -0.03711256384215454 -0.07190487161840323
-0.06518534117084294 0.03655188120655784 -0.02639840828115795
-0.05640659892352038 0.02947493328762893 -0.03159562854082596
-0.04762785667619783 0.022397985368700024 -0.036792848800493966
-0.038849114428875266 0.015321037449771117 -0.04199006906016197
-0.030070372181552705 0.008244089530842208 -0.04718728931982998
-0.021291629934230144 0.0011671416119132987 -0.052384509579497994
-0.012512887686907585 -0.005909806307015608 -0.057581729839166
-0.0037341454395850245 -0.012986754225944516 -0.06277895009883401
0.005044596807737536 -0.02006370214487343 -0.06797617035850202
0.013823339055060098 -0.027140650063802334 -0.07317339061817003
-0.05789751564713548 0.04652379498491004 -0.027666927280924743
-0.04911877339981292 0.03944684706598114 -0.032864147540592754
-0.040340031152490366 0.032369899147052225 -0.03806136780026076
-0.03156128890516781 0.025292951228123323 -0.04325858805992877
-0.022782546657845244 0.01821600330919441 -0.04845580831959678
-0.01400380441052268 0.011139055390265502 -0.05365302857926479
-0.005225062163200125 0.004062107471336596 -0.05885024883893279
0.0035536800841224395 -0.0030148404475923126 -0.0640474690986008
0.012332422331444997 -0.01009178836652122 -0.06924468935826882
0.02111116457876756 -0.017168736285450133 -0.07444190961793683
-0.050609690123428024 0.056495708763262244 -0.02893544628069154
-0.041830947876105466 0.04941876084433333 -0.03413266654035955
-0.03305220562878291 0.042341812925404426 -0.03932988680002756
-0.024273463381460348 0.03526486500647552 -0.044527107059695564
-0.015494721134137787 0.02818791708754661 -0.049724327319363576
-0.0067159788868152255 0.0211109691686177 -0.05492154757903158
0.0020627633605073323 0.014034021249688793 -0.06011876783869959
0.010841505607829897 0.006957073330759885 -0.0653159880983676
0.019620247855152453 -0.00011987458816902382 -0.07051320835803561
0.028398990102475017 -0.007196822507097931 -0.07571042861770362
-0.043321864599720566 0.06646762254161445 -0.030203965280458333
-0.03454312235239801 0.05939067462268553 -0.03540118554012634
-0.02576438010507545 0.05231372670375663 -0.04059840579979435
-0.01698563785775289 0.04523677878482772 -0.04579562605946236
-0.008206895610430328 0.03815983086589882 -0.05099284631913037
0.0005718466368922356 0.0310828829469699 -0.05619006657879838
0.00935058888421479 0.024005935028040996 -0.061387286838466386
0.018129331131537352 0.016928987109112087 -0.06658450709813439
0.026908073378859917 0.009852039190183178 -0.0717817273578024
0.03568681562618248 0.0027750912712542703 -0.07697894761747041
-0.03603403907601311 0.07643953631996664 -0.03147248428022513
-0.02725529682869055 0.06936258840103773 -0.03666970453989314
-0.01847655458136799 0.06228564048210883 -0.041866924799561146
-0.009697812334045429 0.05520869256317992 -0.04706414505922916
-0.0009190700867228682 0.04813174464425101 -0.05226136531889716
0.007859672160599697 0.041054796725322105 -0.057458585578565174
0.016638414407922252 0.0339778488063932 -0.06265580583823319
0.02541715665524481 0.026900900887464288 -0.0678530260979012
0.03419589890256738 0.01982395296853538 -0.0730502463575692
0.04297464114988994 0.01274700504960647 -0.07824746661723721
-0.02874621355230565 0.08641145009831885 -0.03274100327999193
-0.019967471304983088 0.07933450217938995 -0.037938223539659935
-0.011188729057660529 0.07225755426046104 -0.04313544379932795
-0.0024099868103379684 0.06518060634153214 -0.04833266405899595
0.006368755436984592 0.05810365842260322 -0.05352988431866396
0.015147497684307154 0.051026710503674313 -0.05872710457833197
0.02392623993162971 0.04394976258474541 -0.06392432483799998
0.03270498217895228 0.036872814665816496 -0.06912154509766799
0.041483724426274834 0.029795866746887587 -0.074318765357336
0.05026246667359739 0.02271891882795868 -0.079515985617004
-0.05026246667359739 -0.02271891882795868 0.079515985617004
-0.041483724426274834 -0.029795866746887587 0.074318765357336
-0.03270498217895228 -0.036872814665816496 0.06912154509766799
-0.023926239931629716 -0.0439497625847454 0.06392432483799998
-0.015147497684307154 -0.051026710503674313 0.05872710457833197
-0.006368755436984592 -0.05810365842260322 0.05352988431866396
0.0024099868103379615 -0.06518060634153212 0.04833266405899595
0.011188729057660525 -0.07225755426046104 0.04313544379932795
0.019967471304983088 -0.07933450217938995 0.037938223539659935
0.02874621355230565 -0.08641145009831885 0.03274100327999193
-0.04297464114988994 -0.01274700504960647 0.07824746661723721
-0.03419589890256738 -0.01982395296853538 0.0730502463575692
-0.025417156655244817 -0.026900900887464288 0.0678530260979012
-0.016638414407922252 -0.03397784880639319 0.06265580583823319
-0.007859672160599697 -0.041054796725322105 0.057458585578565174
0.0009190700867228682 -0.04813174464425101 0.05226136531889716
0.009697812334045423 -0.05520869256317992 0.04706414505922916
0.018476554581367988 -0.06228564048210883 0.041866924799561146
0.02725529682869055 -0.06936258840103773 0.03666970453989314
0.03603403907601311 -0.07643953631996664 0.03147248428022513
-0.03568681562618248 -0.0027750912712542737 0.07697894761747041
-0.026908073378859917 -0.009852039190183182 0.0717817273578024
-0.01812933113153736 -0.01692898710911209 0.0665845070981344
-0.009350588884214804 -0.024005935028040996 0.061387286838466386
-0.000571846636892239 -0.031082882946969904 0.05619006657879838
0.008206895610430325 -0.03815983086589882 0.05099284631913037
0.01698563785775288 -0.04523677878482772 0.045795626059462365
0.025764380105075445 -0.05231372670375663 0.04059840579979435
0.034543122352398 -0.05939067462268554 0.03540118554012634
0.043321864599720566 -0.06646762254161445 0.030203965280458336
-0.028398990102475017 0.007196822507097927 0.07571042861770362
-0.01962024785515246 0.00011987458816901861 0.07051320835803561
-0.010841505607829904 -0.00695707333075989 0.0653159880983676
-0.0020627633605073393 -0.014034021249688795 0.06011876783869959
0.006715978886815222 -0.021110969168617703 0.05492154757903159
0.015494721134137784 -0.028187917087546616 0.049724327319363576
0.02427346338146034 -0.03526486500647552 0.04452710705969557
0.0330522056287829 -0.042341812925404426 0.03932988680002756
0.04183094787610546 -0.04941876084433334 0.03413266654035955
0.050609690123428024 -0.05649570876326225 0.02893544628069154
-0.02111116457876756 0.017168736285450133 0.07444190961793683
-0.012332422331444997 0.01009178836652122 0.06924468935826882
-0.003553680084122443 0.0030148404475923126 0.0640474690986008
0.005225062163200118 -0.004062107471336593 0.0588502488389328
0.01400380441052268 -0.011139055390265502 0.05365302857926479
0.022782546657845244 -0.01821600330919441 0.04845580831959678
0.0315612889051678 -0.02529295122812332 0.04325858805992877
0.04034003115249036 -0.032369899147052225 0.038061367800260766
0.04911877339981292 -0.03944684706598114 0.032864147540592754
0.05789751564713548 -0.04652379498491004 0.027666927280924743
-0.013823339055060098 0.027140650063802334 0.07317339061817003
-0.005044596807737536 0.02006370214487343 0.06797617035850202
0.003734145439585021 0.012986754225944516 0.06277895009883401
0.01251288768690758 0.005909806307015612 0.057581729839166006
0.021291629934230144 -0.0011671416119132987 0.052384509579497994
0.030070372181552705 -0.008244089530842208 0.04718728931982998
0.03884911442887526 -0.015321037449771114 0.04199006906016198
0.04762785667619782 -0.022397985368700024 0.036792848800493966
0.05640659892352038 -0.02947493328762893 0.03159562854082596
0.06518534117084294 -0.03655188120655784 0.02639840828115795
-0.00653551353135264 0.037112563842154535 0.07190487161840323
0.0022432287159699174 0.030035615923225623 0.06670765135873523
0.011021970963292476 0.022958668004296717 0.06151043109906722
0.019800713210615037 0.015881720085367812 0.056313210839399205
0.028579455457937598 0.0088047721664389 0.0511159905797312
0.03735819770526016 0.0017278242475099901 0.04591877032006319
0.046136939952582716 -0.005349123671418917 0.040721550060395184
0.05491568219990528 -0.012426071590347825 0.03552432980072717
0.06369442444722784 -0.019503019509276735 0.03032710954105916
0.07247316669455041 -0.02657996742820564 0.025129889281391152
0.0007523119923548171 0.047084477620506736 0.07063635261863643
0.009531054239677378 0.040007529701577824 0.06543913235896842
0.018309796486999937 0.03293058178264892 0.06024191209930042
0.027088538734322497 0.025853633863720013 0.05504469183963241
0.03586728098164506 0.018776685944791104 0.0498474715799644
0.04464602322896762 0.011699738025862192 0.044650251320296395
0.05342476547629017 0.004622790106933286 0.039453031060628384
0.06220350772361274 -0.002454157811995623 0.03425581080096038
0.0709822499709353 -0.00953110573092453 0.029058590541292367
0.07976099221825786 -0.01660805364985344 0.02386137028162436
0.008040137516062277 0.05705639139885893 0.06936783361886964
0.01681887976338484 0.049979443479930025 0.06417061335920163
0.025597622010707397 0.04290249556100112 0.05897339309953362
0.03437636425802996 0.035825547642072214 0.05377617283986562
0.043155106505352515 0.028748599723143302 0.04857895258019761
0.05193384875267508 0.021671651804214397 0.043381732320529595
0.06071259099999764 0.014594703885285488 0.03818451206086159
0.0694913332473202 0.007517755966356578 0.03298729180119358
0.07827007549464277 0.0004408080474276695 0.02779007154152557
0.08704881774196532 -0.006636139871501239 0.022592851281857562
0.015327963039769738 0.06702830517721114 0.06809931461910285
0.0241067052870923 0.05995135725828224 0.06290209435943483
0.03288544753441486 0.052874409339353334 0.05770487409976683
0.041664189781737415 0.04579746142042442 0.05250765384009882
0.05044293202905998 0.03872051350149551 0.047310433580430813
0.05922167427638254 0.031643565582566605 0.0421132133207628
0.0680004165237051 0.0245666176636377 0.0369159930610948
0.07677915877102766 0.017489669744708787 0.031718772801426785
0.08555790101835022 0.010412721825779878 0.026521552541758774
0.09433664326567277 0.0033357739068509687 0.021324332282090765
