# .PCD v0.7 - Point Cloud Data file format
VERSION 0.7
FIELDS x y z
SIZE 4 4 4
TYPE F F F
COUNT 1 1 1
WIDTH 600
HEIGHT 1
VIEWPOINT 0 0 0 1 0 0 0
POINTS 600
DATA ascii
-0.07075999460983402 0.026411052482194462 -0.06712679255116011
-0.06447057653028371 0.03458620841903596 -0.0592728406161802
-0.05818115845073338 0.04276136435587746 -0.051418888681200293
-0.051891740371183055 0.05093652029271896 -0.04356493674622039
-0.04560232229163273 0.05911167622956046 -0.035710984811240486
-0.0393129042120824 0.06728683216640197 -0.027857032876260582
-0.03302348613253209 0.07546198810324346 -0.02000308094128068
-0.026734068052981758 0.08363714404008497 -0.012149129006300777
-0.02044464997343143 0.09181229997692647 -0.004295177071320866
-0.014155231893881109 0.09998745591376798 0.0035587748636590377
-0.07252352691261232 0.01824426066323829 -0.05721377179203164
-0.06623410883306201 0.02641941660007979 -0.049359819857051734
-0.05994469075351167 0.03459457253692129 -0.04150586792207183
-0.05365527267396135 0.042769728473762786 -0.03365191598709193
-0.047365854594411026 0.05094488441060429 -0.025797964052112016
-0.0410764365148607 0.05912004034744579 -0.017944012117132112
-0.03478701843531038 0.06729519628428729 -0.010090060182152213
-0.028497600355760055 0.0754703522211288 -0.0022361082471723083
-0.02220818227620973 0.0836455081579703 0.0056178436878076025
-0.015918764196659406 0.09182066409481181 0.013471795622787506
-0.07428705921539061 0.010077468844282114 -0.04730075103290317
-0.0679976411358403 0.018252624781123612 -0.039446799097923264
-0.06170822305628997 0.026427780717965112 -0.03159284716294336
-0.05541880497673965 0.03460293665480661 -0.023738895227963457
-0.04912938689718933 0.042778092591648116 -0.01588494329298355
-0.042839968817639 0.05095324852848962 -0.008030991358003645
-0.03655055073808868 0.059128404465331116 -0.00017703942302374414
-0.03026113265853835 0.06730356040217263 0.00767691251195616
-0.023971714578988022 0.07547871633901412 0.01553086444693607
-0.0176822964994377 0.08365387227585563 0.023384816381915974
-0.07605059151816891 0.0019106770253259418 -0.037387730273774705
-0.0697611734386186 0.010085832962167442 -0.029533778338794798
-0.06347175535906827 0.018260988899008943 -0.021679826403814894
-0.05718233727951794 0.026436144835850443 -0.01382587446883499
-0.05089291919996762 0.03461130077269194 -0.005971922533855083
-0.04460350112041729 0.042786456709533446 0.001882029401124821
-0.038314083040866975 0.05096161264637494 0.009735981336104722
-0.032024664961316646 0.05913676858321645 0.017589933271084626
-0.02573524688176632 0.06731192452005795 0.025443885206064536
-0.019445828802215997 0.07548708045689946 0.03329783714104444
-0.07781412382094721 -0.006256114793630234 -0.027474709514646232
-0.0715247057413969 0.0019190411432112664 -0.019620757579666328
-0.06523528766184657 0.010094197080052766 -0.011766805644686424
-0.05894586958229624 0.018269353016894266 -0.00391285370970652
-0.052656451502745914 0.02644450895373577 0.003941098225273387
-0.046367033423195585 0.03461966489057727 0.011795050160253291
-0.04007761534364527 0.04279482082741877 0.01964900209523319
-0.03378819726409494 0.05096997676426027 0.027502954030213096
-0.027498779184544617 0.05914513270110178 0.03535690596519301
-0.021209361104994294 0.06732028863794329 0.043210857900172914
-0.0795776561237255 -0.014422906612586408 -0.017561688755517762
-0.07328823804417518 -0.006247750675744909 -0.009707736820537858
-0.06699881996462485 0.0019274052610965915 -0.0018537848855579543
-0.06070940188507454 0.010102561197938092 0.00600016704942195
-0.054419983805524215 0.018277717134779596 0.013854118984401857
-0.048130565725973885 0.0264528730716211 0.02170807091938176
-0.04184114764642357 0.034628029008462596 0.02956202285436166
-0.03555172956687324 0.0428031849453041 0.03741597478934156
-0.02926231148732291 0.050978340882145604 0.04526992672432147
-0.022972893407772588 0.05915349681898711 0.05312387865930138
-0.0813411884265038 -0.022589698431542578 -0.0076486679963893
-0.07505177034695348 -0.014414542494701078 0.0002052839385906042
-0.06876235226740315 -0.0062393865578595775 0.008059235873570507
-0.06247293418785283 0.0019357693789819226 0.015913187808550413
-0.05618351610830251 0.010110925315823426 0.02376713974353032
-0.04989409802875218 0.01828608125266493 0.031621091678510224
-0.04360467994920186 0.026461237189506426 0.03947504361349012
-0.037315261869651534 0.03463639312634793 0.047328995548470025
-0.031025843790101208 0.04281154906318943 0.055182947483449936
-0.024736425710550885 0.050986705000030934 0.06303689941842984
-0.0831047207292821 -0.03075649025049875 0.0022643527627391686
-0.07681530264973178 -0.02258133431365725 0.010118304697719073
-0.07052588457018145 -0.01440617837681575 0.017972256632698975
-0.06423646649063113 -0.006231022439974252 0.02582620856767888
-0.0579470484110808 0.0019441334968672522 0.03368016050265879
-0.05165763033153047 0.010119289433708756 0.041534112437638694
-0.04536821225198016 0.018294445370550253 0.04938806437261859
-0.03907879417242983 0.026469601307391757 0.057242016307598495
-0.032789376092879505 0.03464475724423326 0.0650959682425784
-0.02649995801332918 0.04281991318107476 0.07294992017755832
-0.08486825303206039 -0.03892328206945493 0.012177373521867643
-0.07857883495251007 -0.03074812613261343 0.020031325456847545
-0.07228941687295974 -0.02257297019577193 0.02788527739182745
-0.06599999879340943 -0.01439781425893043 0.035739229326807356
-0.0597105807138591 -0.0062226583220889265 0.04359318126178726
-0.05342116263430877 0.0019524976147525775 0.051447133196767164
-0.04713174455475846 0.010127653551594075 0.05930108513174707
-0.04084232647520813 0.018302809488435576 0.06715503706672697
-0.0345529083956578 0.02647796542527708 0.07500898900170688
-0.028263490316107476 0.03465312136211859 0.08286294093668678
-0.08663178533483869 -0.047090073888411105 0.02209039428099611
-0.08034236725528837 -0.0389149179515696 0.029944346215976015
-0.07405294917573804 -0.030739762014728104 0.037798298150955915
-0.06776353109618771 -0.022564606077886604 0.04565225008593582
-0.0614741130166374 -0.0143894501410451 0.05350620202091573
-0.05518469493708707 -0.006214294204203596 0.061360153955895634
-0.04889527685753675 0.0019608617326379004 0.06921410589087554
-0.04260585877798642 0.010136017669479403 0.07706805782585543
-0.03631644069843609 0.018311173606320907 0.08492200976083535
-0.030027022618885773 0.02648632954316241 0.09277596169581526
0.030027022618885773 -0.02648632954316241 -0.09277596169581526
0.03631644069843609 -0.018311173606320907 -0.08492200976083535
0.04260585877798642 -0.010136017669479403 -0.07706805782585545
0.048895276857536744 -0.0019608617326379073 -0.06921410589087554
0.05518469493708707 0.006214294204203596 -0.061360153955895634
0.0614741130166374 0.0143894501410451 -0.05350620202091573
0.06776353109618771 0.022564606077886597 -0.045652250085935826
0.07405294917573804 0.0307397620147281 -0.03779829815095592
0.08034236725528837 0.0389149179515696 -0.029944346215976015
0.08663178533483869 0.047090073888411105 -0.02209039428099611
0.028263490316107476 -0.03465312136211859 -0.08286294093668678
0.0345529083956578 -0.02647796542527708 -0.07500898900170688
0.04084232647520813 -0.018302809488435576 -0.06715503706672697
0.04713174455475845 -0.010127653551594082 -0.059301085131747075
0.05342116263430877 -0.0019524976147525775 -0.051447133196767164
0.0597105807138591 0.0062226583220889265 -0.04359318126178726
0.06599999879340941 0.014397814258930422 -0.03573922932680736
0.07228941687295974 0.022572970195771928 -0.027885277391827452
0.07857883495251007 0.03074812613261343 -0.020031325456847545
0.08486825303206039 0.03892328206945493 -0.012177373521867643
0.026499958013329182 -0.04281991318107476 -0.07294992017755832
0.032789376092879505 -0.03464475724423326 -0.0650959682425784
0.03907879417242983 -0.026469601307391753 -0.05724201630759851
0.04536821225198015 -0.018294445370550257 -0.049388064372618605
0.05165763033153047 -0.010119289433708751 -0.041534112437638694
0.0579470484110808 -0.0019441334968672479 -0.03368016050265879
0.06423646649063113 0.006231022439974249 -0.025826208567678893
0.07052588457018145 0.014406178376815753 -0.017972256632698986
0.07681530264973178 0.022581334313657254 -0.010118304697719079
0.0831047207292821 0.030756490250498755 -0.0022643527627391738
0.024736425710550885 -0.050986705000030934 -0.06303689941842985
0.031025843790101208 -0.04281154906318943 -0.05518294748344995
0.037315261869651534 -0.03463639312634793 -0.047328995548470046
0.043604679949201856 -0.026461237189506426 -0.03947504361349014
0.04989409802875218 -0.018286081252664923 -0.03162109167851023
0.05618351610830251 -0.01011092531582342 -0.023767139743530327
0.062472934187852824 -0.001935769378981923 -0.015913187808550427
0.06876235226740315 0.006239386557859581 -0.00805923587357052
0.07505177034695348 0.014414542494701085 -0.00020528393859061217
0.0813411884265038 0.022589698431542585 0.007648667996389292
0.022972893407772588 -0.05915349681898711 -0.05312387865930138
0.02926231148732291 -0.050978340882145604 -0.04526992672432147
0.03555172956687324 -0.0428031849453041 -0.03741597478934157
0.04184114764642356 -0.0346280290084626 -0.02956202285436167
0.048130565725973885 -0.0264528730716211 -0.02170807091938176
0.054419983805524215 -0.018277717134779596 -0.013854118984401857
0.06070940188507453 -0.0101025611979381 -0.006000167049421957
0.06699881996462485 -0.001927405261096595 0.0018537848855579508
0.07328823804417518 0.006247750675744909 0.009707736820537858
0.0795776561237255 0.014422906612586408 0.017561688755517762
0.021209361104994294 -0.06732028863794329 -0.043210857900172914
0.027498779184544617 -0.05914513270110178 -0.03535690596519301
0.03378819726409494 -0.05096997676426027 -0.027502954030213102
0.04007761534364526 -0.04279482082741878 -0.0196490020952332
0.046367033423195585 -0.03461966489057727 -0.011795050160253291
0.052656451502745914 -0.02644450895373577 -0.003941098225273387
0.05894586958229623 -0.018269353016894273 0.003912853709706513
0.06523528766184657 -0.01009419708005277 0.01176680564468642
0.0715247057413969 -0.0019190411432112664 0.019620757579666328
0.07781412382094721 0.006256114793630234 0.027474709514646232
0.019445828802215997 -0.07548708045689945 -0.03329783714104445
0.02573524688176632 -0.06731192452005795 -0.025443885206064543
0.032024664961316646 -0.05913676858321645 -0.01758993327108464
0.03831408304086697 -0.05096161264637495 -0.009735981336104737
0.04460350112041729 -0.042786456709533446 -0.001882029401124829
0.05089291919996762 -0.03461130077269194 0.005971922533855075
0.057182337279517936 -0.026436144835850443 0.013825874468834974
0.06347175535906827 -0.01826098889900894 0.021679826403814884
0.0697611734386186 -0.010085832962167435 0.02953377833879479
0.07605059151816891 -0.0019106770253259353 0.03738773027377469
0.017682296499437703 -0.08365387227585562 -0.02338481638191598
0.023971714578988026 -0.07547871633901412 -0.015530864446936075
0.030261132658538352 -0.06730356040217261 -0.007676912511956172
0.036550550738088675 -0.05912840446533112 0.00017703942302373189
0.042839968817639 -0.05095324852848962 0.00803099135800364
0.04912938689718933 -0.042778092591648116 0.015884943292983542
0.05541880497673964 -0.03460293665480662 0.023738895227963443
0.06170822305628997 -0.026427780717965112 0.031592847162943354
0.0679976411358403 -0.01825262478112361 0.03944679909792326
0.07428705921539061 -0.010077468844282109 0.04730075103290316
0.015918764196659406 -0.09182066409481181 -0.013471795622787506
0.02220818227620973 -0.0836455081579703 -0.0056178436878076025
0.028497600355760055 -0.0754703522211288 0.0022361082471723014
0.034787018435310374 -0.0672951962842873 0.010090060182152206
0.0410764365148607 -0.05912004034744579 0.017944012117132112
0.047365854594411026 -0.05094488441060429 0.025797964052112016
0.05365527267396134 -0.04276972847376279 0.03365191598709192
0.05994469075351167 -0.03459457253692129 0.041505867922071824
0.06623410883306201 -0.02641941660007979 0.049359819857051734
0.07252352691261232 -0.01824426066323829 0.05721377179203164
0.014155231893881109 -0.09998745591376798 -0.0035587748636590377
0.02044464997343143 -0.09181229997692647 0.004295177071320866
0.026734068052981758 -0.08363714404008497 0.01214912900630077
0.03302348613253208 -0.07546198810324348 0.020003080941280674
0.0393129042120824 -0.06728683216640197 0.027857032876260582
0.04560232229163273 -0.05911167622956046 0.035710984811240486
0.05189174037118305 -0.050936520292718966 0.04356493674622038
0.05818115845073338 -0.04276136435587746 0.051418888681200293
0.06447057653028371 -0.03458620841903596 0.0592728406161802
0.07075999460983402 -0.026411052482194462 0.06712679255116011
-0.07075999460983402 0.026411052482194462 -0.06712679255116011
-0.059561437139976275 0.020533565590488145 -0.06997670023389957
-0.048362879670118514 0.014656078698781824 -0.07282660791663903
-0.037164322200260766 0.00877859180707551 -0.07567651559937849
-0.025965764730403004 0.0029011049153691874 -0.07852642328211795
-0.01476720726054525 -0.0029763819763371337 -0.08137633096485741
-0.0035686497906874987 -0.008853868868043447 -0.08422623864759687
0.007629907679170256 -0.014731355759749768 -0.08707614633033633
0.018828465149028018 -0.02060884265145609 -0.0899260540130758
0.030027022618885773 -0.02648632954316241 -0.09277596169581526
-0.07252352691261232 0.01824426066323829 -0.05721377179203164
-0.06132496944275457 0.01236677377153197 -0.0600636794747711
-0.05012641197289681 0.006489286879825649 -0.06291358715751055
-0.03892785450303906 0.0006117999881193347 -0.06576349484025001
-0.0277292970331813 -0.005265686903586986 -0.06861340252298948
-0.016530739563323547 -0.011143173795293308 -0.07146331020572894
-0.0053321820934657945 -0.01702066068699962 -0.0743132178884684
0.00586637537639196 -0.02289814757870594 -0.07716312557120786
0.01706493284624972 -0.028775634470412263 -0.08001303325394732
0.028263490316107476 -0.03465312136211859 -0.08286294093668678
-0.07428705921539061 0.010077468844282114 -0.04730075103290317
-0.06308850174553286 0.004199981952575796 -0.05015065871564263
-0.05188994427567511 -0.001677504939130525 -0.05300056639838209
-0.04069138680581736 -0.007554991830836839 -0.05585047408112155
-0.029492829335959595 -0.01343247872254316 -0.05870038176386101
-0.01829427186610184 -0.019309965614249483 -0.06155028944660047
-0.007095714396244091 -0.025187452505955797 -0.06440019712933993
0.004102843073613664 -0.031064939397662118 -0.0672501048120794
0.015301400543471426 -0.03694242628936844 -0.07010001249481886
0.026499958013329182 -0.04281991318107476 -0.07294992017755832
-0.07605059151816891 0.0019106770253259418 -0.037387730273774705
-0.06485203404831116 -0.003966809866380375 -0.040237637956514166
-0.0536534765784534 -0.009844296758086696 -0.04308754563925363
-0.042454919108595654 -0.01572178364979301 -0.04593745332199309
-0.03125636163873789 -0.021599270541499332 -0.04878736100473255
-0.020057804168880138 -0.027476757433205653 -0.05163726868747201
-0.008859246699022386 -0.03335424432491197 -0.05448717637021147
0.002339310770835369 -0.03923173121661829 -0.05733708405295093
0.01353786824069313 -0.04510921810832461 -0.06018699173569039
0.024736425710550885 -0.050986705000030934 -0.06303689941842985
-0.07781412382094721 -0.006256114793630234 -0.027474709514646232
-0.06661556635108946 -0.012133601685336552 -0.030324617197385693
-0.055417008881231695 -0.018011088577042873 -0.03317452488012515
-0.04421845141137395 -0.023888575468749187 -0.03602443256286461
-0.033019893941516186 -0.02976606236045551 -0.03887434024560407
-0.021821336471658435 -0.03564354925216183 -0.04172424792834353
-0.010622779001800682 -0.041521036143868144 -0.044574155611082994
0.0005757784680570725 -0.047398523035574465 -0.047424063293822455
0.011774335937914835 -0.053276009927280786 -0.050273970976561916
0.022972893407772588 -0.05915349681898711 -0.05312387865930138
-0.0795776561237255 -0.014422906612586408 -0.017561688755517762
-0.06837909865386775 -0.020300393504292726 -0.020411596438257223
-0.057180541184009996 -0.026177880395999047 -0.023261504120996684
-0.04598198371415225 -0.03205536728770536 -0.026111411803736145
-0.03478342624429449 -0.03793285417941168 -0.028961319486475606
-0.02358486877443673 -0.043810341071118 -0.03181122716921507
-0.012386311304578979 -0.04968782796282432 -0.03466113485195453
-0.0011877538347212237 -0.05556531485453064 -0.03751104253469399
0.010010803635136538 -0.06144280174623696 -0.04036095021743345
0.021209361104994294 -0.06732028863794329 -0.043210857900172914
-0.0813411884265038 -0.022589698431542578 -0.0076486679963893
-0.07014263095664605 -0.028467185323248895 -0.010498575679128761
-0.05894407348678829 -0.03434467221495522 -0.013348483361868222
-0.04774551601693054 -0.040222159106661534 -0.01619839104460768
-0.03654695854707278 -0.046099645998367855 -0.019048298727347143
-0.025348401077215026 -0.051977132890074176 -0.021898206410086603
-0.014149843607357273 -0.05785461978178049 -0.024748114092826064
-0.0029512861374995183 -0.0637321066734868 -0.027598021775565525
0.008247271332358244 -0.06960959356519313 -0.030447929458304986
0.019445828802215997 -0.07548708045689945 -0.03329783714104445
-0.0831047207292821 -0.03075649025049875 0.0022643527627391686
-0.07190616325942435 -0.03663397714220507 -0.0005855549200002924
-0.060707605789566584 -0.04251146403391139 -0.0034354626027397533
-0.049509048319708836 -0.04838895092561771 -0.006285370285479214
-0.038310490849851074 -0.05426643781732403 -0.009135277968218674
-0.02711193337999332 -0.06014392470903035 -0.011985185650958135
-0.015913375910135568 -0.06602141160073666 -0.014835093333697596
-0.004714818440277814 -0.07189889849244298 -0.01768500101643706
0.0064837390295799475 -0.0777763853841493 -0.02053490869917652
0.017682296499437703 -0.08365387227585562 -0.02338481638191598
-0.08486825303206039 -0.03892328206945493 0.012177373521867643
-0.07366969556220264 -0.044800768961161246 0.009327465839128182
-0.062471138092344884 -0.05067825585286757 0.00647755815638872
-0.051272580622487136 -0.05655574274457388 0.003627650473649259
-0.040074023152629375 -0.0624332296362802 0.0007777427909097985
-0.028875465682771616 -0.06831071652798652 -0.0020721648918296627
-0.017676908212913865 -0.07418820341969284 -0.004922072574569124
-0.006478350743056111 -0.08006569031139917 -0.0077719802573085845
0.00472020672680165 -0.08594317720310549 -0.010621887940048045
0.015918764196659406 -0.09182066409481181 -0.013471795622787506
-0.08663178533483869 -0.047090073888411105 0.02209039428099611
-0.07543322786498094 -0.05296756078011742 0.01924048659825665
-0.06423467039512318 -0.05884504767182374 0.01639057891551719
-0.05303611292526543 -0.06472253456353005 0.013540671232777728
-0.04183755545540767 -0.07060002145523638 0.010690763550038267
-0.030638997985549914 -0.0764775083469427 0.007840855867298806
-0.019440440515692162 -0.08235499523864902 0.004990948184559345
-0.008241883045834408 -0.08823248213035534 0.002141040501819884
0.0029566744240233545 -0.09410996902206166 -0.000708867180919577
0.014155231893881109 -0.09998745591376798 -0.0035587748636590377
-0.014155231893881109 0.09998745591376798 0.0035587748636590377
-0.0029566744240233545 0.09410996902206166 0.000708867180919577
0.0082418830458344 0.08823248213035534 -0.002141040501819884
0.019440440515692155 0.08235499523864902 -0.004990948184559345
0.030638997985549914 0.0764775083469427 -0.007840855867298806
0.04183755545540767 0.07060002145523638 -0.010690763550038267
0.053036112925265416 0.06472253456353007 -0.013540671232777728
0.06423467039512318 0.05884504767182374 -0.01639057891551719
0.07543322786498094 0.05296756078011742 -0.01924048659825665
0.08663178533483869 0.047090073888411105 -0.02209039428099611
-0.015918764196659406 0.09182066409481181 0.013471795622787506
-0.00472020672680165 0.08594317720310549 0.010621887940048045
0.006478350743056104 0.08006569031139917 0.0077719802573085845
0.01767690821291386 0.07418820341969284 0.004922072574569124
0.028875465682771616 0.06831071652798652 0.0020721648918296627
0.040074023152629375 0.0624332296362802 -0.0007777427909097985
0.05127258062248712 0.05655574274457389 -0.003627650473649259
0.062471138092344884 0.05067825585286757 -0.00647755815638872
0.07366969556220264 0.044800768961161246 -0.009327465839128182
0.08486825303206039 0.03892328206945493 -0.012177373521867643
-0.0176822964994377 0.08365387227585563 0.023384816381915974
-0.006483739029579947 0.07777638538414931 0.020534908699176513
0.004714818440277808 0.07189889849244299 0.017685001016437052
0.015913375910135565 0.06602141160073667 0.014835093333697591
0.027111933379993323 0.06014392470903035 0.01198518565095813
0.038310490849851074 0.05426643781732403 0.009135277968218669
0.04950904831970882 0.048388950925617714 0.006285370285479209
0.060707605789566584 0.04251146403391139 0.003435462602739748
0.07190616325942435 0.03663397714220507 0.0005855549200002871
0.0831047207292821 0.030756490250498755 -0.0022643527627391738
-0.019445828802215997 0.07548708045689946 0.03329783714104444
-0.008247271332358242 0.06960959356519314 0.03044792945830498
0.002951286137499513 0.06373210667348682 0.02759802177556552
0.014149843607357267 0.0578546197817805 0.024748114092826057
0.025348401077215026 0.051977132890074176 0.021898206410086597
0.03654695854707278 0.046099645998367855 0.019048298727347136
0.04774551601693053 0.04022215910666154 0.016198391044607675
0.05894407348678829 0.03434467221495522 0.013348483361868214
0.07014263095664605 0.028467185323248902 0.010498575679128753
0.0813411884265038 0.022589698431542585 0.007648667996389292
-0.021209361104994294 0.06732028863794329 0.043210857900172914
-0.010010803635136538 0.06144280174623696 0.04036095021743345
0.0011877538347212168 0.05556531485453064 0.03751104253469399
0.012386311304578972 0.049687827962824324 0.03466113485195453
0.02358486877443673 0.043810341071118 0.03181122716921507
0.03478342624429449 0.03793285417941168 0.028961319486475606
0.045981983714152234 0.03205536728770537 0.026111411803736145
0.057180541184009996 0.026177880395999047 0.023261504120996684
0.06837909865386775 0.020300393504292726 0.020411596438257223
0.0795776561237255 0.014422906612586408 0.017561688755517762
-0.022972893407772588 0.05915349681898711 0.05312387865930138
-0.011774335937914835 0.053276009927280786 0.050273970976561916
-0.0005757784680570794 0.047398523035574465 0.047424063293822455
0.010622779001800675 0.04152103614386815 0.044574155611082994
0.021821336471658435 0.03564354925216183 0.04172424792834353
0.033019893941516186 0.02976606236045551 0.03887434024560407
0.044218451411373934 0.023888575468749194 0.03602443256286461
0.055417008881231695 0.018011088577042873 0.03317452488012515
0.06661556635108946 0.012133601685336552 0.030324617197385693
0.07781412382094721 0.006256114793630234 0.027474709514646232
-0.024736425710550885 0.050986705000030934 0.06303689941842984
-0.013537868240693128 0.04510921810832461 0.06018699173569038
-0.002339310770835374 0.03923173121661829 0.05733708405295092
0.008859246699022381 0.03335424432491198 0.05448717637021146
0.020057804168880138 0.02747675743320566 0.051637268687471996
0.03125636163873789 0.02159927054149934 0.048787361004732535
0.04245491910859564 0.015721783649793025 0.045937453321993074
0.0536534765784534 0.009844296758086703 0.04308754563925361
0.06485203404831116 0.003966809866380382 0.04023763795651415
0.07605059151816891 -0.0019106770253259353 0.03738773027377469
-0.02649995801332918 0.04281991318107476 0.07294992017755832
-0.015301400543471426 0.03694242628936844 0.07010001249481886
-0.00410284307361367 0.03106493939766212 0.0672501048120794
0.007095714396244085 0.025187452505955808 0.06440019712933993
0.018294271866101844 0.019309965614249486 0.061550289446600466
0.0294928293359596 0.013432478722543165 0.058700381763861005
0.040691386805817346 0.00755499183083685 0.055850474081121544
0.05188994427567511 0.0016775049391305294 0.05300056639838208
0.06308850174553286 -0.004199981952575792 0.05015065871564262
0.07428705921539061 -0.010077468844282109 0.04730075103290316
-0.028263490316107476 0.03465312136211859 0.08286294093668678
-0.01706493284624972 0.028775634470412263 0.08001303325394732
-0.005866375376391967 0.02289814757870594 0.07716312557120786
0.005332182093465788 0.017020660686999627 0.0743132178884684
0.016530739563323547 0.011143173795293308 0.07146331020572894
0.0277292970331813 0.005265686903586986 0.06861340252298948
0.038927854503039046 -0.0006117999881193278 0.06576349484025001
0.05012641197289681 -0.006489286879825649 0.06291358715751055
0.06132496944275457 -0.01236677377153197 0.0600636794747711
0.07252352691261232 -0.01824426066323829 0.05721377179203164
-0.030027022618885773 0.02648632954316241 0.09277596169581526
-0.018828465149028018 0.02060884265145609 0.0899260540130758
-0.007629907679170263 0.014731355759749768 0.08707614633033633
0.0035686497906874917 0.008853868868043454 0.08422623864759687
0.01476720726054525 0.0029763819763371337 0.08137633096485741
0.025965764730403004 -0.0029011049153691874 0.07852642328211795
0.03716432220026075 -0.008778591807075502 0.07567651559937849
0.048362879670118514 -0.014656078698781824 0.07282660791663903
0.059561437139976275 -0.020533565590488145 0.06997670023389957
0.07075999460983402 -0.026411052482194462 0.06712679255116011
-0.07075999460983402 0.026411052482194462 -0.06712679255116011
-0.059561437139976275 0.020533565590488145 -0.06997670023389957
-0.048362879670118514 0.014656078698781824 -0.07282660791663903
-0.037164322200260766 0.00877859180707551 -0.07567651559937849
-0.025965764730403004 0.0029011049153691874 -0.07852642328211795
-0.01476720726054525 -0.0029763819763371337 -0.08137633096485741
-0.0035686497906874987 -0.008853868868043447 -0.08422623864759687
0.007629907679170256 -0.014731355759749768 -0.08707614633033633
0.018828465149028018 -0.02060884265145609 -0.0899260540130758
0.030027022618885773 -0.02648632954316241 -0.09277596169581526
-0.06447057653028371 0.03458620841903596 -0.0592728406161802
-0.053272019060425946 0.028708721527329645 -0.06212274829891966
-0.0420734615905682 0.022831234635623324 -0.06497265598165912
-0.030874904120710436 0.016953747743917006 -0.06782256366439858
-0.01967634665085268 0.011076260852210688 -0.07067247134713804
-0.008477789180994927 0.00519877396050437 -0.0735223790298775
0.002720768288862824 -0.000678712931201951 -0.07637228671261696
0.01391932575872058 -0.006556199822908265 -0.07922219439535642
0.02511788322857834 -0.012433686714614593 -0.08207210207809588
0.03631644069843609 -0.018311173606320907 -0.08492200976083535
-0.05818115845073338 0.04276136435587746 -0.051418888681200293
-0.04698260098087562 0.03688387746417114 -0.054268796363939754
-0.03578404351101787 0.031006390572464824 -0.057118704046679215
-0.024585486041160114 0.025128903680758506 -0.059968611729418676
-0.013386928571302355 0.01925141678905219 -0.06281851941215814
-0.002188371101444601 0.013373929897345867 -0.0656684270948976
0.00901018636841315 0.007496443005639552 -0.06851833477763707
0.020208743838270905 0.0016189561139332315 -0.07136824246037653
0.03140730130812867 -0.00425853077777309 -0.07421815014311599
0.04260585877798642 -0.010136017669479403 -0.07706805782585545
-0.051891740371183055 0.05093652029271896 -0.04356493674622039
-0.0406931829013253 0.045059033401012645 -0.04641484442895985
-0.029494625431467546 0.039181546509306324 -0.04926475211169931
-0.01829606796160979 0.03330405961760001 -0.05211465979443877
-0.007097510491752037 0.02742657272589369 -0.05496456747717823
0.00410104697810572 0.021549085834187368 -0.057814475159917694
0.015299604447963472 0.015671598942481053 -0.060664382842657155
0.026498161917821228 0.009794112050774736 -0.06351429052539662
0.03769671938767899 0.003916625159068414 -0.06636419820813608
0.048895276857536744 -0.0019608617326379073 -0.06921410589087554
-0.04560232229163273 0.05911167622956046 -0.035710984811240486
-0.03440376482177498 0.05323418933785415 -0.03856089249397995
-0.02320520735191722 0.04735670244614783 -0.04141080017671941
-0.012006649882059465 0.04147921555444151 -0.04426070785945887
-0.0008080924122017088 0.03560172866273519 -0.04711061554219833
0.010390465057656046 0.02972424177102887 -0.04996052322493779
0.021589022527513796 0.023846754879322557 -0.05281043090767725
0.03278757999737155 0.01796926798761624 -0.05566033859041671
0.04398613746722931 0.012091781095909915 -0.05851024627315617
0.05518469493708707 0.006214294204203596 -0.061360153955895634
-0.0393129042120824 0.06728683216640197 -0.027857032876260582
-0.028114346742224648 0.06140934527469565 -0.030706940559000043
-0.016915789272366897 0.05553185838298933 -0.033556848241739504
-0.005717231802509141 0.04965437149128302 -0.036406755924478965
0.005481325667348616 0.043776884599576696 -0.039256663607218426
0.01667988313720637 0.037899397707870375 -0.042106571289957886
0.027878440607064122 0.03202191081616406 -0.04495647897269735
0.03907699807692187 0.02614442392445774 -0.04780638665543681
0.05027555554677964 0.02026693703275142 -0.05065629433817627
0.0614741130166374 0.0143894501410451 -0.05350620202091573
-0.03302348613253209 0.07546198810324346 -0.02000308094128068
-0.02182492866267433 0.06958450121153716 -0.022852988624020142
-0.010626371192816574 0.06370701431983083 -0.025702896306759603
0.0005721862770411801 0.05782952742812451 -0.028552803989499064
0.011770743746898937 0.05195204053641819 -0.03140271167223852
0.022969301216756693 0.04607455364471187 -0.03425261935497798
0.03416785868661444 0.04019706675300556 -0.037102527037717443
0.0453664161564722 0.034319579861299236 -0.039952434720456904
0.056564973626329965 0.028442092969592915 -0.042802342403196365
0.06776353109618771 0.022564606077886597 -0.045652250085935826
-0.026734068052981758 0.08363714404008497 -0.012149129006300777
-0.015535510583124006 0.07775965714837865 -0.014999036689040235
-0.0043369531132662524 0.07188217025667233 -0.017848944371779696
0.006861604356591502 0.06600468336496601 -0.020698852054519157
0.01806016182644926 0.060127196473259696 -0.023548759737258618
0.029258719296307016 0.054249709581553375 -0.02639866741999808
0.04045727676616477 0.04837222268984706 -0.029248575102737536
0.05165583423602252 0.04249473579814074 -0.032098482785477
0.06285439170588028 0.03661724890643442 -0.03494839046821646
0.07405294917573804 0.0307397620147281 -0.03779829815095592
-0.02044464997343143 0.09181229997692647 -0.004295177071320866
-0.009246092503573677 0.08593481308522016 -0.007145084754060327
0.0019524649662840776 0.08005732619351384 -0.009994992436799788
0.013151022436141833 0.07417983930180752 -0.01284490011953925
0.02434957990599959 0.0683023524101012 -0.01569480780227871
0.035548137375857346 0.06242486551839488 -0.01854471548501817
0.0467466948457151 0.056547378626688564 -0.021394623167757632
0.05794525231557285 0.05066989173498224 -0.024244530850497093
0.06914380978543061 0.04479240484327592 -0.027094438533236554
0.08034236725528837 0.0389149179515696 -0.029944346215976015
-0.014155231893881109 0.09998745591376798 0.0035587748636590377
-0.0029566744240233545 0.09410996902206166 0.000708867180919577
0.0082418830458344 0.08823248213035534 -0.002141040501819884
0.019440440515692155 0.08235499523864902 -0.004990948184559345
0.030638997985549914 0.0764775083469427 -0.007840855867298806
0.04183755545540767 0.07060002145523638 -0.010690763550038267
0.053036112925265416 0.06472253456353007 -0.013540671232777728
0.06423467039512318 0.05884504767182374 -0.01639057891551719
0.07543322786498094 0.05296756078011742 -0.01924048659825665
0.08663178533483869 0.047090073888411105 -0.02209039428099611
-0.08663178533483869 -0.047090073888411105 0.02209039428099611
-0.07543322786498094 -0.05296756078011742 0.01924048659825665
-0.06423467039512318 -0.05884504767182374 0.01639057891551719
-0.05303611292526543 -0.06472253456353005 0.013540671232777728
-0.04183755545540767 -0.07060002145523638 0.010690763550038267
-0.030638997985549914 -0.0764775083469427 0.007840855867298806
-0.019440440515692162 -0.08235499523864902 0.004990948184559345
-0.008241883045834408 -0.08823248213035534 0.002141040501819884
0.0029566744240233545 -0.09410996902206166 -0.000708867180919577
0.014155231893881109 -0.09998745591376798 -0.0035587748636590377
-0.08034236725528837 -0.0389149179515696 0.029944346215976015
-0.06914380978543061 -0.04479240484327592 0.027094438533236554
-0.05794525231557286 -0.05066989173498224 0.024244530850497093
-0.0467466948457151 -0.05654737862668856 0.021394623167757632
-0.035548137375857346 -0.06242486551839488 0.01854471548501817
-0.02434957990599959 -0.0683023524101012 0.01569480780227871
-0.01315102243614184 -0.07417983930180752 0.01284490011953925
-0.0019524649662840845 -0.08005732619351383 0.009994992436799788
0.009246092503573677 -0.08593481308522016 0.007145084754060327
0.02044464997343143 -0.09181229997692647 0.004295177071320866
-0.07405294917573804 -0.030739762014728104 0.037798298150955915
-0.06285439170588028 -0.03661724890643442 0.034948390468216455
-0.05165583423602253 -0.04249473579814074 0.032098482785476994
-0.04045727676616478 -0.04837222268984706 0.029248575102737536
-0.02925871929630702 -0.054249709581553375 0.026398667419998075
-0.018060161826449265 -0.060127196473259696 0.023548759737258614
-0.006861604356591513 -0.06600468336496601 0.020698852054519153
0.004336953113266242 -0.07188217025667233 0.017848944371779692
0.015535510583124003 -0.07775965714837865 0.014999036689040231
0.026734068052981758 -0.08363714404008497 0.01214912900630077
-0.06776353109618771 -0.022564606077886604 0.04565225008593582
-0.056564973626329965 -0.028442092969592922 0.04280234240319636
-0.04536641615647221 -0.03431957986129924 0.0399524347204569
-0.034167858686614455 -0.04019706675300556 0.037102527037717443
-0.0229693012167567 -0.04607455364471188 0.034252619354977976
-0.011770743746898942 -0.0519520405364182 0.031402711672238515
-0.0005721862770411922 -0.057829527428124514 0.028552803989499057
0.010626371192816564 -0.06370701431983083 0.025702896306759596
0.021824928662674326 -0.06958450121153716 0.022852988624020135
0.03302348613253208 -0.07546198810324348 0.020003080941280674
-0.0614741130166374 -0.0143894501410451 0.05350620202091573
-0.05027555554677964 -0.02026693703275142 0.05065629433817627
-0.03907699807692188 -0.026144423924457736 0.04780638665543681
-0.02787844060706413 -0.032021910816164054 0.04495647897269735
-0.01667988313720637 -0.037899397707870375 0.042106571289957886
-0.005481325667348616 -0.043776884599576696 0.039256663607218426
0.005717231802509134 -0.04965437149128301 0.036406755924478965
0.01691578927236689 -0.055531858382989324 0.033556848241739504
0.028114346742224648 -0.06140934527469565 0.030706940559000043
0.0393129042120824 -0.06728683216640197 0.027857032876260582
-0.05518469493708707 -0.006214294204203596 0.061360153955895634
-0.04398613746722931 -0.012091781095909915 0.05851024627315617
-0.03278757999737156 -0.017969267987616232 0.05566033859041671
-0.021589022527513803 -0.02384675487932255 0.05281043090767725
-0.010390465057656046 -0.02972424177102887 0.04996052322493779
0.0008080924122017088 -0.03560172866273519 0.04711061554219833
0.012006649882059458 -0.041479215554441506 0.04426070785945887
0.023205207351917213 -0.04735670244614783 0.04141080017671941
0.03440376482177498 -0.05323418933785415 0.03856089249397995
0.04560232229163273 -0.05911167622956046 0.035710984811240486
-0.04889527685753675 0.0019608617326379004 0.06921410589087554
-0.03769671938767899 -0.003916625159068414 0.06636419820813608
-0.02649816191782124 -0.009794112050774736 0.06351429052539662
-0.015299604447963484 -0.015671598942481057 0.06066438284265715
-0.0041010469781057254 -0.021549085834187374 0.05781447515991769
0.00709751049175203 -0.027426572725893696 0.054964567477178226
0.01829606796160978 -0.03330405961760001 0.05211465979443877
0.02949462543146754 -0.03918154650930633 0.04926475211169931
0.0406931829013253 -0.04505903340101265 0.046414844428959844
0.05189174037118305 -0.050936520292718966 0.04356493674622038
-0.04260585877798642 0.010136017669479403 0.07706805782585543
-0.03140730130812867 0.004258530777773083 0.07421815014311597
-0.020208743838270916 -0.0016189561139332315 0.07136824246037651
-0.009010186368413161 -0.007496443005639552 0.06851833477763705
0.0021883711014445977 -0.013373929897345871 0.06566842709489759
0.013386928571302352 -0.019251416789052192 0.06281851941215813
0.024585486041160107 -0.025128903680758506 0.059968611729418676
0.035784043511017855 -0.031006390572464824 0.057118704046679215
0.046982600980875616 -0.03688387746417115 0.054268796363939754
0.05818115845073338 -0.04276136435587746 0.051418888681200293
-0.03631644069843609 0.018311173606320907 0.08492200976083535
-0.02511788322857834 0.012433686714614593 0.08207210207809588
-0.013919325758720586 0.006556199822908272 0.07922219439535642
-0.002720768288862831 0.000678712931201951 0.07637228671261696
0.008477789180994927 -0.00519877396050437 0.0735223790298775
0.01967634665085268 -0.011076260852210688 0.07067247134713804
0.030874904120710436 -0.016953747743917003 0.06782256366439858
0.042073461590568184 -0.02283123463562332 0.06497265598165912
0.053272019060425946 -0.028708721527329645 0.06212274829891966
0.06447057653028371 -0.03458620841903596 0.0592728406161802
-0.030027022618885773 0.02648632954316241 0.09277596169581526
-0.018828465149028018 0.02060884265145609 0.0899260540130758
-0.007629907679170263 0.014731355759749768 0.08707614633033633
0.0035686497906874917 0.008853868868043454 0.08422623864759687
0.01476720726054525 0.0029763819763371337 0.08137633096485741
0.025965764730403004 -0.0029011049153691874 0.07852642328211795
0.03716432220026075 -0.008778591807075502 0.07567651559937849
0.048362879670118514 -0.014656078698781824 0.07282660791663903
0.059561437139976275 -0.020533565590488145 0.06997670023389957
0.07075999460983402 -0.026411052482194462 0.06712679255116011
