# .PCD v0.7 - Point Cloud Data file format
VERSION 0.7
FIELDS x y z
SIZE 4 4 4
TYPE F F F
COUNT 1 1 1
WIDTH 600
HEIGHT 1
VIEWPOINT 0 0 0 1 0 0 0
POINTS 600
DATA ascii
-0.1092984401895545 -0.0661416328961301 -0.06588693626826472
-0.10782096946024733 -0.04792886171596796 -0.06339164092060386
-0.10634349873094015 -0.029716090535805834 -0.06089634557294299
-0.10486602800163299 -0.011503319355643698 -0.05840105022528213
-0.1033885572723258 0.006709451824518443 -0.05590575487762126
-0.10191108654301863 0.02492222300468058 -0.053410459529960395
-0.10043361581371146 0.043134994184842713 -0.050915164182299535
-0.09895614508440428 0.06134776536500485 -0.04841986883463867
-0.0974786743550971 0.07956053654516698 -0.04592457348697781
-0.09600120362578994 0.09777330772532912 -0.04342927813931694
-0.10412824886499462 -0.06895561857748428 -0.04840937754453155
-0.10265077813568746 -0.05074284739732213 -0.04591408219687069
-0.10117330740638028 -0.032530076217159996 -0.04341878684920982
-0.09969583667707312 -0.014317305036997862 -0.040923491501548954
-0.09821836594776594 0.003895466143164279 -0.038428196153888095
-0.09674089521845876 0.022108237323326417 -0.03593290080622723
-0.0952634244891516 0.04032100850348855 -0.03343760545856636
-0.09378595375984441 0.058533779683650686 -0.0309423101109055
-0.09230848303053724 0.07674655086381281 -0.028447014763244637
-0.09083101230123007 0.09495932204397495 -0.02595171941558377
-0.09895805754043475 -0.07176960425883844 -0.030931818820798377
-0.09748058681112759 -0.05355683307867629 -0.028436523473137514
-0.09600311608182041 -0.03534406189851416 -0.02594122812547665
-0.09452564535251325 -0.017131290718352028 -0.023445932777815787
-0.09304817462320607 0.0010814804618101148 -0.020950637430154923
-0.09157070389389889 0.01929425164197225 -0.018455342082494056
-0.09009323316459172 0.03750702282213438 -0.015960046734833193
-0.08861576243528455 0.05571979400229652 -0.013464751387172328
-0.08713829170597737 0.07393256518245865 -0.010969456039511464
-0.0856608209766702 0.09214533636262079 -0.008474160691850597
-0.09378786621587488 -0.0745835899401926 -0.013454260097065206
-0.09231039548656772 -0.05637081876003046 -0.010958964749404342
-0.09083292475726054 -0.03815804757986833 -0.008463669401743477
-0.08935545402795338 -0.01994527639970619 -0.005968374054082614
-0.0878779832986462 -0.0017325052195440495 -0.00347307870642175
-0.08640051256933902 0.01648026596061809 -0.0009777833587608833
-0.08492304184003185 0.03469303714078022 0.0015175119888999802
-0.08344557111072468 0.052905808320942355 0.004012807336560844
-0.0819681003814175 0.07111857950110449 0.006508102684221707
-0.08049062965211033 0.08933135068126663 0.009003398031882574
-0.088617674891315 -0.07739757562154677 0.004023298626667971
-0.08714020416200784 -0.059184804441384624 0.006518593974328834
-0.08566273343270066 -0.04097203326122249 0.0090138893219897
-0.08418526270339349 -0.022759262081060355 0.011509184669650563
-0.08270779197408631 -0.004546490900898215 0.014004480017311426
-0.08123032124477914 0.013666280279263924 0.016499775364972293
-0.07975285051547197 0.03187905145942605 0.018995070712633157
-0.07827537978616479 0.05009182263958819 0.02149036606029402
-0.07679790905685761 0.06830459381975032 0.023985661407954884
-0.07532043832755045 0.08651736499991246 0.02648095675561575
-0.08344748356675513 -0.08021156130290093 0.021500857350401144
-0.08197001283744797 -0.06199879012273878 0.023996152698062007
-0.08049254210814079 -0.04378601894257665 0.026491448045722874
-0.07901507137883362 -0.02557324776241452 0.028986743393383738
-0.07753760064952644 -0.007360476582252379 0.0314820387410446
-0.07606012992021927 0.010852294597909758 0.033977334088705465
-0.0745826591909121 0.02906506577807189 0.03647262943636633
-0.07310518846160492 0.04727783695823403 0.03896792478402719
-0.07162771773229774 0.06549060813839616 0.04146322013168806
-0.07015024700299058 0.0837033793185583 0.043958515479348925
-0.07827729224219526 -0.0830255469842551 0.03897841607413431
-0.0767998215128881 -0.06481277580409295 0.04147371142179518
-0.07532235078358092 -0.04660000462393082 0.04396900676945604
-0.07384488005427375 -0.028387233443768683 0.046464302117116905
-0.07236740932496658 -0.010174462263606542 0.048959597464777765
-0.0708899385956594 0.008038308916555596 0.05145489281243863
-0.06941246786635223 0.026251080096717727 0.0539501881600995
-0.06793499713704505 0.044463851276879865 0.05644548350776036
-0.06645752640773787 0.06267662245704199 0.058940778855421226
-0.06498005567843071 0.08088939363720413 0.06143607420308209
-0.07310710091763538 -0.08583953266560926 0.056455974797867486
-0.07162963018832821 -0.0676267614854471 0.05895127014552835
-0.07015215945902104 -0.04941399030528498 0.06144656549318921
-0.06867468872971387 -0.03120121912512285 0.06394186084085007
-0.06719721800040669 -0.012988447944960707 0.06643715618851094
-0.06571974727109951 0.005224323235201431 0.06893245153617181
-0.06424227654179235 0.02343709441536356 0.07142774688383267
-0.06276480581248517 0.0416498655955257 0.07392304223149354
-0.061287335083178 0.05986263677568783 0.0764183375791544
-0.05980986435387083 0.07807540795584997 0.07891363292681526
-0.06793690959307551 -0.08865351834696342 0.07393353352160066
-0.06645943886376834 -0.07044074716680128 0.07642882886926153
-0.06498196813446117 -0.05222797598663915 0.0789241242169224
-0.063504497405154 -0.03401520480647701 0.08141941956458326
-0.06202702667584682 -0.015802433626314873 0.08391471491224411
-0.06054955594653964 0.0024103375538472656 0.08641001025990498
-0.05907208521723248 0.020623108734009396 0.08890530560756585
-0.0575946144879253 0.038835879914171534 0.09140060095522672
-0.05611714375861812 0.057048651094333665 0.09389589630288758
-0.054639673029310956 0.07526142227449581 0.09639119165054845
-0.06276671826851564 -0.09146750402831759 0.09141109224533384
-0.06128924753920847 -0.07325473284815544 0.0939063875929947
-0.05981177680990129 -0.055041961667993314 0.09640168294065557
-0.058334306080594124 -0.036829190487831176 0.09889697828831642
-0.056856835351286945 -0.018616419307669035 0.10139227363597729
-0.05537936462197977 -0.0004036481275068986 0.10388756898363816
-0.0539018938926726 0.017809123052655234 0.10638286433129902
-0.05242442316336542 0.03602189423281737 0.10887815967895989
-0.050946952434058244 0.0542346654129795 0.11137345502662074
-0.04946948170475108 0.07244743659314164 0.11386875037428161
0.04946948170475108 -0.07244743659314164 -0.11386875037428161
0.050946952434058244 -0.0542346654129795 -0.11137345502662074
0.05242442316336542 -0.036021894232817375 -0.10887815967895989
0.05390189389267259 -0.017809123052655244 -0.10638286433129902
0.05537936462197977 0.0004036481275068986 -0.10388756898363816
0.056856835351286945 0.018616419307669035 -0.10139227363597729
0.05833430608059411 0.03682919048783117 -0.09889697828831642
0.05981177680990129 0.05504196166799331 -0.09640168294065557
0.06128924753920847 0.07325473284815544 -0.0939063875929947
0.06276671826851564 0.09146750402831759 -0.09141109224533384
0.054639673029310956 -0.07526142227449581 -0.09639119165054845
0.05611714375861812 -0.057048651094333665 -0.09389589630288758
0.0575946144879253 -0.03883587991417154 -0.09140060095522672
0.059072085217232465 -0.020623108734009406 -0.08890530560756585
0.06054955594653964 -0.0024103375538472656 -0.08641001025990498
0.06202702667584682 0.015802433626314873 -0.08391471491224411
0.06350449740515399 0.034015204806477004 -0.08141941956458326
0.06498196813446117 0.05222797598663914 -0.0789241242169224
0.06645943886376834 0.07044074716680128 -0.07642882886926153
0.06793690959307551 0.08865351834696342 -0.07393353352160066
0.059809864353870826 -0.07807540795584997 -0.07891363292681527
0.06128733508317799 -0.05986263677568783 -0.07641833757915441
0.06276480581248517 -0.041649865595525706 -0.07392304223149354
0.06424227654179233 -0.023437094415363572 -0.07142774688383267
0.06571974727109951 -0.00522432323520143 -0.06893245153617182
0.06719721800040669 0.012988447944960709 -0.06643715618851095
0.06867468872971386 0.031201219125122838 -0.06394186084085009
0.07015215945902104 0.049413990305284976 -0.06144656549318922
0.07162963018832821 0.06762676148544712 -0.05895127014552836
0.07310710091763538 0.08583953266560926 -0.05645597479786749
0.0649800556784307 -0.08088939363720413 -0.0614360742030821
0.06645752640773786 -0.06267662245704199 -0.05894077885542123
0.06793499713704504 -0.04446385127687987 -0.05644548350776037
0.0694124678663522 -0.026251080096717734 -0.053950188160099506
0.07088993859565938 -0.008038308916555595 -0.051454892812438646
0.07236740932496656 0.010174462263606543 -0.04895959746477778
0.07384488005427373 0.028387233443768676 -0.04646430211711691
0.0753223507835809 0.04660000462393081 -0.04396900676945605
0.07679982151288808 0.06481277580409295 -0.041473711421795185
0.07827729224219525 0.0830255469842551 -0.03897841607413432
0.07015024700299058 -0.0837033793185583 -0.043958515479348925
0.07162771773229774 -0.06549060813839616 -0.04146322013168806
0.07310518846160492 -0.04727783695823404 -0.03896792478402719
0.07458265919091209 -0.0290650657780719 -0.03647262943636633
0.07606012992021927 -0.010852294597909758 -0.033977334088705465
0.07753760064952644 0.007360476582252379 -0.0314820387410446
0.07901507137883361 0.02557324776241451 -0.028986743393383738
0.08049254210814079 0.043786018942576645 -0.026491448045722874
0.08197001283744797 0.06199879012273878 -0.023996152698062007
0.08344748356675513 0.08021156130290093 -0.021500857350401144
0.07532043832755045 -0.08651736499991246 -0.02648095675561575
0.07679790905685761 -0.06830459381975032 -0.023985661407954884
0.07827537978616479 -0.050091822639588196 -0.02149036606029402
0.07975285051547196 -0.031879051459426065 -0.018995070712633157
0.08123032124477914 -0.013666280279263924 -0.016499775364972293
0.08270779197408631 0.004546490900898215 -0.014004480017311426
0.08418526270339348 0.022759262081060345 -0.011509184669650563
0.08566273343270066 0.040972033261222486 -0.0090138893219897
0.08714020416200784 0.059184804441384624 -0.006518593974328834
0.088617674891315 0.07739757562154677 -0.004023298626667971
0.08049062965211032 -0.08933135068126663 -0.009003398031882584
0.08196810038141748 -0.07111857950110449 -0.006508102684221717
0.08344557111072466 -0.05290580832094236 -0.004012807336560853
0.08492304184003183 -0.03469303714078023 -0.0015175119888999901
0.086400512569339 -0.016480265960618086 0.0009777833587608733
0.08787798329864618 0.001732505219544051 0.0034730787064217402
0.08935545402795335 0.019945276399706183 0.005968374054082604
0.09083292475726053 0.03815804757986832 0.008463669401743467
0.0923103954865677 0.05637081876003046 0.010958964749404332
0.09378786621587487 0.0745835899401926 0.013454260097065195
0.0856608209766702 -0.09214533636262079 0.00847416069185059
0.08713829170597737 -0.07393256518245865 0.010969456039511457
0.08861576243528455 -0.05571979400229653 0.01346475138717232
0.09009323316459171 -0.03750702282213439 0.015960046734833186
0.09157070389389889 -0.01929425164197225 0.01845534208249405
0.09304817462320607 -0.0010814804618101137 0.020950637430154916
0.09452564535251323 0.017131290718352017 0.02344593277781578
0.09600311608182041 0.035344061898514155 0.025941228125476643
0.09748058681112759 0.05355683307867629 0.028436523473137507
0.09895805754043475 0.07176960425883844 0.03093181882079837
0.09083101230123007 -0.09495932204397495 0.02595171941558377
0.09230848303053724 -0.07674655086381281 0.028447014763244637
0.09378595375984441 -0.05853377968365069 0.0309423101109055
0.09526342448915158 -0.040321008503488555 0.03343760545856636
0.09674089521845876 -0.022108237323326417 0.03593290080622723
0.09821836594776594 -0.003895466143164279 0.038428196153888095
0.0996958366770731 0.014317305036997852 0.040923491501548954
0.10117330740638028 0.03253007621715999 0.04341878684920982
0.10265077813568746 0.05074284739732213 0.04591408219687069
0.10412824886499462 0.06895561857748428 0.04840937754453155
0.09600120362578994 -0.09777330772532912 0.04342927813931694
0.0974786743550971 -0.07956053654516698 0.04592457348697781
0.09895614508440428 -0.06134776536500486 0.04841986883463867
0.10043361581371145 -0.04313499418484272 0.050915164182299535
0.10191108654301863 -0.02492222300468058 0.053410459529960395
0.1033885572723258 -0.006709451824518443 0.05590575487762126
0.10486602800163297 0.011503319355643688 0.05840105022528213
0.10634349873094015 0.029716090535805827 0.06089634557294299
0.10782096946024733 0.04792886171596796 0.06339164092060386
0.1092984401895545 0.0661416328961301 0.06588693626826472
-0.1092984401895545 -0.0661416328961301 -0.06588693626826472
-0.0916575599790761 -0.06684227775135361 -0.07121824894671104
-0.07401667976859772 -0.06754292260657711 -0.07654956162515736
-0.05637579955811932 -0.06824356746180062 -0.08188087430360369
-0.038734919347640916 -0.06894421231702412 -0.08721218698205001
-0.021094039137162516 -0.06964485717224762 -0.09254349966049633
-0.0034531589266841257 -0.07034550202747113 -0.09787481233894264
0.014187721283794273 -0.07104614688269463 -0.10320612501738897
0.031828601494272676 -0.07174679173791813 -0.10853743769583529
0.04946948170475108 -0.07244743659314164 -0.11386875037428161
-0.10412824886499462 -0.06895561857748428 -0.04840937754453155
-0.08648736865451623 -0.06965626343270778 -0.05374069022297787
-0.06884648844403785 -0.07035690828793129 -0.05907200290142419
-0.05120560823355944 -0.07105755314315479 -0.06440331557987052
-0.03356472802308104 -0.07175819799837829 -0.06973462825831683
-0.015923847812602643 -0.0724588428536018 -0.07506594093676315
0.0017170323978757478 -0.0731594877088253 -0.08039725361520948
0.019357912608354146 -0.0738601325640488 -0.0857285662936558
0.03699879281883255 -0.0745607774192723 -0.09105987897210212
0.054639673029310956 -0.07526142227449581 -0.09639119165054845
-0.09895805754043475 -0.07176960425883844 -0.030931818820798377
-0.08131717732995636 -0.07247024911406194 -0.0362631314992447
-0.06367629711947796 -0.07317089396928544 -0.04159444417769102
-0.04603541690899957 -0.07387153882450895 -0.04692575685613734
-0.028394536698521166 -0.07457218367973245 -0.052257069534583665
-0.010753656488042768 -0.07527282853495595 -0.05758838221302998
0.006887223722435621 -0.07597347339017946 -0.06291969489147631
0.024528103932914023 -0.07667411824540296 -0.06825100756992263
0.04216898414339242 -0.07737476310062646 -0.07358232024836894
0.059809864353870826 -0.07807540795584997 -0.07891363292681527
-0.09378786621587488 -0.0745835899401926 -0.013454260097065206
-0.07614698600539649 -0.0752842347954161 -0.018785572775511527
-0.05850610579491809 -0.0759848796506396 -0.024116885453957848
-0.040865225584439696 -0.0766855245058631 -0.02944819813240417
-0.023224345373961293 -0.07738616936108661 -0.03477951081085049
-0.005583465163482895 -0.07808681421631011 -0.040110823489296815
0.012057415046995494 -0.07878745907153362 -0.04544213616774313
0.029698295257473896 -0.07948810392675712 -0.05077344884618946
0.0473391754679523 -0.08018874878198062 -0.056104761524635775
0.0649800556784307 -0.08088939363720413 -0.0614360742030821
-0.088617674891315 -0.07739757562154677 0.004023298626667971
-0.0709767946808366 -0.07809822047677027 -0.0013080140517783504
-0.053335914470358216 -0.07879886533199378 -0.006639326730224672
-0.03569503425987982 -0.07949951018721728 -0.011970639408670993
-0.01805415404940142 -0.08020015504244078 -0.017301952087117316
-0.00041327383892301995 -0.08090079989766429 -0.022633264765563637
0.01722760637155537 -0.08160144475288779 -0.027964577444009958
0.03486848658203377 -0.08230208960811129 -0.033295890122456276
0.052509366792512176 -0.0830027344633348 -0.0386272028009026
0.07015024700299058 -0.0837033793185583 -0.043958515479348925
-0.08344748356675513 -0.08021156130290093 0.021500857350401144
-0.06580660335627674 -0.08091220615812443 0.016169544671954823
-0.048165723145798346 -0.08161285101334793 0.010838231993508503
-0.030524842935319946 -0.08231349586857144 0.005506919315062182
-0.012883962724841545 -0.08301414072379494 0.000175606636615859
0.004756917485636855 -0.08371478557901844 -0.005155706041830462
0.022397797696115246 -0.08441543043424195 -0.010487018720276783
0.04003867790659364 -0.08511607528946545 -0.015818331398723105
0.057679558117072045 -0.08581672014468895 -0.021149644077169426
0.07532043832755045 -0.08651736499991246 -0.02648095675561575
-0.07827729224219526 -0.0830255469842551 0.03897841607413431
-0.06063641203171686 -0.0837261918394786 0.033647103395687994
-0.04299553182123847 -0.0844268366947021 0.02831579071724167
-0.025354651610760077 -0.08512748154992561 0.022984478038795348
-0.007713771400281672 -0.08582812640514911 0.017653165360349027
0.009927108810196726 -0.08652877126037262 0.012321852681902704
0.027567989020675115 -0.08722941611559612 0.0069905400034563836
0.04520886923115352 -0.08793006097081962 0.001659227325010062
0.06284974944163192 -0.08863070582604313 -0.0036720853534362593
0.08049062965211032 -0.08933135068126663 -0.009003398031882584
-0.07310710091763538 -0.08583953266560926 0.056455974797867486
-0.05546622070715699 -0.08654017752083276 0.05112466211942117
-0.0378253404966786 -0.08724082237605627 0.045793349440974844
-0.0201844602862002 -0.08794146723127977 0.040462036762528526
-0.0025435800757217975 -0.08864211208650327 0.0351307240840822
0.015097300134756601 -0.08934275694172678 0.02979941140563588
0.03273818034523499 -0.09004340179695028 0.02446809872718956
0.05037906055571339 -0.09074404665217378 0.019136786048743238
0.06801994076619179 -0.09144469150739729 0.013805473370296915
0.0856608209766702 -0.09214533636262079 0.00847416069185059
-0.06793690959307551 -0.08865351834696342 0.07393353352160066
-0.05029602938259711 -0.08935416320218692 0.06860222084315434
-0.03265514917211872 -0.09005480805741042 0.06327090816470803
-0.015014268961640325 -0.09075545291263393 0.0579395954862617
0.0026266112488380782 -0.09145609776785743 0.052608282807815376
0.020267491459316476 -0.09215674262308093 0.04727697012936906
0.03790837166979487 -0.09285738747830444 0.041945657450922734
0.055549251880273265 -0.09355803233352794 0.036614344772476416
0.07319013209075168 -0.09425867718875144 0.03128303209403009
0.09083101230123007 -0.09495932204397495 0.02595171941558377
-0.06276671826851564 -0.09146750402831759 0.09141109224533384
-0.045125838058037236 -0.09216814888354109 0.08607977956688752
-0.027484957847558847 -0.0928687937387646 0.0807484668884412
-0.00984407763708045 -0.0935694385939881 0.07541715420999487
0.007796802573397952 -0.0942700834492116 0.07008584153154855
0.025437682783876352 -0.0949707283044351 0.06475452885310223
0.04307856299435474 -0.09567137315965861 0.05942321617465591
0.06071944320483314 -0.09637201801488211 0.054091903496209584
0.07836032341531154 -0.09707266287010562 0.048760590817763266
0.09600120362578994 -0.09777330772532912 0.04342927813931694
-0.09600120362578994 0.09777330772532912 -0.04342927813931694
-0.07836032341531154 0.09707266287010562 -0.048760590817763266
-0.06071944320483315 0.09637201801488211 -0.054091903496209584
-0.04307856299435475 0.09567137315965861 -0.05942321617465591
-0.025437682783876352 0.0949707283044351 -0.06475452885310223
-0.007796802573397952 0.0942700834492116 -0.07008584153154855
0.009844077637080437 0.0935694385939881 -0.07541715420999487
0.02748495784755884 0.0928687937387646 -0.08074846688844119
0.045125838058037236 0.09216814888354109 -0.08607977956688752
0.06276671826851564 0.09146750402831759 -0.09141109224533384
-0.09083101230123007 0.09495932204397495 -0.02595171941558377
-0.07319013209075168 0.09425867718875144 -0.03128303209403009
-0.05554925188027327 0.09355803233352794 -0.03661434477247641
-0.037908371669794876 0.09285738747830444 -0.041945657450922734
-0.020267491459316476 0.09215674262308093 -0.04727697012936906
-0.0026266112488380782 0.09145609776785743 -0.052608282807815376
0.015014268961640312 0.09075545291263393 -0.0579395954862617
0.032655149172118716 0.09005480805741042 -0.06327090816470803
0.05029602938259711 0.08935416320218692 -0.06860222084315434
0.06793690959307551 0.08865351834696342 -0.07393353352160066
-0.0856608209766702 0.09214533636262079 -0.008474160691850597
-0.06801994076619179 0.09144469150739729 -0.013805473370296922
-0.0503790605557134 0.09074404665217378 -0.01913678604874324
-0.032738180345235006 0.09004340179695028 -0.024468098727189566
-0.015097300134756603 0.08934275694172678 -0.029799411405635887
0.0025435800757217953 0.08864211208650327 -0.03513072408408221
0.020184460286200186 0.08794146723127977 -0.040462036762528526
0.037825340496678586 0.08724082237605627 -0.04579334944097485
0.05546622070715698 0.08654017752083276 -0.051124662119421176
0.07310710091763538 0.08583953266560926 -0.05645597479786749
-0.08049062965211033 0.08933135068126663 0.009003398031882574
-0.06284974944163192 0.08863070582604313 0.0036720853534362493
-0.045208869231153526 0.08793006097081962 -0.0016592273250100684
-0.02756798902067513 0.08722941611559612 -0.006990540003456393
-0.00992710881019673 0.08652877126037262 -0.012321852681902714
0.007713771400281669 0.08582812640514911 -0.017653165360349034
0.02535465161076006 0.08512748154992561 -0.022984478038795355
0.04299553182123846 0.0844268366947021 -0.028315790717241676
0.06063641203171686 0.0837261918394786 -0.033647103395688
0.07827729224219525 0.0830255469842551 -0.03897841607413432
-0.07532043832755045 0.08651736499991246 0.02648095675561575
-0.057679558117072045 0.08581672014468895 0.021149644077169426
-0.04003867790659365 0.08511607528946545 0.015818331398723108
-0.022397797696115256 0.08441543043424195 0.010487018720276783
-0.004756917485636855 0.08371478557901844 0.005155706041830462
0.012883962724841545 0.08301414072379494 -0.000175606636615859
0.030524842935319933 0.08231349586857144 -0.00550691931506218
0.04816572314579834 0.08161285101334793 -0.010838231993508501
0.06580660335627674 0.08091220615812443 -0.016169544671954823
0.08344748356675513 0.08021156130290093 -0.021500857350401144
-0.07015024700299058 0.0837033793185583 0.043958515479348925
-0.052509366792512176 0.0830027344633348 0.0386272028009026
-0.03486848658203378 0.08230208960811129 0.03329589012245628
-0.01722760637155538 0.08160144475288779 0.027964577444009958
0.00041327383892301995 0.08090079989766429 0.022633264765563637
0.01805415404940142 0.08020015504244078 0.017301952087117316
0.035695034259879806 0.07949951018721728 0.011970639408670995
0.05333591447035821 0.07879886533199378 0.006639326730224673
0.0709767946808366 0.07809822047677027 0.0013080140517783504
0.088617674891315 0.07739757562154677 -0.004023298626667971
-0.06498005567843071 0.08088939363720413 0.06143607420308209
-0.0473391754679523 0.08018874878198062 0.05610476152463577
-0.029698295257473906 0.07948810392675712 0.05077344884618945
-0.012057415046995508 0.07878745907153362 0.045442136167743126
0.005583465163482892 0.07808681421631011 0.0401108234892968
0.02322434537396129 0.07738616936108661 0.034779510810850484
0.04086522558443968 0.0766855245058631 0.029448198132404162
0.058506105794918085 0.0759848796506396 0.02411688545395784
0.07614698600539647 0.0752842347954161 0.018785572775511516
0.09378786621587487 0.0745835899401926 0.013454260097065195
-0.05980986435387083 0.07807540795584997 0.07891363292681526
-0.04216898414339243 0.07737476310062646 0.07358232024836894
-0.02452810393291403 0.07667411824540296 0.06825100756992263
-0.0068872237224356335 0.07597347339017946 0.0629196948914763
0.010753656488042766 0.07527282853495595 0.057588382213029976
0.028394536698521166 0.07457218367973245 0.05225706953458366
0.04603541690899955 0.07387153882450895 0.046925756856137334
0.06367629711947796 0.07317089396928544 0.041594444177691016
0.08131717732995636 0.07247024911406194 0.03626313149924469
0.09895805754043475 0.07176960425883844 0.03093181882079837
-0.054639673029310956 0.07526142227449581 0.09639119165054845
-0.03699879281883255 0.0745607774192723 0.09105987897210212
-0.019357912608354153 0.0738601325640488 0.0857285662936558
-0.0017170323978757582 0.0731594877088253 0.08039725361520948
0.015923847812602643 0.0724588428536018 0.07506594093676315
0.03356472802308104 0.07175819799837829 0.06973462825831683
0.05120560823355943 0.07105755314315479 0.06440331557987052
0.06884648844403783 0.07035690828793129 0.05907200290142419
0.08648736865451623 0.06965626343270778 0.05374069022297787
0.10412824886499462 0.06895561857748428 0.04840937754453155
-0.04946948170475108 0.07244743659314164 0.11386875037428161
-0.031828601494272676 0.07174679173791813 0.10853743769583529
-0.01418772128379428 0.07104614688269463 0.10320612501738897
0.0034531589266841153 0.07034550202747113 0.09787481233894264
0.021094039137162516 0.06964485717224762 0.09254349966049633
0.038734919347640916 0.06894421231702412 0.08721218698205001
0.056375799558119305 0.06824356746180062 0.08188087430360369
0.0740166797685977 0.06754292260657711 0.07654956162515736
0.0916575599790761 0.06684227775135361 0.07121824894671104
0.1092984401895545 0.0661416328961301 0.06588693626826472
-0.1092984401895545 -0.0661416328961301 -0.06588693626826472
-0.0916575599790761 -0.06684227775135361 -0.07121824894671104
-0.07401667976859772 -0.06754292260657711 -0.07654956162515736
-0.05637579955811932 -0.06824356746180062 -0.08188087430360369
-0.038734919347640916 -0.06894421231702412 -0.08721218698205001
-0.021094039137162516 -0.06964485717224762 -0.09254349966049633
-0.0034531589266841257 -0.07034550202747113 -0.09787481233894264
0.014187721283794273 -0.07104614688269463 -0.10320612501738897
0.031828601494272676 -0.07174679173791813 -0.10853743769583529
0.04946948170475108 -0.07244743659314164 -0.11386875037428161
-0.10782096946024733 -0.04792886171596796 -0.06339164092060386
-0.09018008924976893 -0.048629506571191465 -0.06872295359905017
-0.07253920903929054 -0.04933015142641497 -0.0740542662774965
-0.05489832882881215 -0.05003079628163848 -0.07938557895594282
-0.037257448618333744 -0.05073144113686198 -0.08471689163438914
-0.019616568407855344 -0.051432085992085486 -0.09004820431283546
-0.0019756881973769505 -0.05213273084730899 -0.09537951699128179
0.015665192013101445 -0.05283337570253249 -0.10071082966972811
0.03330607222357985 -0.053534020557755996 -0.10604214234817443
0.050946952434058244 -0.0542346654129795 -0.11137345502662074
-0.10634349873094015 -0.029716090535805834 -0.06089634557294299
-0.08870261852046175 -0.030416735391029338 -0.06622765825138931
-0.07106173830998336 -0.03111738024625284 -0.07155897092983564
-0.05342085809950497 -0.03181802510147635 -0.07689028360828196
-0.035779977889026565 -0.03251866995669985 -0.08222159628672827
-0.01813909767854817 -0.033219314811923355 -0.0875529089651746
-0.0004982174680697788 -0.03391995966714686 -0.09288422164362092
0.017142662742408624 -0.03462060452237036 -0.09821553432206724
0.03478354295288703 -0.03532124937759387 -0.10354684700051356
0.05242442316336542 -0.036021894232817375 -0.10887815967895989
-0.10486602800163299 -0.011503319355643698 -0.05840105022528213
-0.08722514779115458 -0.012203964210867205 -0.06373236290372845
-0.06958426758067619 -0.012904609066090708 -0.06906367558217477
-0.0519433873701978 -0.013605253921314212 -0.07439498826062109
-0.03430250715971939 -0.014305898776537719 -0.07972630093906742
-0.016661626949240994 -0.015006543631761222 -0.08505761361751374
0.0009792532612373965 -0.01570718848698473 -0.09038892629596006
0.018620133471715795 -0.016407833342208234 -0.09572023897440637
0.0362610136821942 -0.017108478197431738 -0.1010515516528527
0.05390189389267259 -0.017809123052655244 -0.10638286433129902
-0.1033885572723258 0.006709451824518443 -0.05590575487762126
-0.08574767706184741 0.006008806969294938 -0.06123706755606759
-0.06810679685136901 0.005308162114071433 -0.0665683802345139
-0.05046591664089062 0.004607517258847928 -0.07189969291296022
-0.03282503643041222 0.0039068724036244225 -0.07723100559140655
-0.015184156219933822 0.003206227548400919 -0.08256231826985287
0.0024567239905445718 0.002505582693177414 -0.08789363094829919
0.020097604201022967 0.001804937837953909 -0.09322494362674551
0.03773848441150137 0.0011042929827304038 -0.09855625630519184
0.05537936462197977 0.0004036481275068986 -0.10388756898363816
-0.10191108654301863 0.02492222300468058 -0.053410459529960395
-0.08427020633254023 0.024221578149457076 -0.05874177220840672
-0.06662932612206184 0.02352093329423357 -0.06407308488685304
-0.048988445911583446 0.022820288439010065 -0.06940439756529937
-0.03134756570110504 0.02211964358378656 -0.07473571024374569
-0.013706685490626647 0.021418998728563055 -0.080067022922192
0.0039341947198517436 0.020718353873339552 -0.08539833560063832
0.021575074930330146 0.020017709018116045 -0.09072964827908465
0.03921595514080855 0.01931706416289254 -0.09606096095753097
0.056856835351286945 0.018616419307669035 -0.10139227363597729
-0.10043361581371146 0.043134994184842713 -0.050915164182299535
-0.08279273560323307 0.0424343493296192 -0.05624647686074585
-0.06515185539275467 0.0417337044743957 -0.06157778953919218
-0.047510975182276274 0.041033059619172196 -0.0669091022176385
-0.029870094971797875 0.04033241476394869 -0.07224041489608482
-0.012229214761319475 0.03963176990872519 -0.07757172757453114
0.005411665449158919 0.03893112505350168 -0.08290304025297747
0.023052545659637318 0.038230480198278176 -0.08823435293142379
0.040693425870115714 0.03752983534305467 -0.0935656656098701
0.05833430608059411 0.03682919048783117 -0.09889697828831642
-0.09895614508440428 0.06134776536500485 -0.04841986883463867
-0.08131526487392589 0.06064712050978135 -0.05375118151308499
-0.06367438466344749 0.059946475654557844 -0.05908249419153131
-0.0460335044529691 0.059245830799334334 -0.06441380686997764
-0.0283926242424907 0.05854518594411083 -0.06974511954842395
-0.0107517440320123 0.05784454108888733 -0.07507643222687028
0.0068891361784660906 0.057143896233663824 -0.0804077449053166
0.02453001638894449 0.05644325137844032 -0.08573905758376292
0.04217089659942289 0.05574260652321681 -0.09107037026220924
0.05981177680990129 0.05504196166799331 -0.09640168294065557
-0.0974786743550971 0.07956053654516698 -0.04592457348697781
-0.07983779414461871 0.07885989168994348 -0.051255886165424126
-0.06219691393414032 0.07815924683471998 -0.05658719884387045
-0.044556033723661924 0.07745860197949647 -0.06191851152231677
-0.026915153513183524 0.07675795712427297 -0.06724982420076309
-0.009274273302705124 0.07605731226904947 -0.07258113687920942
0.008366606907773265 0.07535666741382596 -0.07791244955765574
0.026007487118251668 0.07465602255860246 -0.08324376223610205
0.04364836732873007 0.07395537770337894 -0.08857507491454839
0.06128924753920847 0.07325473284815544 -0.0939063875929947
-0.09600120362578994 0.09777330772532912 -0.04342927813931694
-0.07836032341531154 0.09707266287010562 -0.048760590817763266
-0.06071944320483315 0.09637201801488211 -0.054091903496209584
-0.04307856299435475 0.09567137315965861 -0.05942321617465591
-0.025437682783876352 0.0949707283044351 -0.06475452885310223
-0.007796802573397952 0.0942700834492116 -0.07008584153154855
0.009844077637080437 0.0935694385939881 -0.07541715420999487
0.02748495784755884 0.0928687937387646 -0.08074846688844119
0.045125838058037236 0.09216814888354109 -0.08607977956688752
0.06276671826851564 0.09146750402831759 -0.09141109224533384
-0.06276671826851564 -0.09146750402831759 0.09141109224533384
-0.045125838058037236 -0.09216814888354109 0.08607977956688752
-0.027484957847558847 -0.0928687937387646 0.0807484668884412
-0.00984407763708045 -0.0935694385939881 0.07541715420999487
0.007796802573397952 -0.0942700834492116 0.07008584153154855
0.025437682783876352 -0.0949707283044351 0.06475452885310223
0.04307856299435474 -0.09567137315965861 0.05942321617465591
0.06071944320483314 -0.09637201801488211 0.054091903496209584
0.07836032341531154 -0.09707266287010562 0.048760590817763266
0.09600120362578994 -0.09777330772532912 0.04342927813931694
-0.06128924753920847 -0.07325473284815544 0.0939063875929947
-0.04364836732873007 -0.07395537770337894 0.08857507491454839
-0.026007487118251675 -0.07465602255860244 0.08324376223610205
-0.008366606907773279 -0.07535666741382596 0.07791244955765574
0.009274273302705124 -0.07605731226904947 0.07258113687920942
0.026915153513183524 -0.07675795712427297 0.06724982420076309
0.04455603372366192 -0.07745860197949647 0.06191851152231677
0.06219691393414031 -0.07815924683471998 0.05658719884387045
0.07983779414461871 -0.07885989168994348 0.051255886165424126
0.0974786743550971 -0.07956053654516698 0.04592457348697781
-0.05981177680990129 -0.055041961667993314 0.09640168294065557
-0.04217089659942289 -0.05574260652321682 0.09107037026220924
-0.024530016388944496 -0.05644325137844032 0.08573905758376292
-0.0068891361784661044 -0.05714389623366383 0.0804077449053166
0.0107517440320123 -0.057844541088887334 0.07507643222687028
0.0283926242424907 -0.05854518594411084 0.06974511954842395
0.04603350445296909 -0.05924583079933434 0.06441380686997764
0.06367438466344749 -0.059946475654557844 0.05908249419153131
0.08131526487392589 -0.060647120509781355 0.05375118151308499
0.09895614508440428 -0.06134776536500486 0.04841986883463867
-0.058334306080594124 -0.036829190487831176 0.09889697828831642
-0.040693425870115714 -0.037529835343054686 0.0935656656098701
-0.023052545659637325 -0.03823048019827819 0.08823435293142379
-0.005411665449158929 -0.03893112505350169 0.08290304025297747
0.012229214761319473 -0.039631769908725197 0.07757172757453114
0.02987009497179787 -0.0403324147639487 0.07224041489608482
0.04751097518227626 -0.04103305961917221 0.0669091022176385
0.06515185539275466 -0.041733704474395714 0.06157778953919218
0.08279273560323307 -0.04243434932961922 0.05624647686074585
0.10043361581371145 -0.04313499418484272 0.050915164182299535
-0.056856835351286945 -0.018616419307669035 0.10139227363597729
-0.03921595514080855 -0.01931706416289254 0.09606096095753097
-0.021575074930330153 -0.020017709018116045 0.09072964827908465
-0.003934194719851754 -0.020718353873339552 0.08539833560063834
0.013706685490626647 -0.021418998728563055 0.080067022922192
0.03134756570110504 -0.02211964358378656 0.07473571024374569
0.04898844591158344 -0.022820288439010065 0.06940439756529937
0.06662932612206184 -0.02352093329423357 0.06407308488685304
0.08427020633254023 -0.024221578149457076 0.05874177220840672
0.10191108654301863 -0.02492222300468058 0.053410459529960395
-0.05537936462197977 -0.0004036481275068986 0.10388756898363816
-0.03773848441150137 -0.0011042929827304038 0.09855625630519184
-0.020097604201022974 -0.001804937837953909 0.09322494362674552
-0.002456723990544582 -0.002505582693177414 0.08789363094829919
0.015184156219933822 -0.003206227548400919 0.08256231826985287
0.03282503643041222 -0.0039068724036244225 0.07723100559140655
0.05046591664089061 -0.004607517258847928 0.07189969291296022
0.06810679685136901 -0.005308162114071433 0.0665683802345139
0.08574767706184741 -0.006008806969294938 0.06123706755606759
0.1033885572723258 -0.006709451824518443 0.05590575487762126
-0.0539018938926726 0.017809123052655234 0.10638286433129902
-0.0362610136821942 0.017108478197431727 0.1010515516528527
-0.018620133471715802 0.016407833342208224 0.09572023897440637
-0.000979253261237407 0.01570718848698472 0.09038892629596006
0.016661626949240994 0.015006543631761212 0.08505761361751374
0.03430250715971939 0.014305898776537708 0.07972630093906741
0.05194338737019778 0.013605253921314201 0.07439498826062109
0.06958426758067618 0.012904609066090698 0.06906367558217477
0.08722514779115458 0.012203964210867195 0.06373236290372845
0.10486602800163297 0.011503319355643688 0.05840105022528213
-0.05242442316336542 0.03602189423281737 0.10887815967895989
-0.03478354295288703 0.035321249377593865 0.10354684700051356
-0.01714266274240863 0.03462060452237036 0.09821553432206724
0.0004982174680697649 0.03391995966714685 0.09288422164362092
0.01813909767854817 0.03321931481192335 0.0875529089651746
0.035779977889026565 0.032518669956699844 0.08222159628672827
0.053420858099504955 0.03181802510147634 0.07689028360828196
0.07106173830998336 0.03111738024625284 0.07155897092983564
0.08870261852046175 0.03041673539102933 0.06622765825138931
0.10634349873094015 0.029716090535805827 0.06089634557294299
-0.050946952434058244 0.0542346654129795 0.11137345502662074
-0.03330607222357985 0.053534020557755996 0.10604214234817443
-0.015665192013101452 0.05283337570253249 0.10071082966972811
0.00197568819737694 0.05213273084730899 0.09537951699128179
0.019616568407855344 0.051432085992085486 0.09004820431283546
0.037257448618333744 0.05073144113686198 0.08471689163438914
0.05489832882881213 0.05003079628163848 0.07938557895594282
0.07253920903929054 0.049330151426414975 0.0740542662774965
0.09018008924976893 0.048629506571191465 0.06872295359905017
0.10782096946024733 0.04792886171596796 0.06339164092060386
-0.04946948170475108 0.07244743659314164 0.11386875037428161
-0.031828601494272676 0.07174679173791813 0.10853743769583529
-0.01418772128379428 0.07104614688269463 0.10320612501738897
0.0034531589266841153 0.07034550202747113 0.09787481233894264
0.021094039137162516 0.06964485717224762 0.09254349966049633
0.038734919347640916 0.06894421231702412 0.08721218698205001
0.056375799558119305 0.06824356746180062 0.08188087430360369
0.0740166797685977 0.06754292260657711 0.07654956162515736
0.0916575599790761 0.06684227775135361 0.07121824894671104
0.1092984401895545 0.0661416328961301 0.06588693626826472
