# .PCD v0.7 - Point Cloud Data file format
VERSION 0.7
FIELDS x y z
SIZE 4 4 4
TYPE F F F
COUNT 1 1 1
WIDTH 600
HEIGHT 1
VIEWPOINT 0 0 0 1 0 0 0
POINTS 600
DATA ascii
-0.13099736911937523 -0.055328346004210646 -0.020753789343932242
-0.12378972886414404 -0.04121109386672089 -0.030172279203648417
-0.11658208860891284 -0.027093841729231113 -0.0395907690633646
-0.10937444835368164 -0.01297658959174135 -0.049009258923080785
-0.10216680809845044 0.00114066254574842 -0.058427748782796975
-0.09495916784321926 0.015257914683238186 -0.06784623864251316
-0.08775152758798806 0.029375166820727952 -0.07726472850222935
-0.08054388733275686 0.04349241895821772 -0.08668321836194552
-0.07333624707752566 0.057609671095707485 -0.09610170822166171
-0.06612860682229448 0.07172692323319725 -0.10552019808137789
-0.12495186867633404 -0.04790276993645455 -0.004997280160263999
-0.11774422842110285 -0.03378551779896479 -0.014415770019980175
-0.11053658816587165 -0.01966826566147502 -0.023834259879696364
-0.10332894791064046 -0.005551013523985258 -0.03325274973941254
-0.09612130765540926 0.008566238613504513 -0.04267123959912873
-0.08891366740017807 0.022683490750994278 -0.05208972945884492
-0.08170602714494687 0.03680074288848405 -0.0615082193185611
-0.07449838688971568 0.050917995025973814 -0.07092670917827729
-0.06729074663448448 0.06503524716346358 -0.08034519903799348
-0.06008310637925328 0.07915249930095335 -0.08976368889770965
-0.11890636823329284 -0.040477193868698455 0.010759229023404255
-0.11169872797806166 -0.026359941731208696 0.001340739163688079
-0.10449108772283046 -0.012242689593718922 -0.00807775069602811
-0.09728344746759926 0.0018745625437708404 -0.017496240555744294
-0.09007580721236806 0.01599181468126061 -0.02691473041546048
-0.08286816695713688 0.030109066818750377 -0.036333220275176666
-0.07566052670190568 0.04422631895624014 -0.04575171013489285
-0.06845288644667448 0.05834357109372991 -0.05517019999460903
-0.061245246191443274 0.07246082323121968 -0.06458868985432523
-0.05403760593621208 0.08657807536870944 -0.07400717971404139
-0.11286086779025165 -0.03305161780094236 0.0265157382070725
-0.10565322753502046 -0.018934365663452603 0.017097248347356323
-0.09844558727978926 -0.0048171135259628284 0.007678758487640134
-0.09123794702455806 0.009300138611526934 -0.0017397313720760481
-0.08403030676932687 0.023417390749016703 -0.011158221231792234
-0.07682266651409568 0.03753464288650647 -0.02057671109150842
-0.06961502625886448 0.05165189502399624 -0.029995200951224602
-0.06240738600363328 0.065769147161486 -0.03941369081094078
-0.055199745748402085 0.07988639929897577 -0.04883218067065698
-0.04799210549317089 0.09400365143646554 -0.058250670530373146
-0.10681536734721045 -0.025626041733186264 0.04227224739074075
-0.09960772709197926 -0.011508789595696504 0.032853757531024576
-0.09240008683674807 0.0026084625417932684 0.023435267671308387
-0.08519244658151687 0.016725714679283032 0.014016777811592204
-0.07798480632628567 0.0308429668167728 0.004598287951876018
-0.07077716607105448 0.04496021895426257 -0.004820201907840169
-0.06356952581582329 0.059077471091752334 -0.01423869176755635
-0.05636188556059209 0.0731947232292421 -0.023657181627272532
-0.04915424530536089 0.08731197536673187 -0.03307567148698873
-0.0419466050501297 0.10142922750422163 -0.042494161346704896
-0.10076986690416925 -0.01820046566543017 0.058028756574409
-0.09356222664893807 -0.004083213527940408 0.048610266714692825
-0.08635458639370687 0.010034038609549364 0.039191776854976636
-0.07914694613847567 0.024151290747039127 0.029773286995260453
-0.07193930588324447 0.0382685428845289 0.020354797135544268
-0.06473166562801329 0.052385795022018664 0.010936307275828082
-0.05752402537278209 0.06650304715950843 0.001517817416111901
-0.05031638511755089 0.0806202992969982 -0.007900672443604283
-0.04310874486231969 0.09473755143448796 -0.017319162303320475
-0.0359011046070885 0.10885480357197773 -0.026737652163036647
-0.09472436646112806 -0.010774889597674074 0.07378526575807724
-0.08751672620589687 0.0033423625398156845 0.06436677589836107
-0.08030908595066567 0.017459614677305457 0.05494828603864488
-0.07310144569543447 0.03157686681479522 0.045529796178928696
-0.06589380544020328 0.04569411895228499 0.03611130631921251
-0.0586861651849721 0.05981137108977476 0.026692816459496324
-0.0514785249297409 0.07392862322726453 0.017274326599780145
-0.0442708846745097 0.08804587536475429 0.007855836740063961
-0.0370632444192785 0.10216312750224406 -0.001562653119652232
-0.02985560416404731 0.11628037963973382 -0.010981142979368403
-0.08867886601808687 -0.0033493135299179798 0.08954177494174549
-0.08147122576285569 0.01076793860757178 0.08012328508202932
-0.07426358550762449 0.024885190745061552 0.07070479522231313
-0.06705594525239329 0.039002442882551315 0.061286305362596945
-0.05984830499716209 0.05311969502004109 0.051867815502880756
-0.0526406647419309 0.06723694715753085 0.04244932564316457
-0.045433024486699704 0.08135419929502062 0.03303083578344839
-0.038225384231468505 0.09547145143251039 0.02361234592373221
-0.031017743976237307 0.10958870357000015 0.014193856064016016
-0.023810103721006115 0.12370595570748992 0.004775366204299843
-0.08263336557504566 0.004076262537838121 0.10529828412541375
-0.07542572531981448 0.01819351467532788 0.09587979426569758
-0.06821808506458328 0.03231076681281765 0.08646130440598139
-0.06101044480935209 0.04642801895030742 0.0770428145462652
-0.05380280455412089 0.060545271087797184 0.06762432468654901
-0.046595164298889706 0.07466252322528695 0.05820583482683283
-0.03938752404365851 0.08877977536277672 0.048787344967116654
-0.03217988378842731 0.10289702750026648 0.039368855107400465
-0.02497224353319611 0.11701427963775625 0.029950365247684275
-0.01776460327796492 0.13113153177524603 0.020531875387968104
-0.07658786513200448 0.011501838605594214 0.12105479330908199
-0.0693802248767733 0.025619090743083973 0.11163630344936581
-0.0621725846215421 0.03973634288057375 0.10221781358964963
-0.0549649443663109 0.053853595018063506 0.09279932372993345
-0.0477573041110797 0.06797084715555328 0.08338083387021726
-0.04054966385584852 0.08208809929304305 0.07396234401050107
-0.03334202360061732 0.09620535143053281 0.0645438541507849
-0.026134383345386116 0.11032260356802258 0.05512536429106871
-0.018926743090154918 0.12443985570551234 0.04570687443135252
-0.011719102834923728 0.1385571078430021 0.03628838457163634
0.011719102834923728 -0.1385571078430021 -0.03628838457163634
0.018926743090154918 -0.12443985570551234 -0.04570687443135252
0.026134383345386116 -0.11032260356802258 -0.05512536429106871
0.03334202360061731 -0.09620535143053281 -0.06454385415078488
0.04054966385584852 -0.08208809929304305 -0.07396234401050107
0.0477573041110797 -0.06797084715555328 -0.08338083387021726
0.0549649443663109 -0.05385359501806351 -0.09279932372993344
0.0621725846215421 -0.039736342880573754 -0.10221781358964963
0.0693802248767733 -0.025619090743083973 -0.11163630344936581
0.07658786513200448 -0.011501838605594214 -0.12105479330908199
0.01776460327796492 -0.13113153177524603 -0.020531875387968104
0.02497224353319611 -0.11701427963775625 -0.029950365247684275
0.03217988378842731 -0.10289702750026648 -0.039368855107400465
0.0393875240436585 -0.08877977536277672 -0.04878734496711665
0.046595164298889706 -0.07466252322528695 -0.05820583482683283
0.05380280455412089 -0.060545271087797184 -0.06762432468654901
0.06101044480935209 -0.046428018950307424 -0.0770428145462652
0.06821808506458328 -0.03231076681281766 -0.08646130440598138
0.07542572531981448 -0.01819351467532788 -0.09587979426569758
0.08263336557504566 -0.004076262537838121 -0.10529828412541375
0.023810103721006115 -0.12370595570748992 -0.004775366204299849
0.031017743976237307 -0.10958870357000015 -0.014193856064016021
0.038225384231468505 -0.09547145143251039 -0.023612345923732212
0.0454330244866997 -0.08135419929502062 -0.03303083578344839
0.0526406647419309 -0.06723694715753085 -0.04244932564316458
0.05984830499716209 -0.05311969502004109 -0.05186781550288076
0.06705594525239328 -0.03900244288255133 -0.061286305362596945
0.07426358550762448 -0.024885190745061563 -0.07070479522231313
0.08147122576285568 -0.010767938607571782 -0.08012328508202932
0.08867886601808686 0.003349313529917977 -0.08954177494174549
0.029855604164047308 -0.11628037963973382 0.010981142979368395
0.037063244419278496 -0.10216312750224406 0.001562653119652223
0.044270884674509695 -0.08804587536475429 -0.007855836740063966
0.051478524929740886 -0.07392862322726453 -0.01727432659978015
0.05868616518497209 -0.05981137108977476 -0.026692816459496334
0.06589380544020328 -0.04569411895228499 -0.03611130631921252
0.07310144569543447 -0.03157686681479523 -0.045529796178928696
0.08030908595066567 -0.01745961467730547 -0.05494828603864488
0.08751672620589687 -0.003342362539815689 -0.06436677589836108
0.09472436646112806 0.010774889597674071 -0.07378526575807726
0.0359011046070885 -0.10885480357197773 0.026737652163036647
0.04310874486231969 -0.09473755143448796 0.017319162303320475
0.05031638511755089 -0.0806202992969982 0.007900672443604286
0.05752402537278208 -0.06650304715950843 -0.0015178174161118959
0.06473166562801329 -0.052385795022018664 -0.010936307275828082
0.07193930588324447 -0.0382685428845289 -0.020354797135544268
0.07914694613847567 -0.024151290747039134 -0.029773286995260446
0.08635458639370687 -0.010034038609549371 -0.03919177685497663
0.09356222664893807 0.004083213527940408 -0.048610266714692825
0.10076986690416925 0.01820046566543017 -0.058028756574409
0.0419466050501297 -0.10142922750422163 0.042494161346704896
0.04915424530536089 -0.08731197536673187 0.03307567148698873
0.05636188556059209 -0.0731947232292421 0.023657181627272535
0.06356952581582327 -0.059077471091752334 0.014238691767556355
0.07077716607105448 -0.04496021895426257 0.004820201907840169
0.07798480632628567 -0.0308429668167728 -0.004598287951876018
0.08519244658151687 -0.01672571467928304 -0.014016777811592197
0.09240008683674807 -0.0026084625417932754 -0.02343526767130838
0.09960772709197926 0.011508789595696504 -0.032853757531024576
0.10681536734721045 0.025626041733186264 -0.04227224739074075
0.047992105493170886 -0.09400365143646554 0.05825067053037314
0.05519974574840208 -0.07988639929897577 0.04883218067065697
0.062407386003633276 -0.065769147161486 0.03941369081094078
0.06961502625886447 -0.05165189502399624 0.0299952009512246
0.07682266651409568 -0.03753464288650647 0.020576711091508413
0.08403030676932687 -0.02341739074901671 0.011158221231792225
0.09123794702455806 -0.009300138611526945 0.0017397313720760462
0.09844558727978926 0.004817113525962818 -0.007678758487640136
0.10565322753502046 0.018934365663452597 -0.017097248347356334
0.11286086779025165 0.03305161780094236 -0.02651573820707251
0.05403760593621208 -0.08657807536870944 0.07400717971404139
0.061245246191443274 -0.07246082323121968 0.06458868985432521
0.06845288644667447 -0.05834357109372991 0.05517019999460902
0.07566052670190566 -0.04422631895624014 0.04575171013489285
0.08286816695713686 -0.03010906681875038 0.03633322027517666
0.09007580721236805 -0.015991814681260614 0.026914730415460473
0.09728344746759925 -0.0018745625437708502 0.017496240555744294
0.10449108772283044 0.012242689593718914 0.008077750696028112
0.11169872797806164 0.026359941731208692 -0.0013407391636880849
0.11890636823329283 0.040477193868698455 -0.01075922902340426
0.06008310637925328 -0.07915249930095335 0.08976368889770965
0.06729074663448448 -0.06503524716346358 0.08034519903799348
0.07449838688971568 -0.050917995025973814 0.07092670917827729
0.08170602714494686 -0.03680074288848405 0.061508219318561104
0.08891366740017807 -0.022683490750994278 0.05208972945884492
0.09612130765540926 -0.008566238613504513 0.04267123959912873
0.10332894791064046 0.005551013523985251 0.03325274973941255
0.11053658816587165 0.019668265661475014 0.02383425987969637
0.11774422842110285 0.03378551779896479 0.014415770019980175
0.12495186867633404 0.04790276993645455 0.004997280160263999
0.06612860682229448 -0.07172692323319725 0.10552019808137789
0.07333624707752566 -0.057609671095707485 0.09610170822166171
0.08054388733275686 -0.04349241895821772 0.08668321836194552
0.08775152758798806 -0.029375166820727952 0.07726472850222935
0.09495916784321926 -0.015257914683238186 0.06784623864251316
0.10216680809845044 -0.00114066254574842 0.058427748782796975
0.10937444835368164 0.012976589591741344 0.04900925892308079
0.11658208860891284 0.027093841729231107 0.03959076906336461
0.12378972886414404 0.04121109386672089 0.030172279203648417
0.13099736911937523 0.055328346004210646 0.020753789343932242
-0.13099736911937523 -0.055328346004210646 -0.020753789343932242
-0.11513998334667534 -0.0645759862085208 -0.02247985548034381
-0.09928259757397546 -0.07382362641283097 -0.024205921616755378
-0.08342521180127559 -0.08307126661714113 -0.025931987753166946
-0.0675678260285757 -0.09231890682145129 -0.027658053889578513
-0.05171044025587581 -0.10156654702576146 -0.029384120025990074
-0.03585305448317593 -0.11081418723007162 -0.031110186162401642
-0.01999566871047605 -0.12006182743438178 -0.03283625229881321
-0.004138282937776151 -0.12930946763869194 -0.034562318435224774
0.011719102834923728 -0.1385571078430021 -0.03628838457163634
-0.12495186867633404 -0.04790276993645455 -0.004997280160263999
-0.10909448290363416 -0.057150410140764704 -0.006723346296675567
-0.09323709713093428 -0.06639805034507487 -0.008449412433087135
-0.07737971135823439 -0.07564569054938504 -0.010175478569498703
-0.061522325585534506 -0.0848933307536952 -0.011901544705910271
-0.04566493981283462 -0.09414097095800536 -0.013627610842321832
-0.02980755404013474 -0.10338861116231553 -0.0153536769787334
-0.013950168267434858 -0.11263625136662568 -0.017079743115144968
0.0019072175052650402 -0.12188389157093586 -0.018805809251556536
0.01776460327796492 -0.13113153177524603 -0.020531875387968104
-0.11890636823329284 -0.040477193868698455 0.010759229023404255
-0.10304898246059296 -0.04972483407300861 0.009033162886992687
-0.08719159668789309 -0.058972474277318776 0.007307096750581119
-0.0713342109151932 -0.06822011448162894 0.005581030614169551
-0.05547682514249331 -0.07746775468593911 0.0038549644777579827
-0.039619439369793424 -0.08671539489024926 0.0021288983413464218
-0.023762053597093543 -0.09596303509455943 0.0004028322049348541
-0.007904667824393663 -0.10521067529886959 -0.0013232339314767137
0.007952717948306235 -0.11445831550317977 -0.003049300067888282
0.023810103721006115 -0.12370595570748992 -0.004775366204299849
-0.11286086779025165 -0.03305161780094236 0.0265157382070725
-0.09700348201755177 -0.04229925800525251 0.02478967207066093
-0.08114609624485189 -0.05154689820956268 0.023063605934249363
-0.065288710472152 -0.06079453841387285 0.021337539797837795
-0.04943132469945212 -0.07004217861818302 0.019611473661426227
-0.03357393892675223 -0.07928981882249317 0.017885407525014666
-0.01771655315405235 -0.08853745902680334 0.0161593413886031
-0.0018591673813524703 -0.09778509923111349 0.01443327525219153
0.013998218391347428 -0.10703273943542367 0.012707209115779963
0.029855604164047308 -0.11628037963973382 0.010981142979368395
-0.10681536734721045 -0.025626041733186264 0.04227224739074075
-0.09095798157451057 -0.03487368193749642 0.04054618125432918
-0.0751005958018107 -0.044121322141806585 0.038820115117917615
-0.05924321002911081 -0.05336896234611675 0.03709404898150605
-0.043385824256410924 -0.06261660255042692 0.03536798284509448
-0.027528438483711035 -0.07186424275473707 0.03364191670868292
-0.011671052711011157 -0.08111188295904724 0.03191585057227135
0.004186333061688725 -0.0903595231633574 0.030189784435859783
0.020043718834388623 -0.09960716336766758 0.028463718299448215
0.0359011046070885 -0.10885480357197773 0.026737652163036647
-0.10076986690416925 -0.01820046566543017 0.058028756574409
-0.08491248113146938 -0.027448105869740322 0.05630269043799743
-0.0690550953587695 -0.03669574607405049 0.054576624301585865
-0.05319770958606961 -0.04594338627836066 0.0528505581651743
-0.03734032381336973 -0.05519102648267082 0.05112449202876273
-0.02148293804066984 -0.06443866668698098 0.04939842589235117
-0.005625552267969962 -0.07368630689129115 0.0476723597559396
0.01023183350472992 -0.0829339470956013 0.04594629361952803
0.02608921927742982 -0.09218158729991148 0.044220227483116464
0.0419466050501297 -0.10142922750422163 0.042494161346704896
-0.09472436646112806 -0.010774889597674074 0.07378526575807724
-0.07886698068842818 -0.02002252980198423 0.07205919962166568
-0.0630095949157283 -0.029270170006294397 0.0703331334852541
-0.04715220914302842 -0.03851781021060456 0.06860706734884255
-0.03129482337032854 -0.04776545041491472 0.06688100121243097
-0.015437437597628648 -0.05701309061922488 0.06515493507601941
0.0004199481750712298 -0.06626073082353505 0.06342886893960785
0.01627733394777111 -0.0755083710278452 0.061702802803196274
0.03213471972047101 -0.08475601123215538 0.05997673666678471
0.047992105493170886 -0.09400365143646554 0.05825067053037314
-0.08867886601808687 -0.0033493135299179798 0.08954177494174549
-0.072821480245387 -0.012596953734228132 0.08781570880533392
-0.05696409447268711 -0.0218445939385383 0.08608964266892236
-0.04110670869998723 -0.03109223414284847 0.08436357653251078
-0.025249322927287342 -0.040339874347158626 0.08263751039609922
-0.009391937154587455 -0.049587514551468787 0.08091144425968766
0.006465448618112424 -0.058835154755778954 0.07918537812327608
0.022322834390812306 -0.06808279496008911 0.07745931198686452
0.038180220163512205 -0.07733043516439929 0.07573324585045295
0.05403760593621208 -0.08657807536870944 0.07400717971404139
-0.08263336557504566 0.004076262537838121 0.10529828412541375
-0.06677597980234579 -0.0051713776664720325 0.10357221798900218
-0.050918594029645915 -0.0144190178707822 0.10184615185259062
-0.03506120825694603 -0.023666658075092366 0.10012008571617904
-0.019203822484246146 -0.03291429827940253 0.09839401957976748
-0.0033464367115462563 -0.04216193848371269 0.09666795344335592
0.01251094906115362 -0.05140957868802286 0.09494188730694435
0.028368334833853502 -0.06065721889233301 0.09321582117053279
0.0442257206065534 -0.0699048590966432 0.09148975503412121
0.06008310637925328 -0.07915249930095335 0.08976368889770965
-0.07658786513200448 0.011501838605594214 0.12105479330908199
-0.060730479359304604 0.0022541984012840596 0.11932872717267043
-0.044873093586604726 -0.006993441803026108 0.11760266103625885
-0.029015707813904838 -0.016241082007336274 0.1158765948998473
-0.013158322041204954 -0.025488722211646435 0.11415052876343572
0.0026990637314949347 -0.034736362415956595 0.11242446262702416
0.018556449504194814 -0.04398400262026676 0.1106983964906126
0.03441383527689469 -0.053231642824576916 0.10897233035420102
0.05027122104959459 -0.0624792830288871 0.10724626421778946
0.06612860682229448 -0.07172692323319725 0.10552019808137789
-0.06612860682229448 0.07172692323319725 -0.10552019808137789
-0.05027122104959459 0.0624792830288871 -0.10724626421778946
-0.0344138352768947 0.05323164282457693 -0.10897233035420102
-0.018556449504194824 0.04398400262026676 -0.1106983964906126
-0.0026990637314949347 0.034736362415956595 -0.11242446262702416
0.013158322041204954 0.025488722211646435 -0.11415052876343572
0.02901570781390483 0.016241082007336274 -0.1158765948998473
0.04487309358660471 0.006993441803026115 -0.11760266103625885
0.060730479359304604 -0.0022541984012840596 -0.11932872717267043
0.07658786513200448 -0.011501838605594214 -0.12105479330908199
-0.06008310637925328 0.07915249930095335 -0.08976368889770965
-0.0442257206065534 0.0699048590966432 -0.09148975503412121
-0.02836833483385351 0.060657218892333026 -0.09321582117053279
-0.012510949061153631 0.05140957868802286 -0.09494188730694435
0.0033464367115462563 0.04216193848371269 -0.09666795344335592
0.019203822484246146 0.03291429827940253 -0.09839401957976748
0.03506120825694602 0.023666658075092366 -0.10012008571617904
0.0509185940296459 0.014419017870782208 -0.10184615185259062
0.06677597980234579 0.0051713776664720325 -0.10357221798900218
0.08263336557504566 -0.004076262537838121 -0.10529828412541375
-0.05403760593621208 0.08657807536870944 -0.07400717971404139
-0.038180220163512205 0.07733043516439929 -0.07573324585045296
-0.022322834390812313 0.06808279496008912 -0.07745931198686452
-0.006465448618112436 0.058835154755778954 -0.0791853781232761
0.009391937154587452 0.049587514551468787 -0.08091144425968766
0.025249322927287342 0.040339874347158626 -0.08263751039609922
0.04110670869998722 0.031092234142848466 -0.0843635765325108
0.0569640944726871 0.021844593938538305 -0.08608964266892236
0.07282148024538698 0.01259695373422813 -0.08781570880533393
0.08867886601808686 0.003349313529917977 -0.08954177494174549
-0.04799210549317089 0.09400365143646554 -0.058250670530373146
-0.032134719720471015 0.08475601123215538 -0.059976736666784713
-0.01627733394777112 0.07550837102784522 -0.06170280280319628
-0.00041994817507124365 0.06626073082353505 -0.06342886893960785
0.015437437597628645 0.05701309061922488 -0.06515493507601942
0.03129482337032853 0.04776545041491472 -0.06688100121243098
0.04715220914302841 0.03851781021060456 -0.06860706734884255
0.06300959491572829 0.029270170006294397 -0.07033313348525412
0.07886698068842818 0.020022529801984223 -0.07205919962166568
0.09472436646112806 0.010774889597674071 -0.07378526575807726
-0.0419466050501297 0.10142922750422163 -0.042494161346704896
-0.02608921927742982 0.09218158729991148 -0.044220227483116464
-0.010231833504729927 0.08293394709560131 -0.04594629361952803
0.005625552267969952 0.07368630689129115 -0.0476723597559396
0.02148293804066984 0.06443866668698098 -0.04939842589235117
0.03734032381336973 0.05519102648267082 -0.05112449202876273
0.053197709586069605 0.04594338627836066 -0.0528505581651743
0.06905509535876948 0.036695746074050496 -0.054576624301585865
0.08491248113146938 0.027448105869740322 -0.05630269043799743
0.10076986690416925 0.01820046566543017 -0.058028756574409
-0.0359011046070885 0.10885480357197773 -0.026737652163036647
-0.020043718834388623 0.09960716336766758 -0.028463718299448215
-0.004186333061688732 0.09035952316335741 -0.030189784435859783
0.011671052711011147 0.08111188295904724 -0.03191585057227135
0.027528438483711035 0.07186424275473707 -0.03364191670868292
0.043385824256410924 0.06261660255042692 -0.03536798284509448
0.0592432100291108 0.05336896234611675 -0.03709404898150605
0.07510059580181068 0.04412132214180659 -0.038820115117917615
0.09095798157451057 0.03487368193749642 -0.04054618125432918
0.10681536734721045 0.025626041733186264 -0.04227224739074075
-0.02985560416404731 0.11628037963973382 -0.010981142979368403
-0.013998218391347432 0.10703273943542367 -0.012707209115779971
0.0018591673813524601 0.0977850992311135 -0.014433275252191539
0.017716553154052336 0.08853745902680334 -0.01615934138860311
0.03357393892675223 0.07928981882249317 -0.017885407525014677
0.04943132469945211 0.070042178618183 -0.019611473661426237
0.065288710472152 0.06079453841387285 -0.021337539797837805
0.08114609624485188 0.05154689820956269 -0.023063605934249373
0.09700348201755177 0.04229925800525251 -0.02478967207066094
0.11286086779025165 0.03305161780094236 -0.02651573820707251
-0.023810103721006115 0.12370595570748992 0.004775366204299843
-0.007952717948306239 0.11445831550317977 0.0030493000678882757
0.007904667824393653 0.1052106752988696 0.0013232339314767079
0.023762053597093533 0.09596303509455943 -0.00040283220493486
0.03961943936979342 0.08671539489024926 -0.002128898341346428
0.05547682514249331 0.0774677546859391 -0.0038549644777579888
0.07133421091519318 0.06822011448162894 -0.005581030614169557
0.08719159668789306 0.05897247427731878 -0.007307096750581125
0.10304898246059295 0.04972483407300861 -0.009033162886992692
0.11890636823329283 0.040477193868698455 -0.01075922902340426
-0.01776460327796492 0.13113153177524603 0.020531875387968104
-0.0019072175052650402 0.12188389157093586 0.018805809251556536
0.013950168267434851 0.1126362513666257 0.017079743115144968
0.02980755404013473 0.10338861116231553 0.0153536769787334
0.04566493981283462 0.09414097095800536 0.013627610842321832
0.061522325585534506 0.0848933307536952 0.011901544705910271
0.07737971135823439 0.07564569054938504 0.010175478569498703
0.09323709713093427 0.06639805034507489 0.008449412433087135
0.10909448290363416 0.057150410140764704 0.006723346296675567
0.12495186867633404 0.04790276993645455 0.004997280160263999
-0.011719102834923728 0.1385571078430021 0.03628838457163634
0.004138282937776151 0.12930946763869194 0.034562318435224774
0.019995668710476044 0.12006182743438179 0.03283625229881321
0.03585305448317592 0.11081418723007162 0.031110186162401642
0.05171044025587581 0.10156654702576146 0.029384120025990074
0.0675678260285757 0.09231890682145129 0.027658053889578513
0.08342521180127557 0.08307126661714113 0.025931987753166946
0.09928259757397545 0.07382362641283097 0.024205921616755378
0.11513998334667534 0.0645759862085208 0.02247985548034381
0.13099736911937523 0.055328346004210646 0.020753789343932242
-0.13099736911937523 -0.055328346004210646 -0.020753789343932242
-0.11513998334667534 -0.0645759862085208 -0.02247985548034381
-0.09928259757397546 -0.07382362641283097 -0.024205921616755378
-0.08342521180127559 -0.08307126661714113 -0.025931987753166946
-0.0675678260285757 -0.09231890682145129 -0.027658053889578513
-0.05171044025587581 -0.10156654702576146 -0.029384120025990074
-0.03585305448317593 -0.11081418723007162 -0.031110186162401642
-0.01999566871047605 -0.12006182743438178 -0.03283625229881321
-0.004138282937776151 -0.12930946763869194 -0.034562318435224774
0.011719102834923728 -0.1385571078430021 -0.03628838457163634
-0.12378972886414404 -0.04121109386672089 -0.030172279203648417
-0.10793234309144416 -0.05045873407103104 -0.03189834534005998
-0.09207495731874427 -0.05970637427534121 -0.03362441147647155
-0.07621757154604439 -0.06895401447965137 -0.03535047761288312
-0.060360185773344496 -0.07820165468396154 -0.037076543749294685
-0.04450280000064462 -0.0874492948882717 -0.038802609885706246
-0.02864541422794474 -0.09669693509258186 -0.040528676022117814
-0.012788028455244857 -0.10594457529689202 -0.04225474215852938
0.0030693573174550405 -0.11519221550120219 -0.04398080829494095
0.018926743090154918 -0.12443985570551234 -0.04570687443135252
-0.11658208860891284 -0.027093841729231113 -0.0395907690633646
-0.10072470283621296 -0.03634148193354127 -0.04131683519977617
-0.08486731706351307 -0.045589122137851434 -0.04304290133618774
-0.06900993129081319 -0.054836762342161595 -0.04476896747259931
-0.053152545518113305 -0.06408440254647176 -0.046495033609010875
-0.03729515974541342 -0.07333204275078192 -0.04822109974542244
-0.021437773972713542 -0.08257968295509209 -0.049947165881834
-0.00558038820001366 -0.09182732315940224 -0.05167323201824557
0.01027699757268624 -0.10107496336371243 -0.05339929815465714
0.026134383345386116 -0.11032260356802258 -0.05512536429106871
-0.10937444835368164 -0.01297658959174135 -0.049009258923080785
-0.09351706258098176 -0.022224229796051504 -0.05073532505949235
-0.07765967680828188 -0.031471870000361675 -0.05246139119590392
-0.061802291035582 -0.040719510204671835 -0.05418745733231549
-0.045944905262882106 -0.049967150408982 -0.05591352346872706
-0.030087519490182225 -0.05921479061329216 -0.057639589605138625
-0.014230133717482347 -0.06846243081760232 -0.059365655741550186
0.001627252055217532 -0.07771007102191249 -0.061091721877961754
0.01748463782791743 -0.08695771122622266 -0.06281778801437332
0.03334202360061731 -0.09620535143053281 -0.06454385415078488
-0.10216680809845044 0.00114066254574842 -0.058427748782796975
-0.08630942232575058 -0.008106977658561734 -0.06015381491920854
-0.07045203655305068 -0.017354617862871905 -0.0618798810556201
-0.0545946507803508 -0.026602258067182066 -0.06360594719203168
-0.038737265007650915 -0.03584989827149223 -0.06533201332844324
-0.022879879234951026 -0.0450975384758024 -0.0670580794648548
-0.007022493462251151 -0.05434517868011256 -0.06878414560126637
0.008834892310448731 -0.06359281888442271 -0.07051021173767794
0.02469227808314863 -0.07284045908873289 -0.07223627787408951
0.04054966385584852 -0.08208809929304305 -0.07396234401050107
-0.09495916784321926 0.015257914683238186 -0.06784623864251316
-0.07910178207051938 0.006010274478928033 -0.06957230477892473
-0.06324439629781949 -0.003237365725382138 -0.07129837091533629
-0.0473870105251196 -0.0124850059296923 -0.07302443705174785
-0.031529624752419716 -0.021732646134002463 -0.07475050318815943
-0.01567223897971983 -0.030980286338312627 -0.07647656932457099
0.00018514679298004772 -0.04022792654262279 -0.07820263546098256
0.016042532565679928 -0.04947556674693295 -0.07992870159739413
0.03189991833837983 -0.058723206951243126 -0.0816547677338057
0.0477573041110797 -0.06797084715555328 -0.08338083387021726
-0.08775152758798806 0.029375166820727952 -0.07726472850222935
-0.07189414181528818 0.0201275266164178 -0.07899079463864091
-0.05603675604258829 0.010879886412107624 -0.08071686077505247
-0.04017937026988841 0.0016322462077974643 -0.08244292691146404
-0.02432198449718852 -0.007615393996512703 -0.0841689930478756
-0.008464598724488634 -0.016863034200822864 -0.08589505918428718
0.007392787048211243 -0.026110674405133025 -0.08762112532069874
0.02325017282091112 -0.035358314609443185 -0.0893471914571103
0.03910755859361102 -0.04460595481375336 -0.09107325759352188
0.0549649443663109 -0.05385359501806351 -0.09279932372993344
-0.08054388733275686 0.04349241895821772 -0.08668321836194552
-0.06468650156005698 0.034244778753907565 -0.08840928449835708
-0.04882911578735709 0.024997138549597384 -0.09013535063476866
-0.03297173001465721 0.01574949834528723 -0.09186141677118022
-0.017114344241957326 0.0065018581409770635 -0.09358748290759179
-0.00125695846925744 -0.002745782063333104 -0.09531354904400335
0.014600427303442435 -0.011993422267643265 -0.09703961518041491
0.03045781307614232 -0.021241062471953426 -0.09876568131682649
0.04631519884884222 -0.0304887026762636 -0.10049174745323805
0.0621725846215421 -0.039736342880573754 -0.10221781358964963
-0.07333624707752566 0.057609671095707485 -0.09610170822166171
-0.05747886130482578 0.04836203089139733 -0.09782777435807329
-0.04162147553212589 0.039114390687087164 -0.09955384049448485
-0.025764089759426016 0.02986675048277701 -0.10127990663089641
-0.009906703986726125 0.020619110278466843 -0.10300597276730798
0.005950681785973755 0.011371470074156675 -0.10473203890371954
0.021808067558673632 0.002123829869846516 -0.10645810504013112
0.037665453331373513 -0.007123810334463645 -0.10818417117654268
0.05352283910407342 -0.01637145053877382 -0.10991023731295425
0.0693802248767733 -0.025619090743083973 -0.11163630344936581
-0.06612860682229448 0.07172692323319725 -0.10552019808137789
-0.05027122104959459 0.0624792830288871 -0.10724626421778946
-0.0344138352768947 0.05323164282457693 -0.10897233035420102
-0.018556449504194824 0.04398400262026676 -0.1106983964906126
-0.0026990637314949347 0.034736362415956595 -0.11242446262702416
0.013158322041204954 0.025488722211646435 -0.11415052876343572
0.02901570781390483 0.016241082007336274 -0.1158765948998473
0.04487309358660471 0.006993441803026115 -0.11760266103625885
0.060730479359304604 -0.0022541984012840596 -0.11932872717267043
0.07658786513200448 -0.011501838605594214 -0.12105479330908199
-0.07658786513200448 0.011501838605594214 0.12105479330908199
-0.060730479359304604 0.0022541984012840596 0.11932872717267043
-0.044873093586604726 -0.006993441803026108 0.11760266103625885
-0.029015707813904838 -0.016241082007336274 0.1158765948998473
-0.013158322041204954 -0.025488722211646435 0.11415052876343572
0.0026990637314949347 -0.034736362415956595 0.11242446262702416
0.018556449504194814 -0.04398400262026676 0.1106983964906126
0.03441383527689469 -0.053231642824576916 0.10897233035420102
0.05027122104959459 -0.0624792830288871 0.10724626421778946
0.06612860682229448 -0.07172692323319725 0.10552019808137789
-0.0693802248767733 0.025619090743083973 0.11163630344936581
-0.05352283910407342 0.01637145053877382 0.10991023731295425
-0.03766545333137353 0.007123810334463648 0.10818417117654268
-0.021808067558673646 -0.002123829869846509 0.10645810504013112
-0.005950681785973755 -0.011371470074156675 0.10473203890371954
0.009906703986726125 -0.020619110278466843 0.10300597276730798
0.025764089759426005 -0.029866750482776996 0.10127990663089642
0.04162147553212588 -0.039114390687087164 0.09955384049448485
0.05747886130482578 -0.04836203089139733 0.09782777435807329
0.07333624707752566 -0.057609671095707485 0.09610170822166171
-0.0621725846215421 0.03973634288057375 0.10221781358964963
-0.04631519884884222 0.030488702676263593 0.10049174745323806
-0.030457813076142325 0.021241062471953422 0.09876568131682649
-0.01460042730344245 0.011993422267643262 0.09703961518041493
0.00125695846925744 0.002745782063333097 0.09531354904400335
0.017114344241957326 -0.00650185814097707 0.09358748290759179
0.032971730014657204 -0.01574949834528723 0.09186141677118023
0.04882911578735708 -0.02499713854959739 0.09013535063476866
0.06468650156005698 -0.034244778753907565 0.0884092844983571
0.08054388733275686 -0.04349241895821772 0.08668321836194552
-0.0549649443663109 0.053853595018063506 0.09279932372993345
-0.03910755859361102 0.04460595481375335 0.09107325759352188
-0.023250172820911134 0.035358314609443185 0.08934719145711031
-0.007392787048211257 0.026110674405133025 0.08762112532069874
0.008464598724488634 0.016863034200822857 0.08589505918428718
0.024321984497188517 0.007615393996512696 0.08416899304787562
0.040179370269888395 -0.0016322462077974643 0.08244292691146404
0.05603675604258827 -0.010879886412107631 0.08071686077505248
0.07189414181528818 -0.0201275266164178 0.07899079463864091
0.08775152758798806 -0.029375166820727952 0.07726472850222935
-0.0477573041110797 0.06797084715555328 0.08338083387021726
-0.03189991833837983 0.058723206951243126 0.0816547677338057
-0.016042532565679935 0.04947556674693295 0.07992870159739413
-0.00018514679298005813 0.04022792654262279 0.07820263546098256
0.01567223897971983 0.030980286338312627 0.07647656932457099
0.031529624752419716 0.021732646134002463 0.07475050318815943
0.047387010525119594 0.012485005929692303 0.07302443705174785
0.06324439629781947 0.0032373657253821414 0.07129837091533629
0.07910178207051938 -0.006010274478928033 0.06957230477892473
0.09495916784321926 -0.015257914683238186 0.06784623864251316
-0.04054966385584852 0.08208809929304305 0.07396234401050107
-0.02469227808314863 0.07284045908873289 0.07223627787408951
-0.008834892310448738 0.06359281888442272 0.07051021173767794
0.0070224934622511405 0.05434517868011256 0.06878414560126637
0.022879879234951026 0.0450975384758024 0.0670580794648548
0.038737265007650915 0.03584989827149223 0.06533201332844324
0.05459465078035079 0.026602258067182073 0.06360594719203168
0.07045203655305067 0.01735461786287191 0.06187988105562011
0.08630942232575058 0.008106977658561734 0.06015381491920854
0.10216680809845044 -0.00114066254574842 0.058427748782796975
-0.03334202360061732 0.09620535143053281 0.0645438541507849
-0.017484637827917437 0.08695771122622266 0.06281778801437332
-0.0016272520552175459 0.07771007102191248 0.06109172187796176
0.014230133717482333 0.06846243081760232 0.05936565574155019
0.03008751949018222 0.059214790613292156 0.057639589605138625
0.045944905262882106 0.049967150408981996 0.05591352346872706
0.061802291035581984 0.040719510204671835 0.054187457332315496
0.07765967680828187 0.03147187000036167 0.05246139119590393
0.09351706258098176 0.022224229796051497 0.05073532505949236
0.10937444835368164 0.012976589591741344 0.04900925892308079
-0.026134383345386116 0.11032260356802258 0.05512536429106871
-0.01027699757268624 0.10107496336371243 0.053399298154657146
0.005580388200013653 0.09182732315940224 0.05167323201824558
0.02143777397271353 0.08257968295509209 0.04994716588183401
0.03729515974541342 0.07333204275078192 0.04822109974542244
0.053152545518113305 0.06408440254647176 0.046495033609010875
0.06900993129081318 0.054836762342161595 0.044768967472599314
0.08486731706351307 0.045589122137851434 0.043042901336187746
0.10072470283621296 0.03634148193354126 0.04131683519977618
0.11658208860891284 0.027093841729231107 0.03959076906336461
-0.018926743090154918 0.12443985570551234 0.04570687443135252
-0.0030693573174550405 0.11519221550120219 0.04398080829494095
0.01278802845524485 0.10594457529689202 0.04225474215852938
0.02864541422794473 0.09669693509258187 0.04052867602211782
0.04450280000064462 0.0874492948882717 0.038802609885706246
0.060360185773344496 0.07820165468396154 0.037076543749294685
0.07621757154604437 0.06895401447965137 0.03535047761288312
0.09207495731874425 0.059706374275341215 0.03362441147647155
0.10793234309144416 0.05045873407103104 0.03189834534005998
0.12378972886414404 0.04121109386672089 0.030172279203648417
-0.011719102834923728 0.1385571078430021 0.03628838457163634
0.004138282937776151 0.12930946763869194 0.034562318435224774
0.019995668710476044 0.12006182743438179 0.03283625229881321
0.03585305448317592 0.11081418723007162 0.031110186162401642
0.05171044025587581 0.10156654702576146 0.029384120025990074
0.0675678260285757 0.09231890682145129 0.027658053889578513
0.08342521180127557 0.08307126661714113 0.025931987753166946
0.09928259757397545 0.07382362641283097 0.024205921616755378
0.11513998334667534 0.0645759862085208 0.02247985548034381
0.13099736911937523 0.055328346004210646 0.020753789343932242
