# .PCD v0.7 - Point Cloud Data file format
VERSION 0.7
FIELDS x y z
SIZE 4 4 4
TYPE F F F
COUNT 1 1 1
WIDTH 600
HEIGHT 1
VIEWPOINT 0 0 0 1 0 0 0
POINTS 600
DATA ascii
0.00445383780689343 -0.09814419248148631 0.003617034063732575
-0.0045262003122663865 -0.09147161086920719 -0.002208216777515729
-0.013506238431426208 -0.08479902925692807 -0.00803346761876404
-0.02248627655058603 -0.07812644764464895 -0.013858718460012352
-0.03146631466974585 -0.07145386603236982 -0.01968396930126066
-0.04044635278890568 -0.06478128442009069 -0.025509220142508972
-0.0494263909080655 -0.05810870280781157 -0.03133447098375728
-0.058406429027225315 -0.051436121195532446 -0.03715972182500559
-0.06738646714638515 -0.04476353958325332 -0.0429849726662539
-0.07636650526554496 -0.03809095797097419 -0.048810223507502214
0.0036253735259271567 -0.09051799422074805 0.013629662309134922
-0.0053546645932326595 -0.08384541260846894 0.007804411467886616
-0.01433470271239248 -0.07717283099618981 0.0019791606266383057
-0.023314740831552303 -0.07050024938391068 -0.0038460902146100055
-0.03229477895071212 -0.06382766777163155 -0.009671341055858316
-0.041274817069871954 -0.057155086159352435 -0.015496591897106627
-0.05025485518903177 -0.050482504547073315 -0.021321842738354937
-0.05923489330819159 -0.04380992293479419 -0.027147093579603248
-0.06821493142735142 -0.03713734132251506 -0.032972344420851556
-0.07719496954651124 -0.030464759710235937 -0.03879759526209987
0.0027969092449608842 -0.0828917959600098 0.023642290554537267
-0.006183128874198932 -0.07621921434773068 0.017817039713288962
-0.015163166993358753 -0.06954663273545156 0.011991788872040651
-0.024143205112518575 -0.06287405112317243 0.006166538030792341
-0.033123243231678395 -0.056201469510893304 0.0003412871895440294
-0.042103281350838226 -0.04952888789861418 -0.005483963651704281
-0.05108331946999804 -0.04285630628633506 -0.01130921449295259
-0.06006335758915786 -0.03618372467405593 -0.0171344653342009
-0.06904339570831769 -0.029511143061776803 -0.022959716175449212
-0.0780234338274775 -0.02283856144949768 -0.02878496701669752
0.0019684449639946113 -0.07526559769927153 0.033654918799939613
-0.007011593155165205 -0.06859301608699242 0.027829667958691313
-0.015991631274325027 -0.0619204344747133 0.022004417117443
-0.02497166939348485 -0.05524785286243417 0.01617916627619469
-0.03395170751264467 -0.048575271250155046 0.010353915434946378
-0.0429317456318045 -0.04190268963787592 0.004528664593698067
-0.051911783750964315 -0.0352301080255968 -0.0012965862475502405
-0.06089182187012413 -0.02855752641331767 -0.007121837088798552
-0.06987185998928397 -0.021884944801038544 -0.012947087930046864
-0.07885189810844379 -0.015212363188759421 -0.01877233877129517
0.001139980683028338 -0.06763939943853328 0.04366754704534197
-0.007840057436131479 -0.06096681782625416 0.03784229620409366
-0.0168200955552913 -0.05429423621397504 0.03201704536284535
-0.025800133674451123 -0.047621654601695915 0.02619179452159704
-0.03478017179361094 -0.04094907298941679 0.02036654368034873
-0.04376020991277077 -0.03427649137713766 0.014541292839100417
-0.05274024803193059 -0.027603909764858537 0.008716041997852109
-0.0617202861510904 -0.02093132815257941 0.002890791156603798
-0.07070032427025023 -0.014258746540300285 -0.0029344596846445133
-0.07968036238941005 -0.00758616492802116 -0.008759710525892821
0.0003115164020620649 -0.06001320117779502 0.053680175290744314
-0.008668521717097751 -0.0533406195655159 0.04785492444949601
-0.01764855983625757 -0.04666803795323678 0.0420296736082477
-0.026628597955417395 -0.03999545634095765 0.03620442276699939
-0.03560863607457722 -0.03332287472867852 0.030379171925751076
-0.04458867419373705 -0.0266502931163994 0.024553921084502765
-0.053568712312896866 -0.01997771150412028 0.018728670243254458
-0.06254875043205668 -0.01330512989184115 0.012903419402006148
-0.07152878855121651 -0.006632548279562024 0.007078168560757837
-0.08050882667037633 4.003333271709986e-05 0.0012529177195095293
-0.0005169478789042077 -0.052387002917056766 0.06369280353614666
-0.009496985998064025 -0.045714421304777646 0.05786755269489836
-0.018477024117223843 -0.039041839692498526 0.052042301853650046
-0.027457062236383667 -0.0323692580802194 0.046217051012401734
-0.03643710035554349 -0.025696676467940268 0.04039180017115342
-0.04541713847470332 -0.01902409485566114 0.03456654932990511
-0.05439717659386314 -0.012351513243382023 0.028741298488656804
-0.06337721471302295 -0.0056789316311028955 0.022916047647408493
-0.07235725283218278 0.000993649981176232 0.017090796806160182
-0.0813372909513426 0.007666231593455355 0.011265545964911873
-0.0013454121598704808 -0.04476080465631851 0.07370543178154901
-0.010325450279030297 -0.03808822304403939 0.06788018094030071
-0.01930548839819012 -0.03141564143176027 0.06205493009905239
-0.028285526517349942 -0.024743059819481137 0.05622967925780408
-0.03726556463650976 -0.01807047820720201 0.05040442841655577
-0.04624560275566959 -0.011397896594922883 0.04457917757530746
-0.05522564087482941 -0.004725314982643763 0.038753926734059155
-0.06420567899398923 0.001947266629635364 0.032928675892810844
-0.07318571711314906 0.008619848241914491 0.02710342505156253
-0.08216575523230887 0.015292429854193615 0.02127817421031422
-0.0021738764408367538 -0.03713460639558024 0.08371806002695135
-0.01115391455999657 -0.030462024783301123 0.07789280918570306
-0.02013395267915639 -0.023789443171022003 0.07206755834445475
-0.029113990798316215 -0.017116861558742875 0.06624230750320644
-0.038094028917476035 -0.010444279946463748 0.060417056661958124
-0.047074067036635865 -0.003771698334184622 0.05459180582070981
-0.05605410515579568 0.0029008832780944983 0.0487665549794615
-0.06503414327495549 0.009573464890373626 0.04294130413821319
-0.07401418139411532 0.016246046502652753 0.03711605329696488
-0.08299421951327514 0.022918628114931876 0.031290802455716575
-0.0030023407218030267 -0.029508408134841985 0.0937306882723537
-0.011982378840962843 -0.022835826522562865 0.0879054374311054
-0.020962416960122663 -0.016163244910283744 0.0820801865898571
-0.029942455079282487 -0.009490663298004619 0.07625493574860878
-0.03892249319844231 -0.0028180816857254916 0.07042968490736047
-0.04790253131760214 0.0038544999265536354 0.06460443406611216
-0.056882569436761954 0.010527081538832755 0.05877918322486385
-0.06586260755592177 0.017199663151111884 0.05295393238361554
-0.0748426456750816 0.02387224476339101 0.047128681542367226
-0.08382268379424142 0.030544826375670135 0.04130343070111892
0.08382268379424142 -0.030544826375670135 -0.04130343070111892
0.0748426456750816 -0.02387224476339101 -0.047128681542367226
0.06586260755592178 -0.017199663151111887 -0.05295393238361554
0.056882569436761954 -0.010527081538832762 -0.05877918322486385
0.04790253131760214 -0.0038544999265536354 -0.06460443406611216
0.03892249319844231 0.0028180816857254916 -0.07042968490736047
0.02994245507928249 0.009490663298004612 -0.07625493574860878
0.02096241696012267 0.016163244910283737 -0.0820801865898571
0.011982378840962843 0.022835826522562865 -0.0879054374311054
0.0030023407218030267 0.029508408134841985 -0.0937306882723537
0.08299421951327514 -0.022918628114931876 -0.031290802455716575
0.07401418139411532 -0.016246046502652753 -0.03711605329696488
0.0650341432749555 -0.00957346489037363 -0.04294130413821319
0.05605410515579568 -0.0029008832780945053 -0.0487665549794615
0.047074067036635865 0.003771698334184622 -0.05459180582070981
0.038094028917476035 0.010444279946463748 -0.060417056661958124
0.029113990798316218 0.01711686155874287 -0.06624230750320644
0.020133952679156398 0.023789443171021996 -0.07206755834445475
0.01115391455999657 0.030462024783301123 -0.07789280918570306
0.0021738764408367538 0.03713460639558024 -0.08371806002695135
0.08216575523230887 -0.015292429854193618 -0.021278174210314228
0.07318571711314906 -0.008619848241914495 -0.027103425051562536
0.06420567899398924 -0.0019472666296353716 -0.032928675892810844
0.05522564087482941 0.0047253149826437515 -0.038753926734059155
0.04624560275566959 0.01139789659492288 -0.044579177575307466
0.03726556463650976 0.018070478207202006 -0.05040442841655578
0.028285526517349946 0.024743059819481127 -0.05622967925780408
0.019305488398190126 0.031415641431760254 -0.0620549300990524
0.010325450279030297 0.03808822304403938 -0.06788018094030071
0.0013454121598704813 0.0447608046563185 -0.07370543178154901
0.0813372909513426 -0.007666231593455359 -0.01126554596491188
0.07235725283218278 -0.000993649981176236 -0.017090796806160186
0.06337721471302296 0.005678931631102888 -0.022916047647408497
0.05439717659386314 0.01235151324338201 -0.028741298488656804
0.04541713847470332 0.019024094855661138 -0.03456654932990512
0.03643710035554349 0.025696676467940265 -0.04039180017115343
0.02745706223638367 0.032369258080219385 -0.046217051012401734
0.01847702411722385 0.03904183969249851 -0.05204230185365005
0.009496985998064025 0.04571442130477764 -0.057867552694898364
0.0005169478789042081 0.05238700291705676 -0.06369280353614666
0.08050882667037633 -4.003333271709986e-05 -0.0012529177195095293
0.07152878855121651 0.006632548279562024 -0.007078168560757837
0.0625487504320567 0.013305129891841147 -0.012903419402006146
0.053568712312896866 0.019977711504120272 -0.018728670243254454
0.04458867419373705 0.0266502931163994 -0.024553921084502765
0.03560863607457722 0.03332287472867852 -0.030379171925751076
0.0266285979554174 0.03999545634095764 -0.03620442276699939
0.017648559836257578 0.04666803795323677 -0.0420296736082477
0.008668521717097751 0.0533406195655159 -0.04785492444949601
-0.0003115164020620649 0.06001320117779502 -0.053680175290744314
0.07968036238941005 0.00758616492802116 0.008759710525892821
0.07070032427025023 0.014258746540300285 0.0029344596846445133
0.06172028615109042 0.020931328152579406 -0.002890791156603796
0.05274024803193059 0.02760390976485853 -0.008716041997852106
0.04376020991277077 0.03427649137713766 -0.014541292839100417
0.03478017179361094 0.04094907298941679 -0.02036654368034873
0.025800133674451126 0.04762165460169591 -0.026191794521597037
0.016820095555291306 0.054294236213975035 -0.03201704536284535
0.007840057436131479 0.06096681782625416 -0.03784229620409366
-0.001139980683028338 0.06763939943853328 -0.04366754704534197
0.07885189810844379 0.015212363188759416 0.018772338771295166
0.06987185998928397 0.02188494480103854 0.012947087930046857
0.060891821870124145 0.028557526413317665 0.007121837088798548
0.051911783750964315 0.035230108025596785 0.0012965862475502385
0.0429317456318045 0.04190268963787591 -0.004528664593698072
0.03395170751264467 0.04857527125015504 -0.010353915434946384
0.024971669393484854 0.05524785286243416 -0.01617916627619469
0.015991631274325034 0.061920434474713286 -0.022004417117443005
0.007011593155165206 0.06859301608699242 -0.027829667958691316
-0.001968444963994611 0.07526559769927153 -0.03365491879993962
0.0780234338274775 0.022838561449497675 0.028784967016697513
0.06904339570831769 0.0295111430617768 0.022959716175449205
0.06006335758915787 0.03618372467405592 0.017134465334200898
0.05108331946999804 0.04285630628633504 0.011309214492952588
0.042103281350838226 0.04952888789861417 0.005483963651704276
0.033123243231678395 0.0562014695108933 -0.00034128718954403494
0.02414320511251858 0.06287405112317242 -0.006166538030792343
0.01516316699335876 0.06954663273545154 -0.011991788872040656
0.006183128874198933 0.07621921434773067 -0.01781703971328897
-0.002796909244960884 0.0828917959600098 -0.023642290554537274
0.07719496954651124 0.030464759710235937 0.03879759526209987
0.06821493142735142 0.03713734132251506 0.032972344420851556
0.0592348933081916 0.04380992293479418 0.027147093579603248
0.05025485518903177 0.05048250454707331 0.02132184273835494
0.041274817069871954 0.057155086159352435 0.015496591897106627
0.03229477895071212 0.06382766777163155 0.009671341055858316
0.023314740831552307 0.07050024938391068 0.003846090214610009
0.014334702712392487 0.07717283099618981 -0.0019791606266383057
0.0053546645932326595 0.08384541260846894 -0.007804411467886616
-0.0036253735259271567 0.09051799422074805 -0.013629662309134922
0.07636650526554496 0.03809095797097419 0.048810223507502214
0.06738646714638515 0.04476353958325332 0.0429849726662539
0.05840642902722533 0.05143612119553244 0.03715972182500559
0.0494263909080655 0.058108702807811566 0.03133447098375729
0.04044635278890568 0.06478128442009069 0.025509220142508972
0.03146631466974585 0.07145386603236982 0.01968396930126066
0.022486276550586035 0.07812644764464893 0.013858718460012355
0.013506238431426214 0.08479902925692806 0.00803346761876404
0.0045262003122663865 0.09147161086920719 0.002208216777515729
-0.00445383780689343 0.09814419248148631 -0.003617034063732575
0.00445383780689343 -0.09814419248148631 0.003617034063732575
0.013272598472154312 -0.09063315180306229 -0.0013741286879175912
0.0220913591374152 -0.08312211112463828 -0.0063652914395677575
0.03091011980267609 -0.07561107044621426 -0.011356454191217924
0.039728880467936975 -0.06810002976779024 -0.016347616942868088
0.04854764113319787 -0.06058898908936621 -0.021338779694518254
0.057366401798458755 -0.0530779484109422 -0.02632994244616842
0.06618516246371964 -0.045566907732518175 -0.03132110519781859
0.07500392312898053 -0.03805586705409415 -0.036312267949468756
0.08382268379424142 -0.030544826375670135 -0.04130343070111892
0.0036253735259271567 -0.09051799422074805 0.013629662309134922
0.01244413419118804 -0.08300695354232404 0.008638499557484755
0.021262894856448927 -0.07549591286390002 0.003647336805834589
0.030081655521709817 -0.067984872185476 -0.0013438259458155772
0.0389004161869707 -0.06047383150705198 -0.006334988697465744
0.0477191768522316 -0.052962790828627954 -0.011326151449115909
0.05653793751749248 -0.04545175015020394 -0.016317314200766077
0.06535669818275336 -0.03794070947177992 -0.021308476952416243
0.07417545884801426 -0.030429668793355895 -0.02629963970406641
0.08299421951327514 -0.022918628114931876 -0.031290802455716575
0.0027969092449608842 -0.0828917959600098 0.023642290554537267
0.011615669910221766 -0.07538075528158579 0.0186511278028871
0.020434430575482655 -0.06786971460316177 0.013659965051236934
0.029253191240743544 -0.060358673924737746 0.008668802299586768
0.03807195190600443 -0.052847633246313724 0.0036776395479366027
0.04689071257126533 -0.0453365925678897 -0.0013135232037135634
0.05570947323652621 -0.03782555188946568 -0.006304685955363729
0.0645282339017871 -0.030314511211041662 -0.011295848707013896
0.07334699456704799 -0.022803470532617637 -0.016287011458664062
0.08216575523230887 -0.015292429854193618 -0.021278174210314228
0.0019684449639946113 -0.07526559769927153 0.033654918799939613
0.010787205629255494 -0.06775455702084753 0.02866375604828945
0.01960596629451638 -0.06024351634242351 0.023672593296639285
0.02842472695977727 -0.05273247566399949 0.01868143054498912
0.03724348762503816 -0.045221434985575466 0.01369026779333895
0.046062248290299056 -0.03771039430715144 0.008699105041688785
0.05488100895555994 -0.030199353628727423 0.0037079422900386195
0.06369976962082081 -0.022688312950303404 -0.0012832204616115466
0.07251853028608171 -0.015177272271879379 -0.006274383213261713
0.0813372909513426 -0.007666231593455359 -0.01126554596491188
0.001139980683028338 -0.06763939943853328 0.04366754704534197
0.00995874134828922 -0.06012835876010927 0.0386763842936918
0.018777502013550107 -0.05261731808168525 0.033685221542041635
0.027596262678810997 -0.04510627740326123 0.02869405879039147
0.03641502334407189 -0.03759523672483721 0.023702896038741303
0.045233784009332784 -0.03008419604641318 0.018711733287091137
0.05405254467459367 -0.02257315536798916 0.013720570535440969
0.06287130533985455 -0.015062114689565144 0.008729407783790803
0.07169006600511545 -0.007551074011141118 0.003738245032140637
0.08050882667037633 -4.003333271709986e-05 -0.0012529177195095293
0.0003115164020620649 -0.06001320117779502 0.053680175290744314
0.009130277067322948 -0.052502160499371 0.04868901253909415
0.017949037732583835 -0.04499111982094699 0.04369784978744398
0.026767798397844725 -0.037480079142522965 0.038706687035793816
0.03558655906310561 -0.029969038464098947 0.03371552428414365
0.044405319728366505 -0.02245799778567492 0.028724361532493484
0.05322408039362739 -0.014946957107250901 0.023733198780843318
0.06204284105888827 -0.007435916428826884 0.01874203602919315
0.07086160172414917 7.512424959714201e-05 0.013750873277542987
0.07968036238941005 0.00758616492802116 0.008759710525892821
-0.0005169478789042077 -0.052387002917056766 0.06369280353614666
0.008301812786356675 -0.04487596223863275 0.058701640784496495
0.017120573451617563 -0.037364921560208736 0.05371047803284633
0.025939334116878453 -0.02985388088178471 0.04871931528119616
0.034758094782139336 -0.02234284020336069 0.043728152529546
0.04357685544740023 -0.014831799524936665 0.03873698977789583
0.052395616112661116 -0.0073207588465126466 0.033745827026245664
0.061214376777922 0.00019028183191137222 0.0287546642745955
0.0700331374431829 0.007701322510335397 0.023763501522945332
0.07885189810844379 0.015212363188759416 0.018772338771295166
-0.0013454121598704808 -0.04476080465631851 0.07370543178154901
0.007473348505390403 -0.03724976397789449 0.06871426902989884
0.016292109170651287 -0.029738723299470474 0.06372310627824868
0.025110869835912177 -0.022227682621046452 0.05873194352659851
0.033929630501173064 -0.01471664194262243 0.053740780774948343
0.04274839116643396 -0.007205601264198405 0.04874961802329818
0.051567151831694844 0.000305439414225613 0.04375845527164801
0.060385912496955726 0.007816480092649632 0.038767292519997845
0.06920467316221662 0.015327520771073657 0.03377612976834768
0.0780234338274775 0.022838561449497675 0.028784967016697513
-0.0021738764408367538 -0.03713460639558024 0.08371806002695135
0.006644884224424129 -0.029623565717156228 0.07872689727530119
0.015463644889685015 -0.022112525038732213 0.07373573452365102
0.024282405554945905 -0.014601484360308191 0.06874457177200086
0.03310116622020679 -0.007090443681884169 0.06375340902035069
0.04191992688546769 0.000420596996539856 0.05876224626870053
0.05073868755072857 0.007931637674963875 0.053771083517050365
0.059557448215989454 0.015442678353387893 0.0487799207654002
0.06837620888125036 0.02295371903181192 0.04378875801375003
0.07719496954651124 0.030464759710235937 0.03879759526209987
-0.0030023407218030267 -0.029508408134841985 0.0937306882723537
0.005816419943457856 -0.02199736745641797 0.08873952552070354
0.014635180608718743 -0.014486326777993956 0.08374836276905337
0.023453941273979633 -0.006975286099569935 0.0787572000174032
0.03227270193924052 0.0005357545788540878 0.07376603726575304
0.041091462604501416 0.008046795257278113 0.06877487451410287
0.0499102232697623 0.015557835935702131 0.0637837117624527
0.05872898393502318 0.02306887661412615 0.058792549010802546
0.06754774460028408 0.030579917292550177 0.05380138625915238
0.07636650526554496 0.03809095797097419 0.048810223507502214
-0.07636650526554496 -0.03809095797097419 -0.048810223507502214
-0.06754774460028408 -0.030579917292550177 -0.05380138625915238
-0.058728983935023196 -0.023068876614126158 -0.05879254901080254
-0.0499102232697623 -0.015557835935702135 -0.0637837117624527
-0.041091462604501416 -0.008046795257278113 -0.06877487451410287
-0.03227270193924052 -0.0005357545788540878 -0.07376603726575304
-0.023453941273979637 0.006975286099569928 -0.0787572000174032
-0.01463518060871875 0.014486326777993943 -0.08374836276905337
-0.005816419943457856 0.02199736745641797 -0.08873952552070354
0.0030023407218030267 0.029508408134841985 -0.0937306882723537
-0.07719496954651124 -0.030464759710235937 -0.03879759526209987
-0.06837620888125036 -0.02295371903181192 -0.04378875801375003
-0.05955744821598947 -0.0154426783533879 -0.0487799207654002
-0.05073868755072857 -0.007931637674963878 -0.053771083517050365
-0.04191992688546769 -0.000420596996539856 -0.05876224626870053
-0.03310116622020679 0.007090443681884169 -0.06375340902035069
-0.02428240555494591 0.014601484360308184 -0.06874457177200086
-0.015463644889685022 0.0221125250387322 -0.07373573452365102
-0.006644884224424129 0.029623565717156228 -0.07872689727530119
0.0021738764408367538 0.03713460639558024 -0.08371806002695135
-0.0780234338274775 -0.02283856144949768 -0.02878496701669752
-0.06920467316221662 -0.01532752077107366 -0.033776129768347686
-0.06038591249695574 -0.007816480092649642 -0.03876729251999785
-0.051567151831694844 -0.0003054394142256207 -0.04375845527164802
-0.04274839116643396 0.007205601264198401 -0.048749618023298184
-0.033929630501173064 0.014716641942622427 -0.05374078077494835
-0.02511086983591218 0.022227682621046442 -0.058731943526598517
-0.016292109170651294 0.029738723299470457 -0.06372310627824868
-0.007473348505390402 0.037249763977894486 -0.06871426902989884
0.0013454121598704813 0.0447608046563185 -0.07370543178154901
-0.07885189810844379 -0.015212363188759421 -0.01877233877129517
-0.0700331374431829 -0.007701322510335402 -0.023763501522945336
-0.06121437677792201 -0.00019028183191138336 -0.028754664274595502
-0.052395616112661116 0.007320758846512639 -0.03374582702624567
-0.04357685544740023 0.01483179952493666 -0.03873698977789584
-0.034758094782139336 0.022342840203360685 -0.043728152529546004
-0.025939334116878456 0.0298538808817847 -0.04871931528119617
-0.01712057345161757 0.037364921560208715 -0.053710478032846336
-0.008301812786356675 0.044875962238632744 -0.0587016407844965
0.0005169478789042081 0.05238700291705676 -0.06369280353614666
-0.07968036238941005 -0.00758616492802116 -0.008759710525892821
-0.07086160172414917 -7.512424959714201e-05 -0.013750873277542987
-0.062042841058888284 0.007435916428826877 -0.01874203602919315
-0.05322408039362739 0.014946957107250898 -0.023733198780843318
-0.044405319728366505 0.02245799778567492 -0.028724361532493484
-0.03558655906310561 0.029969038464098947 -0.03371552428414365
-0.02676779839784473 0.03748007914252296 -0.038706687035793816
-0.017949037732583842 0.04499111982094697 -0.04369784978744398
-0.009130277067322948 0.052502160499371 -0.04868901253909415
-0.0003115164020620649 0.06001320117779502 -0.053680175290744314
-0.08050882667037633 4.003333271709986e-05 0.0012529177195095293
-0.07169006600511545 0.007551074011141118 -0.003738245032140637
-0.06287130533985456 0.015062114689565137 -0.008729407783790801
-0.05405254467459367 0.022573155367989158 -0.013720570535440969
-0.045233784009332784 0.03008419604641318 -0.018711733287091137
-0.03641502334407189 0.03759523672483721 -0.023702896038741303
-0.027596262678811 0.04510627740326122 -0.02869405879039147
-0.018777502013550114 0.05261731808168524 -0.033685221542041635
-0.00995874134828922 0.06012835876010927 -0.0386763842936918
-0.001139980683028338 0.06763939943853328 -0.04366754704534197
-0.0813372909513426 0.007666231593455355 0.011265545964911873
-0.07251853028608171 0.015177272271879374 0.0062743832132617075
-0.06369976962082083 0.022688312950303394 0.0012832204616115429
-0.05488100895555994 0.030199353628727416 -0.003707942290038625
-0.046062248290299056 0.03771039430715144 -0.008699105041688792
-0.03724348762503816 0.04522143498557546 -0.013690267793338958
-0.028424726959777272 0.052732475663999474 -0.018681430544989122
-0.019605966294516386 0.06024351634242349 -0.023672593296639288
-0.010787205629255494 0.06775455702084753 -0.028663756048289454
-0.001968444963994611 0.07526559769927153 -0.03365491879993962
-0.08216575523230887 0.015292429854193615 0.02127817421031422
-0.07334699456704799 0.022803470532617633 0.016287011458664055
-0.06452823390178711 0.030314511211041652 0.011295848707013893
-0.05570947323652621 0.037825551889465674 0.006304685955363724
-0.04689071257126533 0.045336592567889696 0.0013135232037135578
-0.03807195190600443 0.05284763324631372 -0.0036776395479366083
-0.029253191240743548 0.06035867392473773 -0.008668802299586774
-0.02043443057548266 0.06786971460316175 -0.01365996505123694
-0.011615669910221766 0.07538075528158578 -0.018651127802887107
-0.002796909244960884 0.0828917959600098 -0.023642290554537274
-0.08299421951327514 0.022918628114931876 0.031290802455716575
-0.07417545884801426 0.030429668793355895 0.02629963970406641
-0.06535669818275337 0.03794070947177991 0.021308476952416243
-0.05653793751749248 0.04545175015020393 0.016317314200766077
-0.0477191768522316 0.052962790828627954 0.011326151449115909
-0.0389004161869707 0.06047383150705198 0.006334988697465744
-0.03008165552170982 0.067984872185476 0.0013438259458155772
-0.021262894856448934 0.0754959128639 -0.003647336805834589
-0.01244413419118804 0.08300695354232404 -0.008638499557484755
-0.0036253735259271567 0.09051799422074805 -0.013629662309134922
-0.08382268379424142 0.030544826375670135 0.04130343070111892
-0.07500392312898053 0.03805586705409415 0.036312267949468756
-0.06618516246371965 0.04556690773251817 0.03132110519781859
-0.057366401798458755 0.05307794841094219 0.02632994244616842
-0.04854764113319787 0.06058898908936621 0.021338779694518254
-0.039728880467936975 0.06810002976779024 0.016347616942868088
-0.030910119802676092 0.07561107044621425 0.011356454191217924
-0.022091359137415206 0.08312211112463827 0.0063652914395677575
-0.013272598472154312 0.09063315180306229 0.0013741286879175912
-0.00445383780689343 0.09814419248148631 -0.003617034063732575
0.00445383780689343 -0.09814419248148631 0.003617034063732575
0.013272598472154312 -0.09063315180306229 -0.0013741286879175912
0.0220913591374152 -0.08312211112463828 -0.0063652914395677575
0.03091011980267609 -0.07561107044621426 -0.011356454191217924
0.039728880467936975 -0.06810002976779024 -0.016347616942868088
0.04854764113319787 -0.06058898908936621 -0.021338779694518254
0.057366401798458755 -0.0530779484109422 -0.02632994244616842
0.06618516246371964 -0.045566907732518175 -0.03132110519781859
0.07500392312898053 -0.03805586705409415 -0.036312267949468756
0.08382268379424142 -0.030544826375670135 -0.04130343070111892
-0.0045262003122663865 -0.09147161086920719 -0.002208216777515729
0.004292560352994496 -0.08396057019078318 -0.007199379529165896
0.013111321018255382 -0.07644952951235916 -0.012190542280816062
0.021930081683516272 -0.06893848883393514 -0.017181705032466226
0.030748842348777162 -0.061427448155511113 -0.022172867784116396
0.039567603014038055 -0.05391640747708709 -0.027164030535766562
0.04838636367929894 -0.04640536679866308 -0.03215519328741673
0.05720512434455982 -0.038894326120239055 -0.037146356039066894
0.06602388500982072 -0.031383285441815026 -0.04213751879071706
0.0748426456750816 -0.02387224476339101 -0.047128681542367226
-0.013506238431426208 -0.08479902925692807 -0.00803346761876404
-0.004687477766165324 -0.07728798857850405 -0.013024630370414207
0.004131282899095563 -0.06977694790008003 -0.01801579312206437
0.012950043564356452 -0.06226590722165601 -0.023006955873714537
0.021768804229617342 -0.054754866543231986 -0.027998118625364703
0.03058756489487823 -0.047243825864807965 -0.03298928137701487
0.039406325560139115 -0.03973278518638395 -0.03798044412866504
0.048225086225400005 -0.03222174450795993 -0.042971606880315205
0.0570438468906609 -0.024710703829535906 -0.04796276963196537
0.06586260755592178 -0.017199663151111887 -0.05295393238361554
-0.02248627655058603 -0.07812644764464895 -0.013858718460012352
-0.013667515885325148 -0.07061540696622493 -0.018849881211662516
-0.004848755220064261 -0.0631043662878009 -0.023841043963312682
0.003970005445196629 -0.05559332560937689 -0.02883220671496285
0.012788766110457518 -0.048082284930952866 -0.03382336946661302
0.021607526775718408 -0.040571244252528844 -0.038814532218263184
0.03042628744097929 -0.03306020357410482 -0.04380569496991335
0.03924504810624018 -0.025549162895680804 -0.048796857721563516
0.04806380877150107 -0.01803812221725678 -0.05378802047321368
0.056882569436761954 -0.010527081538832762 -0.05877918322486385
-0.03146631466974585 -0.07145386603236982 -0.01968396930126066
-0.02264755400448497 -0.0639428253539458 -0.024675132052910827
-0.013828793339224085 -0.05643178467552178 -0.029666294804560994
-0.0050100326739631945 -0.04892074399709776 -0.034657457556211156
0.003808727991297695 -0.04140970331867374 -0.03964862030786133
0.012627488656558584 -0.03389866264024972 -0.044639783059511495
0.021446249321819467 -0.0263876219618257 -0.04963094581116166
0.030265009987080357 -0.01887658128340168 -0.05462210856281183
0.039083770652341254 -0.011365540604977653 -0.059613271314461994
0.04790253131760214 -0.0038544999265536354 -0.06460443406611216
-0.04044635278890568 -0.06478128442009069 -0.025509220142508972
-0.0316275921236448 -0.05727024374166667 -0.03050038289415914
-0.02280883145838391 -0.049759203063242656 -0.0354915456458093
-0.013990070793123019 -0.042248162384818634 -0.04048270839745947
-0.005171310127862128 -0.03473712170639461 -0.04547387114910964
0.0036474505373987613 -0.02722608102797059 -0.050465033900759806
0.012466211202659646 -0.019715040349546572 -0.05545619665240997
0.021284971867920534 -0.012203999671122552 -0.06044735940406014
0.030103732533181427 -0.004692958992698526 -0.0654385221557103
0.03892249319844231 0.0028180816857254916 -0.07042968490736047
-0.0494263909080655 -0.05810870280781157 -0.03133447098375728
-0.040607630242804615 -0.05059766212938755 -0.036325633735407446
-0.031788869577543725 -0.043086621450963536 -0.04131679648705761
-0.022970108912282836 -0.035575580772539514 -0.04630795923870778
-0.014151348247021946 -0.02806454009411549 -0.051299121990357945
-0.005332587581761057 -0.020553499415691467 -0.05629028474200811
0.0034861730834998277 -0.01304245873726745 -0.06128144749365828
0.012304933748760715 -0.005531418058843432 -0.06627261024530845
0.021123694414021607 0.001979622619580597 -0.07126377299695862
0.02994245507928249 0.009490663298004612 -0.07625493574860878
-0.058406429027225315 -0.051436121195532446 -0.03715972182500559
-0.04958766836196443 -0.043925080517108424 -0.04215088457665576
-0.04076890769670355 -0.03641403983868441 -0.047142047328305924
-0.03195014703144266 -0.028902999160260387 -0.05213321007995609
-0.02313138636618177 -0.021391958481836365 -0.057124372831606256
-0.01431262570092088 -0.013880917803412341 -0.06211553558325642
-0.005493865035659994 -0.0063698771249883265 -0.0671066983349066
0.003324895629600894 0.001141163553435695 -0.07209786108655676
0.012143656294861787 0.008652204231859724 -0.07708902383820693
0.02096241696012267 0.016163244910283737 -0.0820801865898571
-0.06738646714638515 -0.04476353958325332 -0.0429849726662539
-0.05856770648112426 -0.0372524989048293 -0.04797613541790407
-0.04974894581586338 -0.029741458226405282 -0.052967298169554235
-0.04093018515060248 -0.02223041754798126 -0.0579584609212044
-0.0321114244853416 -0.014719376869557236 -0.06294962367285457
-0.023292663820080706 -0.007208336191133214 -0.06794078642450474
-0.01447390315481982 0.00030270448729080015 -0.0729319491761549
-0.005655142489558933 0.007813745165714822 -0.07792311192780507
0.0031636181757019603 0.015324785844138851 -0.08291427467945524
0.011982378840962843 0.022835826522562865 -0.0879054374311054
-0.07636650526554496 -0.03809095797097419 -0.048810223507502214
-0.06754774460028408 -0.030579917292550177 -0.05380138625915238
-0.058728983935023196 -0.023068876614126158 -0.05879254901080254
-0.0499102232697623 -0.015557835935702135 -0.0637837117624527
-0.041091462604501416 -0.008046795257278113 -0.06877487451410287
-0.03227270193924052 -0.0005357545788540878 -0.07376603726575304
-0.023453941273979637 0.006975286099569928 -0.0787572000174032
-0.01463518060871875 0.014486326777993943 -0.08374836276905337
-0.005816419943457856 0.02199736745641797 -0.08873952552070354
0.0030023407218030267 0.029508408134841985 -0.0937306882723537
-0.0030023407218030267 -0.029508408134841985 0.0937306882723537
0.005816419943457856 -0.02199736745641797 0.08873952552070354
0.014635180608718743 -0.014486326777993956 0.08374836276905337
0.023453941273979633 -0.006975286099569935 0.0787572000174032
0.03227270193924052 0.0005357545788540878 0.07376603726575304
0.041091462604501416 0.008046795257278113 0.06877487451410287
0.0499102232697623 0.015557835935702131 0.0637837117624527
0.05872898393502318 0.02306887661412615 0.058792549010802546
0.06754774460028408 0.030579917292550177 0.05380138625915238
0.07636650526554496 0.03809095797097419 0.048810223507502214
-0.011982378840962843 -0.022835826522562865 0.0879054374311054
-0.0031636181757019603 -0.015324785844138851 0.08291427467945524
0.005655142489558926 -0.00781374516571483 0.07792311192780507
0.014473903154819816 -0.0003027044872908071 0.0729319491761549
0.023292663820080706 0.007208336191133214 0.06794078642450474
0.0321114244853416 0.014719376869557236 0.06294962367285457
0.04093018515060248 0.022230417547981253 0.0579584609212044
0.049748945815863366 0.029741458226405275 0.052967298169554235
0.05856770648112426 0.0372524989048293 0.04797613541790407
0.06738646714638515 0.04476353958325332 0.0429849726662539
-0.020962416960122663 -0.016163244910283744 0.0820801865898571
-0.01214365629486178 -0.008652204231859724 0.07708902383820693
-0.003324895629600894 -0.001141163553435702 0.07209786108655676
0.0054938650356599955 0.006369877124988316 0.0671066983349066
0.014312625700920886 0.013880917803412338 0.06211553558325643
0.023131386366181776 0.02139195848183636 0.057124372831606256
0.03195014703144266 0.028902999160260377 0.0521332100799561
0.04076890769670355 0.036414039838684395 0.047142047328305924
0.049587668361964446 0.043925080517108424 0.04215088457665576
0.05840642902722533 0.05143612119553244 0.03715972182500559
-0.029942455079282487 -0.009490663298004619 0.07625493574860878
-0.021123694414021604 -0.001979622619580597 0.07126377299695862
-0.012304933748760717 0.005531418058843418 0.06627261024530845
-0.0034861730834998277 0.01304245873726744 0.061281447493658284
0.005332587581761062 0.020553499415691463 0.05629028474200812
0.014151348247021953 0.028064540094115485 0.05129912199035795
0.022970108912282836 0.0355755807725395 0.046307959238707785
0.031788869577543725 0.04308662145096352 0.04131679648705762
0.040607630242804615 0.05059766212938755 0.03632563373540745
0.0494263909080655 0.058108702807811566 0.03133447098375729
-0.03892249319844231 -0.0028180816857254916 0.07042968490736047
-0.030103732533181427 0.004692958992698526 0.0654385221557103
-0.02128497186792054 0.012203999671122545 0.06044735940406014
-0.01246621120265965 0.01971504034954657 0.05545619665240997
-0.0036474505373987613 0.02722608102797059 0.050465033900759806
0.005171310127862128 0.03473712170639461 0.04547387114910964
0.013990070793123012 0.04224816238481863 0.040482708397459474
0.022808831458383902 0.04975920306324265 0.03549154564580931
0.0316275921236448 0.05727024374166667 0.03050038289415914
0.04044635278890568 0.06478128442009069 0.025509220142508972
-0.04790253131760214 0.0038544999265536354 0.06460443406611216
-0.039083770652341254 0.011365540604977653 0.059613271314461994
-0.030265009987080364 0.018876581283401674 0.05462210856281183
-0.021446249321819474 0.026387621961825695 0.04963094581116166
-0.012627488656558584 0.03389866264024972 0.044639783059511495
-0.003808727991297695 0.04140970331867374 0.03964862030786133
0.005010032673963189 0.048920743997097754 0.03465745755621116
0.013828793339224078 0.056431784675521776 0.029666294804560994
0.02264755400448497 0.0639428253539458 0.024675132052910827
0.03146631466974585 0.07145386603236982 0.01968396930126066
-0.056882569436761954 0.010527081538832755 0.05877918322486385
-0.04806380877150107 0.01803812221725678 0.05378802047321368
-0.03924504810624018 0.025549162895680794 0.048796857721563516
-0.03042628744097929 0.033060203574104816 0.04380569496991335
-0.0216075267757184 0.04057124425252884 0.038814532218263184
-0.012788766110457513 0.04808228493095286 0.03382336946661302
-0.003970005445196629 0.055593325609376874 0.028832206714962852
0.004848755220064259 0.06310436628780089 0.023841043963312686
0.013667515885325152 0.07061540696622493 0.01884988121166252
0.022486276550586035 0.07812644764464893 0.013858718460012355
-0.06586260755592177 0.017199663151111884 0.05295393238361554
-0.05704384689066089 0.024710703829535902 0.04796276963196537
-0.048225086225400005 0.03222174450795992 0.042971606880315205
-0.039406325560139115 0.03973278518638394 0.03798044412866504
-0.030587564894878225 0.047243825864807965 0.03298928137701487
-0.021768804229617335 0.054754866543231986 0.027998118625364707
-0.01295004356435645 0.062265907221656 0.02300695587371454
-0.004131282899095563 0.06977694790008002 0.018015793122064375
0.004687477766165331 0.07728798857850405 0.013024630370414207
0.013506238431426214 0.08479902925692806 0.00803346761876404
-0.0748426456750816 0.02387224476339101 0.047128681542367226
-0.06602388500982072 0.031383285441815026 0.04213751879071706
-0.057205124344559835 0.03889432612023905 0.037146356039066894
-0.04838636367929894 0.04640536679866307 0.03215519328741673
-0.039567603014038055 0.05391640747708709 0.027164030535766562
-0.030748842348777162 0.061427448155511113 0.022172867784116396
-0.021930081683516275 0.06893848883393512 0.01718170503246623
-0.013111321018255389 0.07644952951235914 0.012190542280816062
-0.004292560352994496 0.08396057019078318 0.007199379529165896
0.0045262003122663865 0.09147161086920719 0.002208216777515729
-0.08382268379424142 0.030544826375670135 0.04130343070111892
-0.07500392312898053 0.03805586705409415 0.036312267949468756
-0.06618516246371965 0.04556690773251817 0.03132110519781859
-0.057366401798458755 0.05307794841094219 0.02632994244616842
-0.04854764113319787 0.06058898908936621 0.021338779694518254
-0.039728880467936975 0.06810002976779024 0.016347616942868088
-0.030910119802676092 0.07561107044621425 0.011356454191217924
-0.022091359137415206 0.08312211112463827 0.0063652914395677575
-0.013272598472154312 0.09063315180306229 0.0013741286879175912
-0.00445383780689343 0.09814419248148631 -0.003617034063732575
