# .PCD v0.7 - Point Cloud Data file format
VERSION 0.7
FIELDS x y z
SIZE 4 4 4
TYPE F F F
COUNT 1 1 1
WIDTH 600
HEIGHT 1
VIEWPOINT 0 0 0 1 0 0 0
POINTS 600
DATA ascii
-0.11891462570017255 -0.030230505115747316 -0.03997815203965565
-0.11267385141946025 -0.014911516834979325 -0.03926970387585755
-0.10643307713874794 0.00040747144578865823 -0.038561255712059456
-0.10019230285803564 0.015726459726556646 -0.037852807548261355
-0.09395152857732333 0.031045448007324637 -0.03714435938446326
-0.08771075429661103 0.04636443628809263 -0.03643591122066517
-0.08146998001589874 0.061683424568860605 -0.03572746305686707
-0.07522920573518643 0.07700241284962861 -0.035019014893068974
-0.06898843145447413 0.09232140113039658 -0.03431056672927088
-0.06274765717376182 0.10764038941116458 -0.03360211856547278
-0.11278852690289594 -0.03342206442656606 -0.024931377399839035
-0.10654775262218363 -0.018103076145798074 -0.024222929236040937
-0.10030697834147133 -0.0027840878650300886 -0.02351448107224284
-0.09406620406075902 0.012534900415737899 -0.022806032908444743
-0.08782542978004672 0.027853888696505888 -0.022097584744646646
-0.08158465549933441 0.043172876977273886 -0.021389136580848553
-0.07534388121862212 0.05849186525804186 -0.020680688417050452
-0.06910310693790982 0.07381085353880987 -0.01997224025325236
-0.06286233265719751 0.08912984181957784 -0.019263792089454265
-0.056621558376485207 0.10444883010034584 -0.018555343925656165
-0.10666242810561932 -0.03661362373738481 -0.009884602760022428
-0.10042165382490702 -0.021294635456616817 -0.009176154596224331
-0.09418087954419471 -0.005975647175848834 -0.008467706432426234
-0.08794010526348241 0.009343341104919153 -0.007759258268628138
-0.0816993309827701 0.024662329385687146 -0.007050810104830041
-0.0754585567020578 0.039981317666455136 -0.006342361941031947
-0.0692177824213455 0.05530030594722311 -0.005633913777233847
-0.0629770081406332 0.07061929422799113 -0.004925465613435753
-0.05673623385992089 0.0859382825087591 -0.0042170174496376596
-0.05049545957920858 0.10125727078952709 -0.003508569285839559
-0.1005363293083427 -0.03980518304820355 0.005162171879794175
-0.0942955550276304 -0.024486194767435562 0.005870620043592272
-0.0880547807469181 -0.009167206486667578 0.006579068207390369
-0.08181400646620579 0.006151781794100408 0.007287516371188466
-0.07557323218549349 0.0214707700748684 0.007995964534986563
-0.06933245790478118 0.036789758355636394 0.008704412698784657
-0.06309168362406889 0.05210874663640437 0.009412860862582757
-0.056850909343356584 0.06742773491717237 0.01012130902638085
-0.05061013506264428 0.08274672319794034 0.010829757190178944
-0.044369360781931974 0.09806571147870834 0.011538205353977045
-0.09441023051106609 -0.0429967423590223 0.020208946519610787
-0.08816945623035378 -0.027677754078254308 0.020917394683408884
-0.08192868194964148 -0.012358765797486326 0.02162584284720698
-0.07568790766892917 0.002960222483281662 0.022334291011005078
-0.06944713338821687 0.018279210764049654 0.023042739174803175
-0.06320635910750456 0.033598199044817645 0.02375118733860127
-0.056965584826792266 0.04891718732558562 0.02445963550239937
-0.05072481054607996 0.06423617560635363 0.025168083666197463
-0.044484036265367656 0.0795551638871216 0.025876531829995556
-0.03824326198465535 0.0948741521678896 0.026584979993793657
-0.08828413171378946 -0.046188301669841045 0.0352557211594274
-0.08204335743307715 -0.030869313389073057 0.03596416932322549
-0.07580258315236485 -0.015550325108305072 0.03667261748702359
-0.06956180887165254 -0.0002313368275370846 0.037381065650821686
-0.06332103459094024 0.015087651453230906 0.03808951381461979
-0.05708026031022795 0.0304066397339989 0.03879796197841788
-0.05083948602951565 0.04572562801476688 0.03950641014221598
-0.044598711748803345 0.061044616295534884 0.040214858306014074
-0.03835793746809104 0.07636360457630285 0.04092330646981217
-0.032117163187378735 0.09168259285707085 0.04163175463361027
-0.08215803291651286 -0.049379860980659794 0.050302495799244
-0.07591725863580055 -0.0340608726998918 0.051010943963042094
-0.06967648435508825 -0.018741884419123816 0.051719392126840194
-0.06343571007437594 -0.0034228961383558293 0.05242784029063829
-0.05719493579366363 0.011896092142412162 0.05313628845443639
-0.05095416151295133 0.027215080423180157 0.05384473661823448
-0.044713387232239034 0.04253406870394813 0.05455318478203258
-0.03847261295152673 0.057853056984716135 0.055261632945830676
-0.032231838670814424 0.07317204526548411 0.05597008110962877
-0.02599106439010212 0.08849103354625211 0.05667852927342687
-0.07603193411923623 -0.052571420291478536 0.06534927043906061
-0.06979115983852392 -0.037252432010710546 0.06605771860285871
-0.06355038555781162 -0.021933443729942565 0.06676616676665681
-0.05730961127709932 -0.006614455449174576 0.0674746149304549
-0.051068836996387014 0.008704532831593415 0.068183063094253
-0.044828062715674716 0.024023521112361407 0.0688915112580511
-0.03858728843496242 0.03934250939312939 0.0695999594218492
-0.03234651415425011 0.05466149767389739 0.07030840758564728
-0.026105739873537804 0.06998048595466536 0.07101685574944538
-0.0198649655928255 0.08529947423543335 0.07172530391324348
-0.06990583532195961 -0.055762979602297286 0.08039604507887722
-0.0636650610412473 -0.040443991321529295 0.08110449324267531
-0.057424286760535 -0.025125003040761307 0.08181294140647341
-0.051183512479822696 -0.009806014759993322 0.08252138957027151
-0.04494273819911039 0.005512973520774669 0.08322983773406961
-0.03870196391839809 0.020831961801542665 0.0839382858978677
-0.032461189637685794 0.03615095008231064 0.0846467340616658
-0.026220415356973493 0.05146993836307864 0.0853551822254639
-0.019979641076261188 0.06678892664384661 0.08606363038926199
-0.013738866795548883 0.08210791492461461 0.08677207855306009
-0.063779736524683 -0.05895453891311603 0.09544281971869382
-0.05753896224397069 -0.04363555063234804 0.09615126788249193
-0.051298187963258385 -0.028316562351580057 0.09685971604629003
-0.04505741368254608 -0.01299757407081207 0.09756816421008813
-0.038816639401833775 0.0023214142099559224 0.09827661237388621
-0.032575865121121476 0.017640402490723916 0.09898506053768431
-0.026335090840409178 0.032959390771491896 0.09969350870148241
-0.020094316559696873 0.0482783790522599 0.1004019568652805
-0.013853542278984568 0.06359736733302787 0.1011104050290786
-0.007612767998272263 0.07891635561379587 0.1018188531928767
0.007612767998272263 -0.07891635561379587 -0.1018188531928767
0.013853542278984568 -0.06359736733302787 -0.1011104050290786
0.020094316559696873 -0.0482783790522599 -0.1004019568652805
0.02633509084040917 -0.0329593907714919 -0.09969350870148241
0.032575865121121476 -0.017640402490723916 -0.09898506053768431
0.038816639401833775 -0.0023214142099559224 -0.09827661237388621
0.04505741368254608 0.012997574070812059 -0.09756816421008813
0.051298187963258385 0.028316562351580057 -0.09685971604629003
0.05753896224397069 0.04363555063234804 -0.09615126788249193
0.063779736524683 0.05895453891311603 -0.09544281971869382
0.013738866795548883 -0.08210791492461461 -0.08677207855306009
0.019979641076261188 -0.06678892664384661 -0.08606363038926199
0.026220415356973493 -0.05146993836307864 -0.0853551822254639
0.03246118963768579 -0.036150950082310646 -0.0846467340616658
0.03870196391839809 -0.020831961801542665 -0.0839382858978677
0.04494273819911039 -0.005512973520774669 -0.08322983773406961
0.051183512479822696 0.009806014759993311 -0.08252138957027151
0.057424286760535 0.025125003040761307 -0.08181294140647341
0.0636650610412473 0.040443991321529295 -0.08110449324267531
0.06990583532195961 0.055762979602297286 -0.08039604507887722
0.0198649655928255 -0.08529947423543335 -0.07172530391324348
0.026105739873537804 -0.06998048595466536 -0.07101685574944538
0.03234651415425011 -0.05466149767389739 -0.07030840758564728
0.03858728843496241 -0.039342509393129395 -0.0695999594218492
0.044828062715674716 -0.024023521112361407 -0.0688915112580511
0.051068836996387014 -0.008704532831593415 -0.068183063094253
0.05730961127709932 0.006614455449174566 -0.0674746149304549
0.06355038555781162 0.021933443729942565 -0.06676616676665681
0.06979115983852392 0.037252432010710546 -0.06605771860285871
0.07603193411923623 0.052571420291478536 -0.06534927043906061
0.025991064390102115 -0.08849103354625211 -0.05667852927342688
0.03223183867081442 -0.07317204526548411 -0.055970081109628776
0.03847261295152672 -0.057853056984716135 -0.05526163294583068
0.04471338723223902 -0.04253406870394814 -0.05455318478203259
0.050954161512951325 -0.027215080423180153 -0.05384473661823449
0.05719493579366362 -0.011896092142412159 -0.053136288454436395
0.06343571007437593 0.0034228961383558206 -0.0524278402906383
0.06967648435508823 0.01874188441912382 -0.0517193921268402
0.07591725863580054 0.0340608726998918 -0.05101094396304211
0.08215803291651284 0.049379860980659794 -0.05030249579924401
0.032117163187378735 -0.09168259285707085 -0.04163175463361027
0.03835793746809104 -0.07636360457630285 -0.04092330646981217
0.044598711748803345 -0.061044616295534884 -0.040214858306014074
0.05083948602951564 -0.045725628014766886 -0.03950641014221598
0.05708026031022795 -0.0304066397339989 -0.03879796197841788
0.06332103459094024 -0.015087651453230906 -0.03808951381461979
0.06956180887165254 0.0002313368275370742 -0.037381065650821686
0.07580258315236485 0.015550325108305072 -0.03667261748702359
0.08204335743307715 0.030869313389073057 -0.03596416932322549
0.08828413171378946 0.046188301669841045 -0.0352557211594274
0.03824326198465535 -0.0948741521678896 -0.026584979993793657
0.044484036265367656 -0.0795551638871216 -0.025876531829995556
0.05072481054607996 -0.06423617560635363 -0.025168083666197463
0.05696558482679226 -0.04891718732558563 -0.02445963550239937
0.06320635910750456 -0.033598199044817645 -0.02375118733860127
0.06944713338821687 -0.018279210764049654 -0.023042739174803175
0.07568790766892917 -0.0029602224832816723 -0.022334291011005078
0.08192868194964148 0.012358765797486326 -0.02162584284720698
0.08816945623035378 0.027677754078254308 -0.020917394683408884
0.09441023051106609 0.0429967423590223 -0.020208946519610787
0.04436936078193197 -0.09806571147870834 -0.011538205353977054
0.05061013506264427 -0.08274672319794034 -0.010829757190178953
0.05685090934335658 -0.06742773491717237 -0.01012130902638086
0.06309168362406888 -0.05210874663640438 -0.009412860862582766
0.06933245790478118 -0.036789758355636394 -0.008704412698784665
0.07557323218549347 -0.021470770074868396 -0.007995964534986572
0.08181400646620578 -0.006151781794100417 -0.007287516371188476
0.08805478074691808 0.009167206486667582 -0.006579068207390379
0.09429555502763039 0.024486194767435566 -0.005870620043592282
0.10053632930834269 0.03980518304820355 -0.005162171879794185
0.05049545957920858 -0.10125727078952709 0.003508569285839559
0.05673623385992089 -0.0859382825087591 0.0042170174496376596
0.0629770081406332 -0.07061929422799113 0.004925465613435753
0.06921778242134549 -0.05530030594722312 0.005633913777233847
0.0754585567020578 -0.039981317666455136 0.006342361941031947
0.0816993309827701 -0.024662329385687146 0.007050810104830041
0.08794010526348241 -0.009343341104919163 0.007759258268628138
0.09418087954419471 0.005975647175848834 0.008467706432426234
0.10042165382490702 0.021294635456616817 0.009176154596224331
0.10666242810561932 0.03661362373738481 0.009884602760022428
0.056621558376485207 -0.10444883010034584 0.018555343925656165
0.06286233265719751 -0.08912984181957784 0.019263792089454265
0.06910310693790982 -0.07381085353880987 0.01997224025325236
0.07534388121862211 -0.05849186525804187 0.020680688417050452
0.08158465549933441 -0.043172876977273886 0.021389136580848553
0.08782542978004672 -0.027853888696505888 0.022097584744646646
0.09406620406075902 -0.01253490041573791 0.022806032908444743
0.10030697834147133 0.0027840878650300886 0.02351448107224284
0.10654775262218363 0.018103076145798074 0.024222929236040937
0.11278852690289594 0.03342206442656606 0.024931377399839035
0.06274765717376182 -0.10764038941116458 0.03360211856547278
0.06898843145447413 -0.09232140113039658 0.03431056672927088
0.07522920573518643 -0.07700241284962861 0.035019014893068974
0.08146998001589872 -0.06168342456886061 0.03572746305686707
0.08771075429661103 -0.04636443628809263 0.03643591122066517
0.09395152857732333 -0.031045448007324637 0.03714435938446326
0.10019230285803564 -0.015726459726556657 0.037852807548261355
0.10643307713874794 -0.00040747144578865823 0.038561255712059456
0.11267385141946025 0.014911516834979325 0.03926970387585755
0.11891462570017255 0.030230505115747316 0.03997815203965565
-0.11891462570017255 -0.030230505115747316 -0.03997815203965565
-0.10485602640034535 -0.03564004405997494 -0.04684934105668021
-0.09079742710051815 -0.041049583004202556 -0.053720530073704774
-0.07673882780069095 -0.04645912194843017 -0.06059171909072933
-0.06268022850086374 -0.05186866089265779 -0.06746290810775389
-0.04862162920103654 -0.057278199836885396 -0.07433409712477845
-0.034563029901209345 -0.06268773878111301 -0.08120528614180302
-0.020504430601382143 -0.06809727772534063 -0.08807647515882758
-0.00644583130155494 -0.07350681666956825 -0.09494766417585214
0.007612767998272263 -0.07891635561379587 -0.1018188531928767
-0.11278852690289594 -0.03342206442656606 -0.024931377399839035
-0.09872992760306873 -0.03883160337079368 -0.0318025664168636
-0.08467132830324153 -0.0442411423150213 -0.03867375543388816
-0.07061272900341434 -0.04965068125924891 -0.045544944450912714
-0.056554129703587135 -0.055060220203476534 -0.052416133467937276
-0.042495530403759925 -0.06046975914770414 -0.05928732248496184
-0.02843693110393273 -0.06587929809193176 -0.0661585115019864
-0.014378331804105523 -0.07128883703615937 -0.07302970051901096
-0.0003197325042783202 -0.07669837598038699 -0.07990088953603552
0.013738866795548883 -0.08210791492461461 -0.08677207855306009
-0.10666242810561932 -0.03661362373738481 -0.009884602760022428
-0.09260382880579211 -0.04202316268161243 -0.016755791777046992
-0.07854522950596492 -0.04743270162584005 -0.02362698079407155
-0.06448663020613772 -0.05284224057006766 -0.03049816981109611
-0.05042803090631051 -0.058251779514295284 -0.037369358828120675
-0.03636943160648331 -0.06366131845852288 -0.04424054784514524
-0.022310832306656113 -0.0690708574027505 -0.05111173686216979
-0.008252233006828907 -0.07448039634697812 -0.057982925879194354
0.005806366292998297 -0.07988993529120574 -0.06485411489621892
0.0198649655928255 -0.08529947423543335 -0.07172530391324348
-0.1005363293083427 -0.03980518304820355 0.005162171879794175
-0.0864777300085155 -0.04521472199243117 -0.0017090171372303872
-0.0724191307086883 -0.05062426093665879 -0.008580206154254947
-0.058360531408861105 -0.0560337998808864 -0.015451395171279506
-0.0443019321090339 -0.061443338825114026 -0.02232258418830407
-0.030243332809206692 -0.06685287776934164 -0.029193773205328632
-0.016184733509379497 -0.07226241671356926 -0.03606496222235319
-0.0021261342095522905 -0.07767195565779687 -0.04293615123937775
0.011932465090274912 -0.08308149460202449 -0.049807340256402315
0.025991064390102115 -0.08849103354625211 -0.05667852927342688
-0.09441023051106609 -0.0429967423590223 0.020208946519610787
-0.08035163121123888 -0.04840628130324992 0.013337757502586225
-0.06629303191141168 -0.05381582024747754 0.006466568485561664
-0.05223443261158448 -0.05922535919170515 -0.0004046205314628949
-0.03817583331175728 -0.06463489813593278 -0.007275809548487457
-0.024117234011930073 -0.07004443708016038 -0.014146998565512018
-0.010058634712102879 -0.075453976024388 -0.02101818758253658
0.003999964587724328 -0.08086351496861562 -0.02788937659956114
0.018058563887551532 -0.08627305391284323 -0.034760565616585706
0.032117163187378735 -0.09168259285707085 -0.04163175463361027
-0.08828413171378946 -0.046188301669841045 0.0352557211594274
-0.07422553241396225 -0.05159784061406866 0.028384532142402833
-0.06016693311413506 -0.05700737955829628 0.021513343125378274
-0.046108333814307866 -0.06241691850252389 0.014642154108353714
-0.03204973451448066 -0.06782645744675152 0.007770965091329153
-0.017991135214653457 -0.07323599639097912 0.0008997760743045907
-0.00393253591482626 -0.07864553533520674 -0.005971412942719968
0.010126063385000947 -0.08405507427943436 -0.012842601959744532
0.024184662684828148 -0.08946461322366198 -0.019713790976769095
0.03824326198465535 -0.0948741521678896 -0.026584979993793657
-0.08215803291651286 -0.049379860980659794 0.050302495799244
-0.06809943361668565 -0.05478939992488741 0.04343130678221944
-0.054040834316858445 -0.06019893886911503 0.036560117765194876
-0.03998223501703125 -0.06560847781334264 0.029688928748170317
-0.025923635717204047 -0.07101801675757026 0.022817739731145755
-0.01186503641737684 -0.07642755570179786 0.015946550714121193
0.002193562882450355 -0.08183709464602548 0.009075361697096634
0.01625216218227756 -0.0872466335902531 0.00220417268007207
0.030310761482104764 -0.09265617253448072 -0.004667016336952492
0.04436936078193197 -0.09806571147870834 -0.011538205353977054
-0.07603193411923623 -0.052571420291478536 0.06534927043906061
-0.061973334819409025 -0.057980959235706155 0.058478081422036046
-0.04791473551958183 -0.06339049817993378 0.05160689240501149
-0.03385613621975463 -0.06880003712416138 0.04473570338798693
-0.019797536919927427 -0.07420957606838902 0.03786451437096237
-0.0057389376201002215 -0.07961911501261662 0.030993325353937805
0.008319661679726975 -0.08502865395684424 0.024122136336913246
0.02237826097955418 -0.09043819290107186 0.017250947319888684
0.03643686027938138 -0.09584773184529947 0.01037975830286412
0.05049545957920858 -0.10125727078952709 0.003508569285839559
-0.06990583532195961 -0.055762979602297286 0.08039604507887722
-0.0558472360221324 -0.061172518546524904 0.07352485606185266
-0.041788636722305206 -0.06658205749075252 0.0666536670448281
-0.027730037422478013 -0.07199159643498013 0.05978247802780354
-0.01367143812265081 -0.07740113537920776 0.052911289010778975
0.0003871611771763956 -0.08281067432343536 0.04604009999375441
0.014445760477003591 -0.08822021326766298 0.03916891097672985
0.028504359776830798 -0.0936297522118906 0.03229772195970529
0.042562959076658004 -0.09903929115611822 0.025426532942680727
0.056621558376485207 -0.10444883010034584 0.018555343925656165
-0.063779736524683 -0.05895453891311603 0.09544281971869382
-0.049721137224855785 -0.06436407785734365 0.08857163070166926
-0.03566253792502859 -0.06977361680157126 0.08170044168464471
-0.021603938625201394 -0.07518315574579888 0.07482925266762015
-0.007545339325374191 -0.0805926946900265 0.06795806365059559
0.006513259974453015 -0.0860022336342541 0.06108687463357103
0.02057185927428021 -0.09141177257848172 0.054215685616546466
0.03463045857410742 -0.09682131152270934 0.047344496599521904
0.04868905787393462 -0.10223085046693696 0.04047330758249734
0.06274765717376182 -0.10764038941116458 0.03360211856547278
-0.06274765717376182 0.10764038941116458 -0.03360211856547278
-0.04868905787393462 0.10223085046693696 -0.04047330758249734
-0.03463045857410742 0.09682131152270934 -0.047344496599521904
-0.02057185927428022 0.09141177257848174 -0.054215685616546466
-0.006513259974453015 0.0860022336342541 -0.06108687463357103
0.007545339325374191 0.0805926946900265 -0.06795806365059559
0.02160393862520138 0.07518315574579888 -0.07482925266762015
0.03566253792502859 0.06977361680157126 -0.08170044168464471
0.049721137224855785 0.06436407785734365 -0.08857163070166926
0.063779736524683 0.05895453891311603 -0.09544281971869382
-0.056621558376485207 0.10444883010034584 -0.018555343925656165
-0.042562959076658004 0.09903929115611822 -0.025426532942680727
-0.028504359776830798 0.0936297522118906 -0.03229772195970529
-0.014445760477003602 0.088220213267663 -0.03916891097672985
-0.0003871611771763956 0.08281067432343536 -0.04604009999375441
0.01367143812265081 0.07740113537920776 -0.052911289010778975
0.027730037422478 0.07199159643498014 -0.05978247802780353
0.041788636722305206 0.06658205749075252 -0.0666536670448281
0.0558472360221324 0.061172518546524904 -0.07352485606185266
0.06990583532195961 0.055762979602297286 -0.08039604507887722
-0.05049545957920858 0.10125727078952709 -0.003508569285839559
-0.03643686027938138 0.09584773184529947 -0.01037975830286412
-0.02237826097955418 0.09043819290107186 -0.017250947319888684
-0.008319661679726986 0.08502865395684425 -0.024122136336913243
0.0057389376201002215 0.07961911501261662 -0.030993325353937805
0.019797536919927427 0.07420957606838902 -0.03786451437096237
0.03385613621975462 0.0688000371241614 -0.04473570338798693
0.04791473551958183 0.06339049817993378 -0.05160689240501149
0.061973334819409025 0.057980959235706155 -0.058478081422036046
0.07603193411923623 0.052571420291478536 -0.06534927043906061
-0.044369360781931974 0.09806571147870834 0.011538205353977045
-0.030310761482104768 0.09265617253448072 0.004667016336952483
-0.016252162182277565 0.0872466335902531 -0.0022041726800720797
-0.0021935628824503693 0.0818370946460255 -0.00907536169709664
0.011865036417376837 0.07642755570179786 -0.015946550714121203
0.025923635717204043 0.07101801675757026 -0.022817739731145766
0.03998223501703123 0.06560847781334264 -0.029688928748170324
0.05404083431685844 0.06019893886911503 -0.03656011776519488
0.06809943361668563 0.05478939992488741 -0.043431306782219445
0.08215803291651284 0.049379860980659794 -0.05030249579924401
-0.03824326198465535 0.0948741521678896 0.026584979993793657
-0.024184662684828148 0.08946461322366198 0.019713790976769095
-0.010126063385000947 0.08405507427943436 0.012842601959744532
0.0039325359148262495 0.07864553533520675 0.005971412942719971
0.017991135214653457 0.07323599639097912 -0.0008997760743045907
0.03204973451448066 0.06782645744675152 -0.007770965091329153
0.04610833381430785 0.0624169185025239 -0.01464215410835371
0.06016693311413506 0.05700737955829628 -0.021513343125378274
0.07422553241396225 0.05159784061406866 -0.028384532142402833
0.08828413171378946 0.046188301669841045 -0.0352557211594274
-0.032117163187378735 0.09168259285707085 0.04163175463361027
-0.018058563887551532 0.08627305391284323 0.034760565616585706
-0.003999964587724328 0.08086351496861562 0.02788937659956114
0.010058634712102868 0.07545397602438801 0.021018187582536582
0.024117234011930073 0.07004443708016038 0.014146998565512018
0.03817583331175728 0.06463489813593278 0.007275809548487457
0.05223443261158447 0.05922535919170516 0.0004046205314628984
0.06629303191141168 0.05381582024747754 -0.006466568485561664
0.08035163121123888 0.04840628130324992 -0.013337757502586225
0.09441023051106609 0.0429967423590223 -0.020208946519610787
-0.02599106439010212 0.08849103354625211 0.05667852927342687
-0.011932465090274916 0.08308149460202449 0.04980734025640231
0.0021261342095522866 0.07767195565779687 0.042936151239377746
0.016184733509379483 0.07226241671356927 0.036064962222353183
0.03024333280920669 0.06685287776934164 0.02919377320532862
0.044301932109033895 0.061443338825114026 0.02232258418830406
0.058360531408861084 0.05603379988088641 0.0154513951712795
0.07241913070868829 0.05062426093665879 0.008580206154254939
0.08647773000851548 0.04521472199243117 0.0017090171372303778
0.10053632930834269 0.03980518304820355 -0.005162171879794185
-0.0198649655928255 0.08529947423543335 0.07172530391324348
-0.005806366292998297 0.07988993529120574 0.06485411489621892
0.008252233006828907 0.07448039634697812 0.057982925879194354
0.022310832306656102 0.06907085740275051 0.0511117368621698
0.03636943160648331 0.06366131845852288 0.04424054784514524
0.05042803090631051 0.058251779514295284 0.037369358828120675
0.06448663020613771 0.052842240570067665 0.030498169811096112
0.07854522950596492 0.04743270162584005 0.02362698079407155
0.09260382880579211 0.04202316268161243 0.016755791777046992
0.10666242810561932 0.03661362373738481 0.009884602760022428
-0.013738866795548883 0.08210791492461461 0.08677207855306009
0.0003197325042783202 0.07669837598038699 0.07990088953603552
0.014378331804105523 0.07128883703615937 0.07302970051901096
0.02843693110393272 0.06587929809193177 0.0661585115019864
0.042495530403759925 0.06046975914770414 0.05928732248496184
0.056554129703587135 0.055060220203476534 0.052416133467937276
0.07061272900341432 0.049650681259248916 0.04554494445091272
0.08467132830324153 0.0442411423150213 0.03867375543388816
0.09872992760306873 0.03883160337079368 0.0318025664168636
0.11278852690289594 0.03342206442656606 0.024931377399839035
-0.007612767998272263 0.07891635561379587 0.1018188531928767
0.00644583130155494 0.07350681666956825 0.09494766417585214
0.020504430601382143 0.06809727772534063 0.08807647515882758
0.03456302990120934 0.06268773878111303 0.08120528614180302
0.04862162920103654 0.057278199836885396 0.07433409712477845
0.06268022850086374 0.05186866089265779 0.06746290810775389
0.07673882780069094 0.046459121948430174 0.060591719090729336
0.09079742710051815 0.041049583004202556 0.053720530073704774
0.10485602640034535 0.03564004405997494 0.04684934105668021
0.11891462570017255 0.030230505115747316 0.03997815203965565
-0.11891462570017255 -0.030230505115747316 -0.03997815203965565
-0.10485602640034535 -0.03564004405997494 -0.04684934105668021
-0.09079742710051815 -0.041049583004202556 -0.053720530073704774
-0.07673882780069095 -0.04645912194843017 -0.06059171909072933
-0.06268022850086374 -0.05186866089265779 -0.06746290810775389
-0.04862162920103654 -0.057278199836885396 -0.07433409712477845
-0.034563029901209345 -0.06268773878111301 -0.08120528614180302
-0.020504430601382143 -0.06809727772534063 -0.08807647515882758
-0.00644583130155494 -0.07350681666956825 -0.09494766417585214
0.007612767998272263 -0.07891635561379587 -0.1018188531928767
-0.11267385141946025 -0.014911516834979325 -0.03926970387585755
-0.09861525211963305 -0.020321055779206943 -0.04614089289288211
-0.08455665281980584 -0.025730594723434554 -0.05301208190990667
-0.07049805351997865 -0.031140133667662172 -0.059883270926931235
-0.05643945422015144 -0.036549672611889794 -0.06675445994395579
-0.042380854920324236 -0.04195921155611741 -0.07362564896098035
-0.028322255620497044 -0.04736875050034503 -0.08049683797800491
-0.014263656320669837 -0.05277828944457265 -0.08736802699502948
-0.0002050570208426345 -0.05818782838880027 -0.09423921601205404
0.013853542278984568 -0.06359736733302787 -0.1011104050290786
-0.10643307713874794 0.00040747144578865823 -0.038561255712059456
-0.09237447783892075 -0.00500206749843896 -0.04543244472908402
-0.07831587853909354 -0.010411606442666574 -0.05230363374610858
-0.06425727923926634 -0.01582114538689419 -0.059174822763133135
-0.05019867993943914 -0.021230684331121807 -0.0660460117801577
-0.03614008063961194 -0.026640223275349425 -0.07291720079718227
-0.022081481339784742 -0.032049762219577047 -0.07978838981420681
-0.008022882039957536 -0.037459301163804665 -0.08665957883123138
0.0060357172598696635 -0.042868840108032276 -0.09353076784825594
0.020094316559696873 -0.0482783790522599 -0.1004019568652805
-0.10019230285803564 0.015726459726556646 -0.037852807548261355
-0.08613370355820844 0.010316920782329028 -0.04472399656528592
-0.07207510425838123 0.004907381838101413 -0.05159518558231048
-0.058016504958554045 -0.0005021571061262019 -0.05846637459933504
-0.043957905658726835 -0.00591169605035382 -0.0653375636163596
-0.029899306358899636 -0.011321234994581438 -0.07220875263338417
-0.01584070705907244 -0.016730773938809052 -0.07907994165040873
-0.001782107759245234 -0.02214031288303667 -0.08595113066743329
0.012276491540581969 -0.02754985182726428 -0.09282231968445785
0.02633509084040917 -0.0329593907714919 -0.09969350870148241
-0.09395152857732333 0.031045448007324637 -0.03714435938446326
-0.07989292927749614 0.02563590906309702 -0.044015548401487824
-0.06583432997766893 0.020226370118869404 -0.050886737418512386
-0.05177573067784174 0.01481683117464179 -0.05775792643553695
-0.03771713137801453 0.009407292230414172 -0.0646291154525615
-0.023658532078187328 0.0039977532861865525 -0.07150030446958607
-0.009599932778360135 -0.0014117856580410622 -0.07837149348661063
0.004458666521467071 -0.00682132460226868 -0.08524268250363519
0.018517265821294274 -0.012230863546496294 -0.09211387152065975
0.032575865121121476 -0.017640402490723916 -0.09898506053768431
-0.08771075429661103 0.04636443628809263 -0.03643591122066517
-0.07365215499678383 0.04095489734386501 -0.04330710023768973
-0.05959355569695663 0.03554535839963739 -0.05017828925471429
-0.045534956397129435 0.03013581945540978 -0.05704947827173885
-0.03147635709730223 0.024726280511182162 -0.06392066728876342
-0.017417757797475026 0.019316741566954544 -0.07079185630578798
-0.0033591584976478297 0.01390720262272693 -0.07766304532281253
0.010699440802179376 0.008497663678499311 -0.08453423433983709
0.02475804010200658 0.0030881247342716958 -0.09140542335686165
0.038816639401833775 -0.0023214142099559224 -0.09827661237388621
-0.08146998001589874 0.061683424568860605 -0.03572746305686707
-0.06741138071607153 0.05627388562463299 -0.04259865207389163
-0.05335278141624433 0.050864346680405376 -0.04946984109091619
-0.03929418211641714 0.04545480773617776 -0.056341030107940754
-0.02523558281658993 0.04004526879195014 -0.06321221912496532
-0.011176983516762724 0.03463572984772252 -0.07008340814198988
0.002881615783064472 0.02922619090349491 -0.07695459715901444
0.016940215082891674 0.023816651959267292 -0.083825786176039
0.030998814382718877 0.018407113015039677 -0.09069697519306356
0.04505741368254608 0.012997574070812059 -0.09756816421008813
-0.07522920573518643 0.07700241284962861 -0.035019014893068974
-0.06117060643535922 0.07159287390540099 -0.041890203910093536
-0.04711200713553202 0.06618333496117337 -0.0487613929271181
-0.033053407835704825 0.060773796016945755 -0.05563258194414265
-0.018994808535877622 0.05536425707271814 -0.06250377096116722
-0.004936209236050419 0.04995471812849052 -0.06937495997819178
0.009122390063776777 0.04454517918426291 -0.07624614899521634
0.02318098936360398 0.03913564024003529 -0.0831173380122409
0.03723958866343119 0.03372610129580767 -0.08998852702926546
0.051298187963258385 0.028316562351580057 -0.09685971604629003
-0.06898843145447413 0.09232140113039658 -0.03431056672927088
-0.054929832154646925 0.08691186218616898 -0.041181755746295436
-0.04087123285481972 0.08150232324194136 -0.04805294476332
-0.026812633554992527 0.07609278429771374 -0.05492413378034456
-0.01275403425516532 0.07068324535348612 -0.06179532279736912
0.0013045650446618826 0.0652737064092585 -0.06866651181439368
0.015363164344489075 0.059864167465030885 -0.07553770083141824
0.029421763644316284 0.05445462852080327 -0.0824088898484428
0.043480362944143494 0.049045089576575655 -0.08928007886546736
0.05753896224397069 0.04363555063234804 -0.09615126788249193
-0.06274765717376182 0.10764038941116458 -0.03360211856547278
-0.04868905787393462 0.10223085046693696 -0.04047330758249734
-0.03463045857410742 0.09682131152270934 -0.047344496599521904
-0.02057185927428022 0.09141177257848174 -0.054215685616546466
-0.006513259974453015 0.0860022336342541 -0.06108687463357103
0.007545339325374191 0.0805926946900265 -0.06795806365059559
0.02160393862520138 0.07518315574579888 -0.07482925266762015
0.03566253792502859 0.06977361680157126 -0.08170044168464471
0.049721137224855785 0.06436407785734365 -0.08857163070166926
0.063779736524683 0.05895453891311603 -0.09544281971869382
-0.063779736524683 -0.05895453891311603 0.09544281971869382
-0.049721137224855785 -0.06436407785734365 0.08857163070166926
-0.03566253792502859 -0.06977361680157126 0.08170044168464471
-0.021603938625201394 -0.07518315574579888 0.07482925266762015
-0.007545339325374191 -0.0805926946900265 0.06795806365059559
0.006513259974453015 -0.0860022336342541 0.06108687463357103
0.02057185927428021 -0.09141177257848172 0.054215685616546466
0.03463045857410742 -0.09682131152270934 0.047344496599521904
0.04868905787393462 -0.10223085046693696 0.04047330758249734
0.06274765717376182 -0.10764038941116458 0.03360211856547278
-0.05753896224397069 -0.04363555063234804 0.09615126788249193
-0.043480362944143494 -0.049045089576575655 0.08928007886546736
-0.029421763644316284 -0.05445462852080327 0.0824088898484428
-0.015363164344489089 -0.059864167465030885 0.07553770083141825
-0.0013045650446618826 -0.0652737064092585 0.06866651181439368
0.01275403425516532 -0.07068324535348612 0.06179532279736912
0.026812633554992516 -0.07609278429771374 0.05492413378034457
0.04087123285481972 -0.08150232324194136 0.04805294476332
0.054929832154646925 -0.08691186218616898 0.041181755746295436
0.06898843145447413 -0.09232140113039658 0.03431056672927088
-0.051298187963258385 -0.028316562351580057 0.09685971604629003
-0.03723958866343119 -0.03372610129580767 0.08998852702926546
-0.02318098936360398 -0.03913564024003529 0.0831173380122409
-0.009122390063776784 -0.0445451791842629 0.07624614899521634
0.004936209236050419 -0.04995471812849052 0.06937495997819178
0.018994808535877622 -0.05536425707271814 0.06250377096116722
0.03305340783570482 -0.060773796016945755 0.05563258194414266
0.04711200713553202 -0.06618333496117337 0.0487613929271181
0.06117060643535922 -0.07159287390540099 0.041890203910093536
0.07522920573518643 -0.07700241284962861 0.035019014893068974
-0.04505741368254608 -0.01299757407081207 0.09756816421008813
-0.030998814382718884 -0.018407113015039687 0.09069697519306356
-0.01694021508289168 -0.023816651959267302 0.083825786176039
-0.0028816157830644858 -0.029226190903494917 0.07695459715901444
0.01117698351676272 -0.034635729847722535 0.07008340814198988
0.025235582816589924 -0.04004526879195015 0.06321221912496532
0.039294182116417116 -0.045454807736177764 0.056341030107940754
0.053352781416244326 -0.05086434668040538 0.04946984109091619
0.06741138071607153 -0.056273885624632994 0.04259865207389163
0.08146998001589872 -0.06168342456886061 0.03572746305686707
-0.038816639401833775 0.0023214142099559224 0.09827661237388621
-0.02475804010200658 -0.0030881247342716958 0.09140542335686165
-0.010699440802179376 -0.008497663678499311 0.08453423433983709
0.0033591584976478193 -0.013907202622726926 0.07766304532281254
0.017417757797475026 -0.019316741566954544 0.07079185630578798
0.03147635709730223 -0.024726280511182162 0.06392066728876342
0.04553495639712942 -0.030135819455409777 0.057049478271738854
0.05959355569695663 -0.03554535839963739 0.05017828925471429
0.07365215499678383 -0.04095489734386501 0.04330710023768973
0.08771075429661103 -0.04636443628809263 0.03643591122066517
-0.032575865121121476 0.017640402490723916 0.09898506053768431
-0.018517265821294274 0.012230863546496294 0.09211387152065975
-0.004458666521467071 0.00682132460226868 0.08524268250363519
0.009599932778360125 0.0014117856580410657 0.07837149348661063
0.023658532078187328 -0.0039977532861865525 0.07150030446958607
0.03771713137801453 -0.009407292230414172 0.0646291154525615
0.051775730677841726 -0.014816831174641786 0.05775792643553695
0.06583432997766893 -0.020226370118869404 0.050886737418512386
0.07989292927749614 -0.02563590906309702 0.044015548401487824
0.09395152857732333 -0.031045448007324637 0.03714435938446326
-0.026335090840409178 0.032959390771491896 0.09969350870148241
-0.012276491540581976 0.027549851827264275 0.09282231968445785
0.001782107759245227 0.022140312883036663 0.08595113066743329
0.015840707059072423 0.016730773938809045 0.07907994165040873
0.02989930635889963 0.011321234994581427 0.07220875263338417
0.043957905658726835 0.00591169605035381 0.0653375636163596
0.05801650495855403 0.000502157106126195 0.05846637459933504
0.07207510425838123 -0.004907381838101423 0.05159518558231048
0.08613370355820843 -0.010316920782329039 0.04472399656528592
0.10019230285803564 -0.015726459726556657 0.037852807548261355
-0.020094316559696873 0.0482783790522599 0.1004019568652805
-0.0060357172598696635 0.042868840108032276 0.09353076784825594
0.008022882039957536 0.037459301163804665 0.08665957883123138
0.02208148133978473 0.032049762219577047 0.07978838981420683
0.03614008063961194 0.026640223275349425 0.07291720079718227
0.05019867993943914 0.021230684331121807 0.0660460117801577
0.06425727923926633 0.015821145386894192 0.05917482276313314
0.07831587853909354 0.010411606442666574 0.05230363374610858
0.09237447783892075 0.00500206749843896 0.04543244472908402
0.10643307713874794 -0.00040747144578865823 0.038561255712059456
-0.013853542278984568 0.06359736733302787 0.1011104050290786
0.0002050570208426345 0.05818782838880027 0.09423921601205404
0.014263656320669837 0.05277828944457265 0.08736802699502948
0.028322255620497033 0.04736875050034503 0.08049683797800491
0.042380854920324236 0.04195921155611741 0.07362564896098035
0.05643945422015144 0.036549672611889794 0.06675445994395579
0.07049805351997863 0.031140133667662172 0.059883270926931235
0.08455665281980584 0.025730594723434554 0.05301208190990667
0.09861525211963305 0.020321055779206943 0.04614089289288211
0.11267385141946025 0.014911516834979325 0.03926970387585755
-0.007612767998272263 0.07891635561379587 0.1018188531928767
0.00644583130155494 0.07350681666956825 0.09494766417585214
0.020504430601382143 0.06809727772534063 0.08807647515882758
0.03456302990120934 0.06268773878111303 0.08120528614180302
0.04862162920103654 0.057278199836885396 0.07433409712477845
0.06268022850086374 0.05186866089265779 0.06746290810775389
0.07673882780069094 0.046459121948430174 0.060591719090729336
0.09079742710051815 0.041049583004202556 0.053720530073704774
0.10485602640034535 0.03564004405997494 0.04684934105668021
0.11891462570017255 0.030230505115747316 0.03997815203965565
