# .PCD v0.7 - Point Cloud Data file format
VERSION 0.7
FIELDS x y z
SIZE 4 4 4
TYPE F F F
COUNT 1 1 1
WIDTH 600
HEIGHT 1
VIEWPOINT 0 0 0 1 0 0 0
POINTS 600
DATA ascii
0.021814393812907586 -0.1107322082934831 -0.18456056782263208
0.001763478450955242 -0.09230278113586482 -0.17920436508131107
-0.018287436910997112 -0.07387335397824657 -0.17384816233999006
-0.03833835227294945 -0.05544392682062833 -0.16849195959866906
-0.05838926763490179 -0.03701449966301006 -0.16313575685734807
-0.07844018299685415 -0.01858507250539181 -0.15777955411602707
-0.09849109835880648 -0.0001556453477735527 -0.15242335137470606
-0.11854201372075883 0.01827378180984471 -0.14706714863338505
-0.1385929290827112 0.036703208967462965 -0.14171094589206404
-0.15864384444466356 0.05513263612508123 -0.13635474315074306
0.01817407841667043 -0.12198987479556257 -0.15945309983479736
-0.0018768369452819135 -0.1035604476379443 -0.15409689709347638
-0.021927752307234268 -0.08513102048032604 -0.14874069435215537
-0.041978667669186606 -0.0667015933227078 -0.14338449161083436
-0.06202958303113895 -0.04827216616508954 -0.13802828886951335
-0.08208049839309131 -0.029842739007471284 -0.13267208612819234
-0.10213141375504364 -0.011413311849853029 -0.12731588338687136
-0.12218232911699599 0.007016115307765236 -0.12195968064555034
-0.14223324447894833 0.025445542465383494 -0.11660347790422934
-0.1622841598409007 0.043874969623001754 -0.11124727516290833
0.014533763020433276 -0.13324754129764205 -0.13434563184696263
-0.005517152341519069 -0.11481811414002377 -0.12898942910564165
-0.025568067703471423 -0.09638868698240552 -0.12363322636432064
-0.04561898306542376 -0.07795925982478727 -0.11827702362299963
-0.06566989842737611 -0.05952983266716901 -0.11292082088167864
-0.08572081378932847 -0.04110040550955076 -0.10756461814035763
-0.1057717291512808 -0.022670978351932502 -0.10220841539903663
-0.12582264451323313 -0.00424155119431424 -0.09685221265771563
-0.1458735598751855 0.014187875963304017 -0.09149600991639462
-0.16592447523713785 0.03261730312092228 -0.08613980717507361
0.01089344762419612 -0.14450520779972154 -0.10923816385912793
-0.009157467737756225 -0.12607578064210326 -0.10388196111780694
-0.029208383099708576 -0.107646353484485 -0.09852575837648593
-0.04925929846166092 -0.08921692632686674 -0.09316955563516492
-0.06931021382361326 -0.07078749916924848 -0.08781335289384393
-0.08936112918556562 -0.05235807201163023 -0.08245715015252292
-0.10941204454751795 -0.03392864485401197 -0.07710094741120192
-0.1294629599094703 -0.015499217696393713 -0.07174474466988091
-0.14951387527142265 0.0029302094612245447 -0.0663885419285599
-0.169564790633375 0.021359636618842808 -0.0610323391872389
0.007253132227958965 -0.155762874301801 -0.08413069587129321
-0.01279778313399338 -0.13733344714418272 -0.07877449312997221
-0.03284869849594573 -0.11890401998656447 -0.0734182903886512
-0.05289961385789807 -0.10047459282894622 -0.0680620876473302
-0.07295052921985042 -0.08204516567132795 -0.0627058849060092
-0.09300144458180278 -0.0636157385137097 -0.05734968216468819
-0.1130523599437551 -0.045186311356091455 -0.0519934794233672
-0.13310327530570745 -0.02675688419847319 -0.04663727668204619
-0.1531541906676598 -0.008327457040854932 -0.04128107394072519
-0.17320510602961217 0.010101970116763332 -0.03592487119940418
0.003612816831721809 -0.16702054080388049 -0.059023227883458484
-0.016438098530230538 -0.1485911136462622 -0.05366702514213749
-0.03648901389218289 -0.13016168648864396 -0.04831082240081648
-0.05653992925413523 -0.11173225933102571 -0.04295461965949548
-0.07659084461608757 -0.09330283217340744 -0.037598416918174477
-0.09664175997803993 -0.0748734050157892 -0.03224221417685347
-0.11669267533999227 -0.05644397785817093 -0.026886011435532476
-0.1367435907019446 -0.038014550700552666 -0.021529808694211467
-0.15679450606389697 -0.01958512354293441 -0.016173605952890465
-0.17684542142584933 -0.0011556963853161459 -0.010817403211569458
-2.7498564515344775e-05 -0.17827820730595995 -0.03391575989562379
-0.02007841392646769 -0.15984878014834167 -0.02855955715430279
-0.04012932928842004 -0.14141935299072342 -0.02320335441298178
-0.06018024465037238 -0.12298992583310517 -0.017847151671660778
-0.08023116001232472 -0.1045604986754869 -0.012490948930339776
-0.10028207537427708 -0.08613107151786865 -0.007134746189018767
-0.12033299073622941 -0.0677016443602504 -0.0017785434476977717
-0.14038390609818177 -0.04927221720263213 0.0035776592936232372
-0.16043482146013413 -0.03084279004501388 0.00893386203494424
-0.1804857368220865 -0.012413362887395614 0.014290064776265245
-0.003667813960752502 -0.18953587380803943 -0.008808291907789053
-0.023718729322704846 -0.17110644665042116 -0.0034520891664680587
-0.0437696446846572 -0.1526770194928029 0.00190411357485295
-0.06382056004660953 -0.13424759233518466 0.007260316316173952
-0.08387147540856188 -0.11581816517756639 0.012616519057494955
-0.10392239077051424 -0.09738873801994814 0.017972721798815962
-0.12397330613246657 -0.07895931086232988 0.023328924540136957
-0.14402422149441893 -0.060529883704711615 0.028685127281457966
-0.1640751368563713 -0.04210045654709336 0.03404133002277897
-0.18412605221832365 -0.023671029389475098 0.03939753276409998
-0.007308129356989658 -0.2007935403101189 0.016299176080045663
-0.027359044718942002 -0.18236411315250062 0.021655378821366658
-0.047409960080894355 -0.16393468599488237 0.027011581562687667
-0.0674608754428467 -0.14550525883726412 0.03236778430400867
-0.08751179080479904 -0.12707583167964587 0.03772398704532967
-0.1075627061667514 -0.10864640452202762 0.04308018978665068
-0.12761362152870373 -0.09021697736440935 0.048436392527971675
-0.1476645368906561 -0.07178755020679109 0.053792595269292684
-0.16771545225260845 -0.05335812304917283 0.059148798010613686
-0.1877663676145608 -0.03492869589155457 0.06450500075193469
-0.010948444753226814 -0.21205120681219838 0.04140664406788038
-0.030999360115179158 -0.1936217796545801 0.046762846809201376
-0.051050275477131514 -0.17519235249696186 0.052119049550522385
-0.07110119083908385 -0.1567629253393436 0.05747525229184339
-0.0911521062010362 -0.13833349818172533 0.06283145503316438
-0.11120302156298856 -0.11990407102410709 0.06818765777448539
-0.1312539369249409 -0.10147464386648883 0.07354386051580639
-0.15130485228689322 -0.08304521670887056 0.0789000632571274
-0.17135576764884558 -0.06461578955125231 0.0842562659984484
-0.19140668301079794 -0.046186362393634044 0.08961246873976941
0.19140668301079794 0.046186362393634044 -0.08961246873976941
0.17135576764884558 0.06461578955125231 -0.0842562659984484
0.15130485228689322 0.08304521670887056 -0.0789000632571274
0.1312539369249409 0.10147464386648881 -0.0735438605158064
0.11120302156298856 0.11990407102410709 -0.06818765777448539
0.0911521062010362 0.13833349818172533 -0.06283145503316438
0.07110119083908387 0.1567629253393436 -0.057475252291843394
0.051050275477131514 0.17519235249696186 -0.052119049550522385
0.030999360115179158 0.1936217796545801 -0.046762846809201376
0.010948444753226814 0.21205120681219838 -0.04140664406788038
0.1877663676145608 0.03492869589155457 -0.06450500075193469
0.16771545225260845 0.05335812304917283 -0.059148798010613686
0.1476645368906561 0.07178755020679109 -0.053792595269292684
0.12761362152870376 0.09021697736440934 -0.04843639252797168
0.1075627061667514 0.10864640452202762 -0.04308018978665068
0.08751179080479904 0.12707583167964587 -0.03772398704532967
0.06746087544284671 0.14550525883726412 -0.032367784304008676
0.047409960080894355 0.16393468599488237 -0.027011581562687667
0.027359044718942002 0.18236411315250062 -0.021655378821366658
0.007308129356989658 0.2007935403101189 -0.016299176080045663
0.18412605221832365 0.023671029389475098 -0.03939753276409998
0.1640751368563713 0.04210045654709336 -0.03404133002277897
0.14402422149441893 0.060529883704711615 -0.028685127281457966
0.12397330613246658 0.07895931086232987 -0.023328924540136964
0.10392239077051424 0.09738873801994814 -0.017972721798815962
0.08387147540856188 0.11581816517756639 -0.012616519057494955
0.06382056004660955 0.13424759233518466 -0.007260316316173959
0.0437696446846572 0.1526770194928029 -0.00190411357485295
0.023718729322704846 0.17110644665042116 0.0034520891664680587
0.003667813960752502 0.18953587380803943 0.008808291907789053
0.1804857368220865 0.012413362887395623 -0.014290064776265264
0.16043482146013413 0.030842790045013887 -0.008933862034944258
0.14038390609818177 0.04927221720263215 -0.003577659293623256
0.12033299073622944 0.06770164436025039 0.0017785434476977461
0.1002820753742771 0.08613107151786867 0.007134746189018748
0.08023116001232473 0.10456049867548692 0.012490948930339757
0.060180244650372396 0.12298992583310518 0.017847151671660753
0.04012932928842004 0.14141935299072342 0.023203354412981762
0.020078413926467694 0.15984878014834167 0.02855955715430277
2.7498564515347506e-05 0.17827820730595995 0.033915759895623766
0.17684542142584933 0.0011556963853161459 0.010817403211569458
0.15679450606389697 0.01958512354293441 0.016173605952890465
0.1367435907019446 0.038014550700552666 0.021529808694211467
0.11669267533999228 0.056443977858170916 0.02688601143553247
0.09664175997803993 0.0748734050157892 0.03224221417685347
0.07659084461608757 0.09330283217340744 0.037598416918174477
0.05653992925413524 0.11173225933102571 0.04295461965949547
0.03648901389218289 0.13016168648864396 0.04831082240081648
0.016438098530230538 0.1485911136462622 0.05366702514213749
-0.003612816831721809 0.16702054080388049 0.059023227883458484
0.17320510602961217 -0.010101970116763332 0.03592487119940418
0.1531541906676598 0.008327457040854932 0.04128107394072519
0.13310327530570745 0.02675688419847319 0.04663727668204619
0.11305235994375512 0.04518631135609144 0.05199347942336719
0.09300144458180278 0.0636157385137097 0.05734968216468819
0.07295052921985042 0.08204516567132795 0.0627058849060092
0.052899613857898084 0.10047459282894622 0.0680620876473302
0.03284869849594573 0.11890401998656447 0.0734182903886512
0.01279778313399338 0.13733344714418272 0.07877449312997221
-0.007253132227958965 0.155762874301801 0.08413069587129321
0.169564790633375 -0.0213596366188428 0.06103233918723888
0.14951387527142265 -0.002930209461224536 0.06638854192855989
0.1294629599094703 0.015499217696393721 0.07174474466988089
0.10941204454751798 0.03392864485401197 0.0771009474112019
0.08936112918556563 0.052358072011630244 0.08245715015252289
0.06931021382361327 0.0707874991692485 0.0878133528938439
0.04925929846166093 0.08921692632686676 0.0931695556351649
0.02920838309970858 0.10764635348448501 0.0985257583764859
0.009157467737756227 0.12607578064210326 0.10388196111780691
-0.010893447624196119 0.14450520779972154 0.10923816385912791
0.16592447523713785 -0.03261730312092228 0.08613980717507361
0.1458735598751855 -0.014187875963304017 0.09149600991639462
0.12582264451323313 0.00424155119431424 0.09685221265771563
0.10577172915128082 0.022670978351932488 0.10220841539903662
0.08572081378932847 0.04110040550955076 0.10756461814035763
0.06566989842737611 0.05952983266716901 0.11292082088167864
0.04561898306542377 0.07795925982478727 0.11827702362299963
0.025568067703471423 0.09638868698240552 0.12363322636432064
0.005517152341519069 0.11481811414002377 0.12898942910564165
-0.014533763020433276 0.13324754129764205 0.13434563184696263
0.1622841598409007 -0.043874969623001754 0.11124727516290833
0.14223324447894833 -0.025445542465383494 0.11660347790422934
0.12218232911699599 -0.007016115307765236 0.12195968064555034
0.10213141375504366 0.011413311849853015 0.12731588338687133
0.08208049839309131 0.029842739007471284 0.13267208612819234
0.06202958303113895 0.04827216616508954 0.13802828886951335
0.04197866766918662 0.0667015933227078 0.14338449161083436
0.021927752307234268 0.08513102048032604 0.14874069435215537
0.0018768369452819135 0.1035604476379443 0.15409689709347638
-0.01817407841667043 0.12198987479556257 0.15945309983479736
0.15864384444466356 -0.05513263612508123 0.13635474315074306
0.1385929290827112 -0.036703208967462965 0.14171094589206404
0.11854201372075883 -0.01827378180984471 0.14706714863338505
0.0984910983588065 0.00015564534777353883 0.15242335137470606
0.07844018299685415 0.01858507250539181 0.15777955411602707
0.05838926763490179 0.03701449966301006 0.16313575685734807
0.03833835227294946 0.05544392682062833 0.16849195959866906
0.018287436910997112 0.07387335397824657 0.17384816233999006
-0.001763478450955242 0.09230278113586482 0.17920436508131107
-0.021814393812907586 0.1107322082934831 0.18456056782263208
0.021814393812907586 -0.1107322082934831 -0.18456056782263208
0.040657981501562065 -0.0932968115504701 -0.17401077903564735
0.059501569190216555 -0.07586141480745706 -0.1634609902486626
0.07834515687887103 -0.058426018064444064 -0.15291120146167786
0.09718874456752552 -0.04099062132143103 -0.1423614126746931
0.11603233225618001 -0.023555224578418025 -0.13181162388770837
0.13487591994483447 -0.006119827835405014 -0.12126183510072364
0.15371950763348896 0.011315568907608011 -0.11071204631373889
0.17256309532214345 0.02875096565062103 -0.10016225752675414
0.19140668301079794 0.046186362393634044 -0.08961246873976941
0.01817407841667043 -0.12198987479556257 -0.15945309983479736
0.037017666105324906 -0.10455447805254957 -0.14890331104781263
0.055861253793979396 -0.08711908130953654 -0.1383535222608279
0.07470484148263387 -0.06968368456652353 -0.12780373347384313
0.09354842917128836 -0.05224828782351051 -0.1172539446868584
0.11239201685994285 -0.0348128910804975 -0.10670415589987366
0.13123560454859734 -0.01737749433748449 -0.09615436711288892
0.15007919223725183 5.7902405528535396e-05 -0.08560457832590418
0.16892277992590632 0.017493299148541554 -0.07505478953891943
0.1877663676145608 0.03492869589155457 -0.06450500075193469
0.014533763020433276 -0.13324754129764205 -0.13434563184696263
0.033377350709087754 -0.11581214455462904 -0.12379584305997791
0.05222093839774224 -0.09837674781161601 -0.11324605427299317
0.07106452608639671 -0.080941351068603 -0.10269626548600842
0.0899081137750512 -0.06350595432558997 -0.09214647669902368
0.10875170146370569 -0.04607055758257698 -0.08159668791203895
0.12759528915236018 -0.028635160839563963 -0.0710468991250542
0.14643887684101467 -0.01119976409655094 -0.060497110338069454
0.16528246452966916 0.006235632646462078 -0.049947321551084715
0.18412605221832365 0.023671029389475098 -0.03939753276409998
0.01089344762419612 -0.14450520779972154 -0.10923816385912793
0.029737035312850598 -0.12706981105670853 -0.0986883750721432
0.048580623001505084 -0.10963441431369549 -0.08813858628515846
0.06742421069015957 -0.09219901757068248 -0.07758879749817371
0.08626779837881406 -0.07476362082766945 -0.06703900871118897
0.10511138606746855 -0.057328224084656446 -0.05648921992420423
0.12395497375612302 -0.039892827341643435 -0.045939431137219496
0.1427985614447775 -0.022457430598630413 -0.03538964235023474
0.161642149133432 -0.005022033855617395 -0.02483985356325
0.1804857368220865 0.012413362887395623 -0.014290064776265264
0.007253132227958965 -0.155762874301801 -0.08413069587129321
0.026096719916613442 -0.138327477558788 -0.07358090708430848
0.04494030760526793 -0.12089208081577496 -0.06303111829732373
0.06378389529392241 -0.10345668407276196 -0.05248132951033899
0.0826274829825769 -0.08602128732974892 -0.04193154072335425
0.10147107067123139 -0.06858589058673592 -0.03138175193636951
0.12031465835988586 -0.051150493843722916 -0.02083196314938477
0.13915824604854035 -0.03371509710070989 -0.010282174362400023
0.15800183373719484 -0.016279700357696873 0.0002676144245847198
0.17684542142584933 0.0011556963853161459 0.010817403211569458
0.003612816831721809 -0.16702054080388049 -0.059023227883458484
0.022456404520376283 -0.14958514406086748 -0.04847343909647375
0.04129999220903077 -0.13214974731785445 -0.03792365030948901
0.06014357989768525 -0.11471435057484144 -0.027373861522504272
0.07898716758633974 -0.09727895383182841 -0.016824072735519526
0.09783075527499423 -0.07984355708881541 -0.006274283948534787
0.1166743429636487 -0.06240816034580239 0.004275504838449949
0.1355179306523032 -0.044972763602789366 0.014825293625434699
0.15436151834095768 -0.027537366859776348 0.02537508241241944
0.17320510602961217 -0.010101970116763332 0.03592487119940418
-2.7498564515344775e-05 -0.17827820730595995 -0.03391575989562379
0.01881608912413913 -0.16084281056294694 -0.023365971108639052
0.03765967681279362 -0.1434074138199339 -0.012816182321654306
0.056503264501448096 -0.1259720170769209 -0.0022663935346695675
0.07534685219010259 -0.10853662033390787 0.008283395252315178
0.09419043987875708 -0.09110122359089487 0.018833184039299917
0.11303402756741156 -0.07366582684788187 0.029382972826284652
0.13187761525606603 -0.056230430104868834 0.0399327616132694
0.15072120294472052 -0.038795033361855816 0.05048255040025414
0.169564790633375 -0.0213596366188428 0.06103233918723888
-0.003667813960752502 -0.18953587380803943 -0.008808291907789053
0.015175773727901973 -0.17210047706502643 0.0017414968791956778
0.03401936141655646 -0.1546650803220134 0.012291285666180424
0.05286294910521094 -0.1372296835790004 0.02284107445316516
0.07170653679386543 -0.11979428683598736 0.03339086324014991
0.09055012448251992 -0.10235889009297436 0.043940652027134645
0.1093937121711744 -0.08492349334996134 0.054490440814119384
0.12823729985982887 -0.06748809660694832 0.06504022960110413
0.14708088754848336 -0.0500526998639353 0.07559001838808888
0.16592447523713785 -0.03261730312092228 0.08613980717507361
-0.007308129356989658 -0.2007935403101189 0.016299176080045663
0.011535458331664817 -0.1833581435671059 0.026848964867030395
0.03037904602031931 -0.16592274682409286 0.03739875365401514
0.049222633708973784 -0.14848735008107986 0.04794854244099988
0.06806622139762827 -0.13105195333806682 0.058498331227984625
0.08690980908628276 -0.11361655659505383 0.06904812001496936
0.10575339677493724 -0.09618115985204082 0.0795979088019541
0.12459698446359173 -0.0787457631090278 0.09014769758893885
0.1434405721522462 -0.06131036636601477 0.10069748637592359
0.1622841598409007 -0.043874969623001754 0.11124727516290833
-0.010948444753226814 -0.21205120681219838 0.04140664406788038
0.007895142935427662 -0.19461581006918538 0.05195643285486511
0.026738730624082153 -0.17718041332617235 0.06250622164184985
0.045582318312736625 -0.15974501658315934 0.0730560104288346
0.06442590600139111 -0.1423096198401463 0.08360579921581934
0.0832694936900456 -0.12487422309713331 0.09415558800280407
0.10211308137870008 -0.10743882635412029 0.10470537678978882
0.12095666906735457 -0.09000342961110727 0.11525516557677357
0.13980025675600907 -0.07256803286809425 0.1258049543637583
0.15864384444466356 -0.05513263612508123 0.13635474315074306
-0.15864384444466356 0.05513263612508123 -0.13635474315074306
-0.13980025675600907 0.07256803286809425 -0.1258049543637583
-0.12095666906735457 0.09000342961110727 -0.11525516557677357
-0.1021130813787001 0.10743882635412028 -0.10470537678978882
-0.0832694936900456 0.12487422309713331 -0.09415558800280407
-0.06442590600139111 0.1423096198401463 -0.08360579921581934
-0.04558231831273664 0.15974501658315932 -0.0730560104288346
-0.026738730624082153 0.17718041332617235 -0.06250622164184985
-0.007895142935427662 0.19461581006918538 -0.05195643285486511
0.010948444753226814 0.21205120681219838 -0.04140664406788038
-0.1622841598409007 0.043874969623001754 -0.11124727516290833
-0.1434405721522462 0.06131036636601477 -0.10069748637592359
-0.12459698446359173 0.0787457631090278 -0.09014769758893885
-0.10575339677493725 0.0961811598520408 -0.07959790880195411
-0.08690980908628276 0.11361655659505383 -0.06904812001496936
-0.06806622139762827 0.13105195333806682 -0.058498331227984625
-0.0492226337089738 0.14848735008107983 -0.047948542440999886
-0.03037904602031931 0.16592274682409286 -0.03739875365401514
-0.011535458331664817 0.1833581435671059 -0.026848964867030395
0.007308129356989658 0.2007935403101189 -0.016299176080045663
-0.16592447523713785 0.03261730312092228 -0.08613980717507361
-0.14708088754848336 0.0500526998639353 -0.07559001838808888
-0.12823729985982887 0.06748809660694832 -0.06504022960110413
-0.10939371217117441 0.08492349334996133 -0.05449044081411939
-0.09055012448251992 0.10235889009297436 -0.043940652027134645
-0.07170653679386543 0.11979428683598736 -0.03339086324014991
-0.05286294910521095 0.13722968357900037 -0.022841074453165168
-0.03401936141655646 0.1546650803220134 -0.012291285666180424
-0.015175773727901973 0.17210047706502643 -0.0017414968791956778
0.003667813960752502 0.18953587380803943 0.008808291907789053
-0.169564790633375 0.021359636618842808 -0.0610323391872389
-0.15072120294472052 0.03879503336185583 -0.050482550400254164
-0.13187761525606603 0.05623043010486885 -0.03993276161326942
-0.11303402756741156 0.07366582684788185 -0.02938297282628468
-0.09419043987875707 0.09110122359089488 -0.018833184039299934
-0.07534685219010258 0.10853662033390789 -0.008283395252315197
-0.05650326450144811 0.12597201707692088 0.002266393534669542
-0.03765967681279362 0.1434074138199339 0.012816182321654287
-0.018816089124139127 0.16084281056294694 0.023365971108639035
2.7498564515347506e-05 0.17827820730595995 0.033915759895623766
-0.17320510602961217 0.010101970116763332 -0.03592487119940418
-0.15436151834095768 0.027537366859776348 -0.02537508241241944
-0.1355179306523032 0.044972763602789366 -0.014825293625434699
-0.11667434296364872 0.06240816034580238 -0.004275504838449959
-0.09783075527499423 0.07984355708881541 0.006274283948534787
-0.07898716758633974 0.09727895383182841 0.016824072735519526
-0.06014357989768526 0.11471435057484142 0.027373861522504265
-0.04129999220903077 0.13214974731785445 0.03792365030948901
-0.022456404520376283 0.14958514406086748 0.04847343909647375
-0.003612816831721809 0.16702054080388049 0.059023227883458484
-0.17684542142584933 -0.0011556963853161459 -0.010817403211569458
-0.15800183373719484 0.016279700357696873 -0.0002676144245847198
-0.13915824604854035 0.03371509710070989 0.010282174362400023
-0.12031465835988588 0.0511504938437229 0.02083196314938476
-0.10147107067123139 0.06858589058673592 0.03138175193636951
-0.0826274829825769 0.08602128732974892 0.04193154072335425
-0.06378389529392242 0.10345668407276193 0.052481329510338987
-0.04494030760526793 0.12089208081577496 0.06303111829732373
-0.026096719916613442 0.138327477558788 0.07358090708430848
-0.007253132227958965 0.155762874301801 0.08413069587129321
-0.1804857368220865 -0.012413362887395614 0.014290064776265245
-0.161642149133432 0.005022033855617403 0.024839853563249983
-0.1427985614447775 0.02245743059863042 0.03538964235023472
-0.12395497375612302 0.039892827341643435 0.04593943113721946
-0.10511138606746853 0.05732822408465646 0.056489219924204206
-0.08626779837881404 0.07476362082766946 0.06703900871118895
-0.06742421069015957 0.09219901757068247 0.07758879749817368
-0.048580623001505084 0.1096344143136955 0.08813858628515843
-0.029737035312850595 0.12706981105670853 0.09868837507214318
-0.010893447624196119 0.14450520779972154 0.10923816385912791
-0.18412605221832365 -0.023671029389475098 0.03939753276409998
-0.16528246452966916 -0.006235632646462078 0.049947321551084715
-0.14643887684101467 0.01119976409655094 0.060497110338069454
-0.12759528915236018 0.02863516083956395 0.0710468991250542
-0.10875170146370569 0.04607055758257698 0.08159668791203895
-0.0899081137750512 0.06350595432558997 0.09214647669902368
-0.07106452608639673 0.08094135106860298 0.10269626548600842
-0.05222093839774224 0.09837674781161601 0.11324605427299317
-0.033377350709087754 0.11581214455462904 0.12379584305997791
-0.014533763020433276 0.13324754129764205 0.13434563184696263
-0.1877663676145608 -0.03492869589155457 0.06450500075193469
-0.16892277992590632 -0.017493299148541554 0.07505478953891943
-0.15007919223725183 -5.7902405528535396e-05 0.08560457832590418
-0.13123560454859734 0.017377494337484475 0.09615436711288891
-0.11239201685994285 0.0348128910804975 0.10670415589987366
-0.09354842917128836 0.05224828782351051 0.1172539446868584
-0.07470484148263389 0.0696836845665235 0.12780373347384313
-0.055861253793979396 0.08711908130953654 0.1383535222608279
-0.037017666105324906 0.10455447805254957 0.14890331104781263
-0.01817407841667043 0.12198987479556257 0.15945309983479736
-0.19140668301079794 -0.046186362393634044 0.08961246873976941
-0.17256309532214345 -0.02875096565062103 0.10016225752675414
-0.15371950763348896 -0.011315568907608011 0.11071204631373889
-0.1348759199448345 0.006119827835405 0.12126183510072362
-0.11603233225618001 0.023555224578418025 0.13181162388770837
-0.09718874456752552 0.04099062132143103 0.1423614126746931
-0.07834515687887104 0.05842601806444404 0.15291120146167786
-0.059501569190216555 0.07586141480745706 0.1634609902486626
-0.040657981501562065 0.0932968115504701 0.17401077903564735
-0.021814393812907586 0.1107322082934831 0.18456056782263208
0.021814393812907586 -0.1107322082934831 -0.18456056782263208
0.040657981501562065 -0.0932968115504701 -0.17401077903564735
0.059501569190216555 -0.07586141480745706 -0.1634609902486626
0.07834515687887103 -0.058426018064444064 -0.15291120146167786
0.09718874456752552 -0.04099062132143103 -0.1423614126746931
0.11603233225618001 -0.023555224578418025 -0.13181162388770837
0.13487591994483447 -0.006119827835405014 -0.12126183510072364
0.15371950763348896 0.011315568907608011 -0.11071204631373889
0.17256309532214345 0.02875096565062103 -0.10016225752675414
0.19140668301079794 0.046186362393634044 -0.08961246873976941
0.001763478450955242 -0.09230278113586482 -0.17920436508131107
0.020607066139609716 -0.07486738439285182 -0.16865457629432634
0.03945065382826421 -0.057431987649838805 -0.15810478750734158
0.058294241516918685 -0.03999659090682579 -0.14755499872035685
0.07713782920557317 -0.02256119416381278 -0.13700520993337212
0.09598141689422766 -0.005125797420799754 -0.12645542114638736
0.11482500458288214 0.01230959932221325 -0.11590563235940263
0.13366859227153663 0.029744996065226275 -0.10535584357241788
0.15251217996019112 0.04718039280823929 -0.09480605478543314
0.17135576764884558 0.06461578955125231 -0.0842562659984484
-0.018287436910997112 -0.07387335397824657 -0.17384816233999006
0.0005561507776573652 -0.05643795723523357 -0.16329837355300533
0.019399738466311853 -0.03900256049222054 -0.1527485847660206
0.03824332615496633 -0.021567163749207533 -0.14219879597903584
0.05708691384362082 -0.004131767006194515 -0.1316490071920511
0.0759305015322753 0.013303629736818503 -0.12109921840506636
0.09477408922092978 0.030739026479831507 -0.11054942961808163
0.11361767690958428 0.04817442322284453 -0.09999964083109689
0.13246126459823876 0.06560981996585755 -0.08944985204411214
0.15130485228689322 0.08304521670887056 -0.0789000632571274
-0.03833835227294945 -0.05544392682062833 -0.16849195959866906
-0.019494764584294975 -0.03800853007761532 -0.15794217081168432
-0.0006511768956404839 -0.020573133334602287 -0.1473923820246996
0.018192410793013994 -0.0031377365915892835 -0.13684259323771486
0.03703599848166848 0.014297660151423735 -0.1262928044507301
0.05587958617032297 0.03173305689443675 -0.11574301566374537
0.07472317385897745 0.049168453637449754 -0.10519322687676062
0.09356676154763194 0.06660385038046278 -0.09464343808977588
0.11241034923628643 0.0840392471234758 -0.08409364930279113
0.1312539369249409 0.10147464386648881 -0.0735438605158064
-0.05838926763490179 -0.03701449966301006 -0.16313575685734807
-0.039545679946247324 -0.01957910291999704 -0.15258596807036331
-0.020702092257592838 -0.0021437061769840307 -0.14203617928337858
-0.0018585045689383539 0.01529169056602898 -0.13148639049639385
0.01698508311971613 0.032727087309041995 -0.1209366017094091
0.03582867080837062 0.05016248405205502 -0.11038681292242436
0.054672258497025096 0.06759788079506802 -0.09983702413543963
0.07351584618567958 0.08503327753808104 -0.08928723534845487
0.09235943387433408 0.10246867428109406 -0.07873744656147014
0.11120302156298856 0.11990407102410709 -0.06818765777448539
-0.07844018299685415 -0.01858507250539181 -0.15777955411602707
-0.059596595308199676 -0.0011496757623787846 -0.1472297653290423
-0.04075300761954518 0.016285720980634234 -0.13667997654205757
-0.021909419930890708 0.03372111772364724 -0.12613018775507284
-0.003065832242236217 0.05115651446666026 -0.1155803989680881
0.015777755446418268 0.06859191120967328 -0.10503061018110335
0.034621343135072744 0.08602730795268629 -0.09448082139411862
0.05346493082372724 0.1034627046956993 -0.08393103260713387
0.07230851851238172 0.12089810143871232 -0.07338124382014913
0.0911521062010362 0.13833349818172533 -0.06283145503316438
-0.09849109835880648 -0.0001556453477735527 -0.15242335137470606
-0.07964751067015201 0.017279751395239466 -0.14187356258772132
-0.06080392298149752 0.03471514813825248 -0.13132377380073657
-0.041960335292843036 0.05215054488126549 -0.12077398501375183
-0.02311674760418855 0.06958594162427852 -0.1102241962267671
-0.0042731599155340656 0.08702133836729153 -0.09967440743978236
0.01457042777312041 0.10445673511030454 -0.08912461865279762
0.0334140154617749 0.12189213185331757 -0.07857482986581286
0.05225760315042939 0.13932752859633057 -0.06802504107882812
0.07110119083908387 0.1567629253393436 -0.057475252291843394
-0.11854201372075883 0.01827378180984471 -0.14706714863338505
-0.09969842603210437 0.035709178552857726 -0.13651735984640032
-0.08085483834344988 0.053144575295870744 -0.12596757105941558
-0.06201125065479539 0.07057997203888376 -0.11541778227243084
-0.043167662966140906 0.08801536878189678 -0.10486799348544609
-0.02432407527748642 0.1054507655249098 -0.09431820469846135
-0.005480487588831946 0.1228861622679228 -0.08376841591147662
0.013363100099822547 0.14032155901093582 -0.07321862712449186
0.03220668778847704 0.15775695575394885 -0.06266883833750712
0.051050275477131514 0.17519235249696186 -0.052119049550522385
-0.1385929290827112 0.036703208967462965 -0.14171094589206404
-0.11974934139405673 0.05413860571047598 -0.1311611571050793
-0.10090575370540222 0.07157400245348901 -0.12061136831809458
-0.08206216601674775 0.08900939919650201 -0.11006157953110983
-0.06321857832809326 0.10644479593951503 -0.09951179074412508
-0.04437499063943877 0.12388019268252806 -0.08896200195714034
-0.025531402950784297 0.14131558942554107 -0.0784122131701556
-0.0066878152621298054 0.15875098616855407 -0.06786242438317086
0.012155772426524684 0.1761863829115671 -0.05731263559618612
0.030999360115179158 0.1936217796545801 -0.046762846809201376
-0.15864384444466356 0.05513263612508123 -0.13635474315074306
-0.13980025675600907 0.07256803286809425 -0.1258049543637583
-0.12095666906735457 0.09000342961110727 -0.11525516557677357
-0.1021130813787001 0.10743882635412028 -0.10470537678978882
-0.0832694936900456 0.12487422309713331 -0.09415558800280407
-0.06442590600139111 0.1423096198401463 -0.08360579921581934
-0.04558231831273664 0.15974501658315932 -0.0730560104288346
-0.026738730624082153 0.17718041332617235 -0.06250622164184985
-0.007895142935427662 0.19461581006918538 -0.05195643285486511
0.010948444753226814 0.21205120681219838 -0.04140664406788038
-0.010948444753226814 -0.21205120681219838 0.04140664406788038
0.007895142935427662 -0.19461581006918538 0.05195643285486511
0.026738730624082153 -0.17718041332617235 0.06250622164184985
0.045582318312736625 -0.15974501658315934 0.0730560104288346
0.06442590600139111 -0.1423096198401463 0.08360579921581934
0.0832694936900456 -0.12487422309713331 0.09415558800280407
0.10211308137870008 -0.10743882635412029 0.10470537678978882
0.12095666906735457 -0.09000342961110727 0.11525516557677357
0.13980025675600907 -0.07256803286809425 0.1258049543637583
0.15864384444466356 -0.05513263612508123 0.13635474315074306
-0.030999360115179158 -0.1936217796545801 0.046762846809201376
-0.012155772426524684 -0.1761863829115671 0.05731263559618612
0.0066878152621298054 -0.15875098616855407 0.06786242438317086
0.025531402950784283 -0.14131558942554107 0.07841221317015559
0.04437499063943877 -0.12388019268252806 0.08896200195714034
0.06321857832809326 -0.10644479593951503 0.09951179074412508
0.08206216601674773 -0.08900939919650203 0.11006157953110982
0.10090575370540222 -0.07157400245348901 0.12061136831809458
0.11974934139405673 -0.05413860571047598 0.1311611571050793
0.1385929290827112 -0.036703208967462965 0.14171094589206404
-0.051050275477131514 -0.17519235249696186 0.052119049550522385
-0.03220668778847704 -0.15775695575394885 0.06266883833750712
-0.013363100099822547 -0.14032155901093582 0.07321862712449186
0.005480487588831932 -0.12288616226792282 0.0837684159114766
0.02432407527748642 -0.1054507655249098 0.09431820469846135
0.043167662966140906 -0.08801536878189678 0.10486799348544609
0.062011250654795375 -0.07057997203888378 0.11541778227243082
0.08085483834344988 -0.053144575295870744 0.12596757105941558
0.09969842603210437 -0.035709178552857726 0.13651735984640032
0.11854201372075883 -0.01827378180984471 0.14706714863338505
-0.07110119083908385 -0.1567629253393436 0.05747525229184339
-0.05225760315042938 -0.1393275285963306 0.06802504107882812
-0.03341401546177489 -0.12189213185331757 0.07857482986581286
-0.014570427773120407 -0.10445673511030457 0.08912461865279761
0.0042731599155340794 -0.08702133836729155 0.09967440743978236
0.02311674760418857 -0.06958594162427853 0.11022419622676709
0.04196033529284304 -0.05215054488126552 0.12077398501375182
0.06080392298149753 -0.034715148138252494 0.13132377380073657
0.07964751067015202 -0.01727975139523948 0.14187356258772132
0.0984910983588065 0.00015564534777353883 0.15242335137470606
-0.0911521062010362 -0.13833349818172533 0.06283145503316438
-0.07230851851238172 -0.12089810143871232 0.07338124382014913
-0.05346493082372724 -0.1034627046956993 0.08393103260713387
-0.03462134313507276 -0.0860273079526863 0.0944808213941186
-0.015777755446418268 -0.06859191120967328 0.10503061018110335
0.003065832242236217 -0.05115651446666026 0.1155803989680881
0.021909419930890694 -0.033721117723647255 0.12613018775507284
0.04075300761954518 -0.016285720980634234 0.13667997654205757
0.059596595308199676 0.0011496757623787846 0.1472297653290423
0.07844018299685415 0.01858507250539181 0.15777955411602707
-0.11120302156298856 -0.11990407102410709 0.06818765777448539
-0.09235943387433408 -0.10246867428109406 0.07873744656147014
-0.07351584618567958 -0.08503327753808104 0.08928723534845487
-0.05467225849702511 -0.06759788079506804 0.09983702413543961
-0.03582867080837062 -0.05016248405205502 0.11038681292242436
-0.01698508311971613 -0.032727087309041995 0.1209366017094091
0.00185850456893834 -0.015291690566028995 0.13148639049639382
0.020702092257592838 0.0021437061769840307 0.14203617928337858
0.039545679946247324 0.01957910291999704 0.15258596807036331
0.05838926763490179 0.03701449966301006 0.16313575685734807
-0.1312539369249409 -0.10147464386648883 0.07354386051580639
-0.11241034923628641 -0.08403924712347581 0.08409364930279113
-0.09356676154763192 -0.06660385038046279 0.09464343808977588
-0.07472317385897743 -0.04916845363744978 0.10519322687676061
-0.05587958617032295 -0.03173305689443676 0.11574301566374535
-0.03703599848166847 -0.014297660151423749 0.1262928044507301
-0.01819241079301399 0.003137736591589256 0.13684259323771483
0.0006511768956405013 0.020573133334602287 0.1473923820246996
0.01949476458429499 0.038008530077615295 0.15794217081168432
0.03833835227294946 0.05544392682062833 0.16849195959866906
-0.15130485228689322 -0.08304521670887056 0.0789000632571274
-0.13246126459823876 -0.06560981996585755 0.08944985204411214
-0.11361767690958428 -0.04817442322284453 0.09999964083109689
-0.0947740892209298 -0.03073902647983152 0.11054942961808162
-0.0759305015322753 -0.013303629736818503 0.12109921840506636
-0.05708691384362082 0.004131767006194515 0.1316490071920511
-0.038243326154966346 0.02156716374920752 0.14219879597903584
-0.019399738466311853 0.03900256049222054 0.1527485847660206
-0.0005561507776573652 0.05643795723523357 0.16329837355300533
0.018287436910997112 0.07387335397824657 0.17384816233999006
-0.17135576764884558 -0.06461578955125231 0.0842562659984484
-0.15251217996019112 -0.04718039280823929 0.09480605478543314
-0.13366859227153663 -0.029744996065226275 0.10535584357241788
-0.11482500458288215 -0.012309599322213264 0.11590563235940263
-0.09598141689422766 0.005125797420799754 0.12645542114638736
-0.07713782920557317 0.02256119416381278 0.13700520993337212
-0.0582942415169187 0.03999659090682579 0.14755499872035685
-0.03945065382826421 0.057431987649838805 0.15810478750734158
-0.020607066139609716 0.07486738439285182 0.16865457629432634
-0.001763478450955242 0.09230278113586482 0.17920436508131107
-0.19140668301079794 -0.046186362393634044 0.08961246873976941
-0.17256309532214345 -0.02875096565062103 0.10016225752675414
-0.15371950763348896 -0.011315568907608011 0.11071204631373889
-0.1348759199448345 0.006119827835405 0.12126183510072362
-0.11603233225618001 0.023555224578418025 0.13181162388770837
-0.09718874456752552 0.04099062132143103 0.1423614126746931
-0.07834515687887104 0.05842601806444404 0.15291120146167786
-0.059501569190216555 0.07586141480745706 0.1634609902486626
-0.040657981501562065 0.0932968115504701 0.17401077903564735
-0.021814393812907586 0.1107322082934831 0.18456056782263208
