# .PCD v0.7 - Point Cloud Data file format
VERSION 0.7
FIELDS x y z
SIZE 4 4 4
TYPE F F F
COUNT 1 1 1
WIDTH 600
HEIGHT 1
VIEWPOINT 0 0 0 1 0 0 0
POINTS 600
DATA ascii
-0.0853614741371639 -0.057955534431921404 -0.05745084032195744
-0.08613775797973858 -0.04353679198109328 -0.05286156636994099
-0.08691404182231326 -0.029118049530265176 -0.04827229241792455
-0.08769032566488795 -0.014699307079437052 -0.0436830184659081
-0.08846660950746263 -0.0002805646286089326 -0.03909374451389166
-0.08924289335003732 0.01413817782221919 -0.03450447056187521
-0.090019177192612 0.0285569202730473 -0.029915196609858762
-0.09079546103518668 0.04297566272387542 -0.02532592265784231
-0.09157174487776137 0.05739440517470354 -0.020736648705825866
-0.09234802872033605 0.07181314762553166 -0.016147374753809424
-0.07961299226962466 -0.06192529717241953 -0.044006134082067425
-0.08038927611219934 -0.047506554721591404 -0.039416860130050975
-0.08116555995477404 -0.033087812270763295 -0.03482758617803453
-0.08194184379734872 -0.018669069819935172 -0.030238312226018086
-0.0827181276399234 -0.00425032736910705 -0.02564903827400164
-0.08349441148249809 0.010168415081721071 -0.02105976432198519
-0.08427069532507277 0.02458715753254918 -0.016470490369968747
-0.08504697916764745 0.03900589998337731 -0.011881216417952293
-0.08582326301022214 0.053424642434205416 -0.00729194246593585
-0.08659954685279682 0.06784338488503354 -0.0027026685139194075
-0.07386451040208544 -0.06589505991291765 -0.030561427842177406
-0.07464079424466012 -0.05147631746208952 -0.02597215389016096
-0.07541707808723482 -0.03705757501126141 -0.021382879938144517
-0.0761933619298095 -0.022638832560433288 -0.016793605986128068
-0.07696964577238417 -0.00822009010960517 -0.012204332034111622
-0.07774592961495887 0.006198652341222953 -0.007615058082095173
-0.07852221345753355 0.020617394792051064 -0.0030257841300787296
-0.07929849730010823 0.035036137242879184 0.0015634898219377233
-0.08007478114268292 0.0494548796937073 0.006152763773954166
-0.0808510649852576 0.06387362214453542 0.01074203772597061
-0.06811602853454622 -0.06986482265341576 -0.017116721602287388
-0.0688923123771209 -0.05544608020258764 -0.012527447650270942
-0.0696685962196956 -0.041027337751759534 -0.007938173698254497
-0.07044488006227027 -0.026608595300931407 -0.003348899746238049
-0.07122116390484495 -0.012189852850103287 0.0012403742057783974
-0.07199744774741965 0.002228889600724834 0.005829648157794847
-0.07277373158999433 0.016647632051552945 0.01041892210981129
-0.073550015432569 0.031066374502381068 0.015008196061827742
-0.0743262992751437 0.04548511695320918 0.019597470013844185
-0.07510258311771838 0.0599038594040373 0.024186743965860628
-0.062367546667006994 -0.07383458539391388 -0.003672015362397365
-0.06314383050958168 -0.05941584294308576 0.0009172585896190812
-0.06392011435215636 -0.04499710049225765 0.005506532541635526
-0.06469639819473105 -0.030578358041429526 0.010095806493651974
-0.06547268203730573 -0.016159615590601407 0.01468508044566842
-0.06624896587988043 -0.0017408731397732858 0.019274354397684868
-0.0670252497224551 0.012677869311054824 0.02386362834970131
-0.06780153356502978 0.02709661176188295 0.028452902301717764
-0.06857781740760448 0.04151535421271106 0.03304217625373421
-0.06935410125017916 0.055934096663539185 0.03763145020575065
-0.05661906479946777 -0.077804348134412 0.009772690877492657
-0.05739534864204245 -0.06338560568358388 0.014361964829509103
-0.05817163248461714 -0.04896686323275577 0.018951238781525548
-0.058947916327191825 -0.03454812078192765 0.023540512733541998
-0.059724200169766505 -0.02012937833109953 0.028129786685558444
-0.0605004840123412 -0.005710635880271406 0.03271906063757489
-0.06127676785491588 0.008708106570556704 0.03730833458959133
-0.062053051697490556 0.023126849021384826 0.04189760854160779
-0.06282933554006524 0.03754559147221294 0.04648688249362423
-0.06360561938263992 0.05196433392304106 0.051076156445640675
-0.050870582931928546 -0.08177411087491011 0.02321739711738267
-0.051646866774503225 -0.06735536842408199 0.027806671069399116
-0.05242315061707791 -0.05293662597325389 0.03239594502141556
-0.0531994344596526 -0.038517883522425765 0.03698521897343201
-0.05397571830222728 -0.024099141071597645 0.04157449292544846
-0.05475200214480197 -0.009680398620769522 0.04616376687746491
-0.05552828598737665 0.004738343830058587 0.05075304082948135
-0.05630456982995133 0.01915708628088671 0.0553423147814978
-0.05708085367252602 0.03357582873171482 0.05993158873351424
-0.0578571375151007 0.047994571182542946 0.06452086268553069
-0.045122101064389325 -0.08574387361540824 0.03666210335727269
-0.045898384906964004 -0.07132513116458011 0.04125137730928914
-0.04667466874953869 -0.05690638871375201 0.045840651261305584
-0.04745095259211338 -0.04248764626292389 0.050429925213322034
-0.048227236434688056 -0.028068903812095765 0.05501919916533848
-0.04900352027726275 -0.013650161361267643 0.059608473117354926
-0.04977980411983743 0.0007685810895604669 0.06419774706937137
-0.05055608796241211 0.01518732354038859 0.06878702102138783
-0.0513323718049868 0.029606065991216703 0.07337629497340427
-0.05210865564756148 0.04402480844204482 0.07796556892542071
-0.0393736191968501 -0.08971363635590636 0.05010680959716272
-0.04014990303942478 -0.07529489390507824 0.05469608354917916
-0.04092618688199946 -0.06087615145425013 0.05928535750119561
-0.04170247072457415 -0.046457409003422004 0.06387463145321205
-0.04247875456714883 -0.03203866655259389 0.0684639054052285
-0.04325503840972352 -0.017619924101765765 0.07305317935724495
-0.0440313222522982 -0.003201181650937653 0.0776424533092614
-0.04480760609487288 0.01121756079989047 0.08223172726127785
-0.04558388993744757 0.025636303250718584 0.0868210012132943
-0.04636017378002225 0.04005504570154671 0.09141027516531074
-0.03362513732931088 -0.09368339909640448 0.06355151583705274
-0.034401421171885556 -0.07926465664557636 0.06814078978906918
-0.03517770501446024 -0.06484591419474825 0.07273006374108562
-0.03595398885703493 -0.05042717174392013 0.07731933769310208
-0.03673027269960961 -0.036008429293092004 0.08190861164511852
-0.0375065565421843 -0.02158968684226388 0.08649788559713496
-0.03828284038475898 -0.007170944391435771 0.0910871595491514
-0.03905912422733366 0.007247798059392352 0.09567643350116786
-0.03983540806990835 0.021666540510220465 0.1002657074531843
-0.04061169191248303 0.036085282961048584 0.10485498140520075
0.04061169191248303 -0.036085282961048584 -0.10485498140520075
0.03983540806990835 -0.021666540510220465 -0.1002657074531843
0.03905912422733366 -0.007247798059392359 -0.09567643350116786
0.03828284038475898 0.007170944391435761 -0.09108715954915142
0.0375065565421843 0.02158968684226388 -0.08649788559713496
0.03673027269960961 0.036008429293092004 -0.08190861164511852
0.03595398885703493 0.05042717174392011 -0.07731933769310208
0.03517770501446024 0.06484591419474824 -0.07273006374108562
0.034401421171885556 0.07926465664557636 -0.06814078978906918
0.03362513732931088 0.09368339909640448 -0.06355151583705274
0.04636017378002225 -0.04005504570154671 -0.09141027516531074
0.04558388993744757 -0.025636303250718584 -0.0868210012132943
0.04480760609487288 -0.011217560799890476 -0.08223172726127785
0.0440313222522982 0.0032011816509376428 -0.0776424533092614
0.04325503840972352 0.017619924101765765 -0.07305317935724495
0.04247875456714883 0.03203866655259389 -0.0684639054052285
0.04170247072457415 0.04645740900342199 -0.06387463145321205
0.04092618688199946 0.06087615145425011 -0.05928535750119561
0.04014990303942478 0.07529489390507824 -0.05469608354917916
0.0393736191968501 0.08971363635590636 -0.05010680959716272
0.05210865564756147 -0.04402480844204482 -0.07796556892542071
0.051332371804986794 -0.0296060659912167 -0.07337629497340427
0.0505560879624121 -0.015187323540388596 -0.06878702102138783
0.04977980411983742 -0.0007685810895604754 -0.06419774706937138
0.04900352027726274 0.013650161361267645 -0.05960847311735493
0.04822723643468805 0.02806890381209577 -0.055019199165338484
0.04745095259211337 0.042487646262923874 -0.05042992521332204
0.046674668749538684 0.056906388713752 -0.04584065126130559
0.045898384906964 0.07132513116458011 -0.04125137730928915
0.04512210106438932 0.08574387361540824 -0.0366621033572727
0.0578571375151007 -0.047994571182542946 -0.0645208626855307
0.05708085367252602 -0.03357582873171482 -0.05993158873351425
0.05630456982995133 -0.019157086280886713 -0.05534231478149781
0.05552828598737665 -0.004738343830058595 -0.05075304082948136
0.05475200214480197 0.009680398620769526 -0.046163766877464915
0.05397571830222728 0.02409914107159765 -0.041574492925448465
0.0531994344596526 0.03851788352242575 -0.03698521897343202
0.05242315061707791 0.052936625973253874 -0.03239594502141557
0.051646866774503225 0.067355368424082 -0.027806671069399127
0.050870582931928546 0.08177411087491013 -0.02321739711738268
0.06360561938263992 -0.05196433392304106 -0.051076156445640675
0.06282933554006524 -0.03754559147221294 -0.04648688249362423
0.062053051697490556 -0.023126849021384833 -0.04189760854160779
0.06127676785491588 -0.008708106570556715 -0.03730833458959134
0.0605004840123412 0.005710635880271406 -0.03271906063757489
0.059724200169766505 0.02012937833109953 -0.028129786685558444
0.058947916327191825 0.034548120781927635 -0.023540512733542
0.05817163248461714 0.04896686323275576 -0.01895123878152555
0.05739534864204245 0.06338560568358388 -0.014361964829509103
0.05661906479946777 0.077804348134412 -0.009772690877492657
0.06935410125017916 -0.055934096663539185 -0.03763145020575065
0.06857781740760448 -0.04151535421271106 -0.03304217625373421
0.06780153356502978 -0.027096611761882956 -0.028452902301717764
0.0670252497224551 -0.012677869311054834 -0.023863628349701314
0.06624896587988043 0.0017408731397732858 -0.019274354397684868
0.06547268203730573 0.016159615590601407 -0.01468508044566842
0.06469639819473105 0.030578358041429513 -0.010095806493651978
0.06392011435215636 0.044997100492257636 -0.005506532541635528
0.06314383050958168 0.05941584294308576 -0.0009172585896190812
0.062367546667006994 0.07383458539391388 0.003672015362397365
0.07510258311771838 -0.0599038594040373 -0.024186743965860638
0.0743262992751437 -0.04548511695320918 -0.019597470013844195
0.073550015432569 -0.03106637450238107 -0.015008196061827753
0.07277373158999433 -0.016647632051552952 -0.010418922109811303
0.07199744774741965 -0.0022288896007248314 -0.005829648157794856
0.07122116390484495 0.01218985285010329 -0.0012403742057784065
0.07044488006227027 0.026608595300931397 0.003348899746238036
0.06966859621969558 0.04102733775175952 0.007938173698254485
0.0688923123771209 0.05544608020258764 0.012527447650270931
0.06811602853454622 0.06986482265341577 0.017116721602287378
0.0808510649852576 -0.06387362214453542 -0.010742037725970615
0.08007478114268292 -0.0494548796937073 -0.006152763773954172
0.07929849730010823 -0.03503613724287919 -0.0015634898219377296
0.07852221345753355 -0.02061739479205107 0.00302578413007872
0.07774592961495887 -0.006198652341222952 0.007615058082095167
0.07696964577238417 0.008220090109605172 0.012204332034111616
0.0761933619298095 0.022638832560433277 0.016793605986128057
0.07541707808723482 0.0370575750112614 0.021382879938144507
0.07464079424466012 0.05147631746208952 0.025972153890160953
0.07386451040208544 0.06589505991291765 0.0305614278421774
0.08659954685279682 -0.06784338488503354 0.0027026685139194075
0.08582326301022214 -0.053424642434205416 0.00729194246593585
0.08504697916764745 -0.039005899983377314 0.011881216417952293
0.08427069532507277 -0.02458715753254919 0.016470490369968744
0.08349441148249809 -0.010168415081721071 0.02105976432198519
0.0827181276399234 0.00425032736910705 0.02564903827400164
0.08194184379734872 0.018669069819935158 0.030238312226018083
0.08116555995477404 0.03308781227076328 0.03482758617803453
0.08038927611219934 0.047506554721591404 0.039416860130050975
0.07961299226962466 0.06192529717241953 0.044006134082067425
0.09234802872033605 -0.07181314762553166 0.016147374753809424
0.09157174487776137 -0.05739440517470354 0.020736648705825866
0.09079546103518668 -0.04297566272387543 0.02532592265784231
0.090019177192612 -0.02855692027304731 0.02991519660985876
0.08924289335003732 -0.01413817782221919 0.03450447056187521
0.08846660950746263 0.0002805646286089326 0.03909374451389166
0.08769032566488795 0.014699307079437039 0.0436830184659081
0.08691404182231326 0.02911804953026516 0.04827229241792455
0.08613775797973858 0.04353679198109328 0.05286156636994099
0.0853614741371639 0.057955534431921404 0.05745084032195744
-0.0853614741371639 -0.057955534431921404 -0.05745084032195744
-0.07136445568720313 -0.055525506490713306 -0.06271796710898447
-0.05736743723724236 -0.05309547854950522 -0.06798509389601151
-0.04337041878728159 -0.050665450608297136 -0.07325222068303854
-0.029373400337320815 -0.04823542266708904 -0.07851934747006557
-0.015376381887360043 -0.04580539472588095 -0.08378647425709261
-0.0013793634373992763 -0.04337536678467286 -0.08905360104411965
0.01261765501256149 -0.04094533884346477 -0.09432072783114669
0.026614673462522265 -0.038515310902256676 -0.09958785461817372
0.04061169191248303 -0.036085282961048584 -0.10485498140520075
-0.07961299226962466 -0.06192529717241953 -0.044006134082067425
-0.0656159738196639 -0.05949526923121143 -0.049273260869094455
-0.05161895536970314 -0.05706524129000334 -0.05454038765612149
-0.03762193691974236 -0.05463521334879526 -0.059807514443148524
-0.023624918469781594 -0.05220518540758716 -0.06507464123017556
-0.00962790001982082 -0.049775157466379075 -0.0703417680172026
0.004369118430139947 -0.04734512952517098 -0.07560889480422964
0.018366136880100713 -0.04491510158396289 -0.08087602159125667
0.03236315533006149 -0.0424850736427548 -0.0861431483782837
0.04636017378002225 -0.04005504570154671 -0.09141027516531074
-0.07386451040208544 -0.06589505991291765 -0.030561427842177406
-0.059867491952124686 -0.06346503197170955 -0.035828554629204444
-0.045870473502163917 -0.06103500403050146 -0.041095681416231475
-0.03187345505220314 -0.058604976089293374 -0.046362808203258506
-0.01787643660224237 -0.056174948148085276 -0.05162993499028554
-0.0038794181522815965 -0.05374492020687719 -0.05689706177731258
0.01011760029767917 -0.0513148922656691 -0.06216418856433962
0.024114618747639937 -0.04888486432446101 -0.06743131535136665
0.03811163719760071 -0.046454836383252915 -0.07269844213839369
0.05210865564756147 -0.04402480844204482 -0.07796556892542071
-0.06811602853454622 -0.06986482265341576 -0.017116721602287388
-0.05411901008458546 -0.06743479471220766 -0.022383848389314422
-0.04012199163462469 -0.06500476677099958 -0.027650975176341453
-0.026124973184663915 -0.06257473882979149 -0.03291810196336849
-0.012127954734703145 -0.0601447108885834 -0.038185228750395525
0.0018690637152576277 -0.05771468294737531 -0.04345235553742256
0.015866082165218395 -0.05528465500616722 -0.048719482324449594
0.02986310061517916 -0.05285462706495913 -0.05398660911147663
0.04386011906513994 -0.05042459912375104 -0.05925373589850366
0.0578571375151007 -0.047994571182542946 -0.0645208626855307
-0.062367546667006994 -0.07383458539391388 -0.003672015362397365
-0.04837052821704623 -0.07140455745270578 -0.008939142149424399
-0.03437350976708546 -0.0689745295114977 -0.014206268936451431
-0.02037649131712469 -0.06654450157028961 -0.019473395723478466
-0.006379472867163919 -0.06411447362908151 -0.024740522510505503
0.007617545582796853 -0.06168444568787343 -0.03000764929753254
0.02161456403275762 -0.05925441774666534 -0.035274776084559575
0.03561158248271839 -0.056824389805457245 -0.04054190287158661
0.049608600932679166 -0.054394361864249154 -0.045809029658613644
0.06360561938263992 -0.05196433392304106 -0.051076156445640675
-0.05661906479946777 -0.077804348134412 0.009772690877492657
-0.04262204634950701 -0.0753743201932039 0.004505564090465623
-0.028625027899546237 -0.07294429225199582 -0.0007615626965614092
-0.014628009449585465 -0.07051426431078774 -0.006028689483588444
-0.0006309909996246936 -0.06808423636957964 -0.01129581627061548
0.013366027450336078 -0.06565420842837155 -0.016562943057642516
0.027363045900296847 -0.06322418048716345 -0.02183006984466955
0.04136006435025761 -0.06079415254595537 -0.027097196631696588
0.055357082800218387 -0.058364124604747276 -0.03236432341872362
0.06935410125017916 -0.055934096663539185 -0.03763145020575065
-0.050870582931928546 -0.08177411087491011 0.02321739711738267
-0.03687356448196778 -0.07934408293370201 0.017950270330355636
-0.022876546032007016 -0.07691405499249393 0.012683143543328603
-0.008879527582046243 -0.07448402705128584 0.00741601675630157
0.005117490867914528 -0.07205399911007775 0.0021488899692745336
0.0191145093178753 -0.06962397116886966 -0.003118236817752504
0.03311152776783607 -0.06719394322766158 -0.008385363604779539
0.04710854621779684 -0.06476391528645348 -0.013652490391806577
0.061105564667757614 -0.06233388734524539 -0.018919617178833607
0.07510258311771838 -0.0599038594040373 -0.024186743965860638
-0.045122101064389325 -0.08574387361540824 0.03666210335727269
-0.031125082614428562 -0.08331384567420014 0.03139497657024566
-0.017128064164467792 -0.08088381773299205 0.026127849783218627
-0.003131045714507017 -0.07845378979178397 0.020860722996191593
0.010865972735453753 -0.07602376185057587 0.015593596209164557
0.024862991185414525 -0.07359373390936778 0.010326469422137519
0.038860009635375295 -0.0711637059681597 0.005059342635110485
0.05285702808533606 -0.0687336780269516 -0.00020778415191655345
0.06685404653529683 -0.06630365008574352 -0.005474910938943584
0.0808510649852576 -0.06387362214453542 -0.010742037725970615
-0.0393736191968501 -0.08971363635590636 0.05010680959716272
-0.025376600746889334 -0.08728360841469826 0.04483968281013568
-0.011379582296928564 -0.08485358047349018 0.03957255602310865
0.0026174361530322088 -0.08242355253228209 0.03430542923608162
0.01661445460299298 -0.07999352459107399 0.02903830244905458
0.030611473052953753 -0.0775634966498659 0.023771175662027542
0.044608491502914516 -0.07513346870865782 0.018504048875000508
0.058605509952875286 -0.07270344076744972 0.013236922087973469
0.07260252840283606 -0.07027341282624164 0.007969795300946438
0.08659954685279682 -0.06784338488503354 0.0027026685139194075
-0.03362513732931088 -0.09368339909640448 0.06355151583705274
-0.01962811887935011 -0.09125337115519638 0.0582843890500257
-0.005631100429389342 -0.0888233432139883 0.05301726226299867
0.008365918020571432 -0.08639331527278021 0.04775013547597163
0.022362936470532203 -0.08396328733157211 0.0424830086889446
0.03635995492049297 -0.08153325939036403 0.03721588190191756
0.05035697337045374 -0.07910323144915593 0.03194875511489052
0.06435399182041451 -0.07667320350794785 0.026681628327863485
0.07835101027037529 -0.07424317556673975 0.021414501540836454
0.09234802872033605 -0.07181314762553166 0.016147374753809424
-0.09234802872033605 0.07181314762553166 -0.016147374753809424
-0.07835101027037529 0.07424317556673975 -0.021414501540836454
-0.06435399182041451 0.07667320350794785 -0.026681628327863485
-0.05035697337045375 0.07910323144915593 -0.03194875511489052
-0.03635995492049297 0.08153325939036403 -0.03721588190191756
-0.022362936470532203 0.08396328733157211 -0.0424830086889446
-0.008365918020571439 0.08639331527278021 -0.04775013547597163
0.005631100429389335 0.0888233432139883 -0.05301726226299867
0.01962811887935011 0.09125337115519638 -0.0582843890500257
0.03362513732931088 0.09368339909640448 -0.06355151583705274
-0.08659954685279682 0.06784338488503354 -0.0027026685139194075
-0.07260252840283606 0.07027341282624164 -0.007969795300946438
-0.05860550995287529 0.07270344076744972 -0.013236922087973469
-0.04460849150291452 0.07513346870865782 -0.018504048875000508
-0.030611473052953753 0.0775634966498659 -0.023771175662027542
-0.01661445460299298 0.07999352459107399 -0.02903830244905458
-0.0026174361530322157 0.08242355253228209 -0.03430542923608161
0.011379582296928557 0.08485358047349018 -0.03957255602310865
0.025376600746889334 0.08728360841469826 -0.04483968281013568
0.0393736191968501 0.08971363635590636 -0.05010680959716272
-0.0808510649852576 0.06387362214453542 0.01074203772597061
-0.06685404653529683 0.06630365008574352 0.005474910938943578
-0.05285702808533607 0.0687336780269516 0.0002077841519165473
-0.0388600096353753 0.0711637059681597 -0.005059342635110491
-0.02486299118541453 0.07359373390936778 -0.010326469422137524
-0.010865972735453757 0.07602376185057587 -0.015593596209164562
0.0031310457145070076 0.07845378979178397 -0.020860722996191596
0.01712806416446778 0.08088381773299205 -0.02612784978321863
0.03112508261442856 0.08331384567420014 -0.03139497657024567
0.04512210106438932 0.08574387361540824 -0.0366621033572727
-0.07510258311771838 0.0599038594040373 0.024186743965860628
-0.061105564667757614 0.06233388734524539 0.018919617178833597
-0.047108546217796844 0.06476391528645349 0.013652490391806566
-0.03311152776783608 0.06719394322766158 0.008385363604779528
-0.019114509317875304 0.06962397116886967 0.0031182368177524946
-0.0051174908679145325 0.07205399911007776 -0.002148889969274543
0.008879527582046232 0.07448402705128586 -0.007416016756301575
0.022876546032007006 0.07691405499249394 -0.012683143543328612
0.03687356448196778 0.07934408293370203 -0.017950270330355646
0.050870582931928546 0.08177411087491013 -0.02321739711738268
-0.06935410125017916 0.055934096663539185 0.03763145020575065
-0.055357082800218387 0.058364124604747276 0.03236432341872362
-0.041360064350257617 0.06079415254595537 0.027097196631696588
-0.027363045900296853 0.06322418048716345 0.02183006984466955
-0.013366027450336078 0.06565420842837155 0.016562943057642516
0.0006309909996246936 0.06808423636957964 0.01129581627061548
0.014628009449585458 0.07051426431078774 0.006028689483588447
0.02862502789954623 0.07294429225199582 0.0007615626965614109
0.04262204634950701 0.0753743201932039 -0.004505564090465623
0.05661906479946777 0.077804348134412 -0.009772690877492657
-0.06360561938263992 0.05196433392304106 0.051076156445640675
-0.049608600932679166 0.054394361864249154 0.045809029658613644
-0.035611582482718396 0.056824389805457245 0.04054190287158661
-0.021614564032757626 0.05925441774666534 0.035274776084559575
-0.007617545582796853 0.06168444568787343 0.03000764929753254
0.006379472867163919 0.06411447362908151 0.024740522510505503
0.020376491317124684 0.06654450157028961 0.01947339572347847
0.034373509767085454 0.0689745295114977 0.014206268936451433
0.04837052821704623 0.07140455745270578 0.008939142149424399
0.062367546667006994 0.07383458539391388 0.003672015362397365
-0.0578571375151007 0.047994571182542946 0.06452086268553069
-0.04386011906513994 0.05042459912375104 0.059253735898503655
-0.02986310061517917 0.05285462706495913 0.053986609111476624
-0.015866082165218405 0.05528465500616722 0.04871948232444959
-0.0018690637152576316 0.05771468294737531 0.043452355537422556
0.012127954734703142 0.0601447108885834 0.03818522875039552
0.026124973184663905 0.0625747388297915 0.03291810196336848
0.04012199163462468 0.06500476677099959 0.027650975176341446
0.05411901008458546 0.06743479471220767 0.022383848389314412
0.06811602853454622 0.06986482265341577 0.017116721602287378
-0.05210865564756148 0.04402480844204482 0.07796556892542071
-0.03811163719760072 0.046454836383252915 0.07269844213839367
-0.024114618747639947 0.04888486432446101 0.06743131535136665
-0.010117600297679179 0.0513148922656691 0.06216418856433961
0.003879418152281594 0.05374492020687719 0.056897061777312574
0.017876436602242366 0.056174948148085276 0.051629934990285536
0.03187345505220313 0.058604976089293374 0.046362808203258506
0.0458704735021639 0.06103500403050146 0.04109568141623147
0.05986749195212468 0.06346503197170955 0.03582855462920444
0.07386451040208544 0.06589505991291765 0.0305614278421774
-0.04636017378002225 0.04005504570154671 0.09141027516531074
-0.03236315533006149 0.0424850736427548 0.0861431483782837
-0.01836613688010072 0.04491510158396289 0.08087602159125667
-0.004369118430139954 0.04734512952517098 0.07560889480422964
0.00962790001982082 0.049775157466379075 0.0703417680172026
0.023624918469781594 0.05220518540758716 0.06507464123017556
0.03762193691974235 0.05463521334879526 0.05980751444314853
0.05161895536970313 0.05706524129000334 0.05454038765612149
0.0656159738196639 0.05949526923121143 0.049273260869094455
0.07961299226962466 0.06192529717241953 0.044006134082067425
-0.04061169191248303 0.036085282961048584 0.10485498140520075
-0.026614673462522265 0.038515310902256676 0.09958785461817372
-0.012617655012561497 0.04094533884346477 0.09432072783114669
0.0013793634373992694 0.04337536678467286 0.08905360104411965
0.015376381887360043 0.04580539472588095 0.08378647425709261
0.029373400337320815 0.04823542266708904 0.07851934747006557
0.04337041878728158 0.050665450608297136 0.07325222068303855
0.05736743723724235 0.05309547854950522 0.06798509389601151
0.07136445568720313 0.055525506490713306 0.06271796710898447
0.0853614741371639 0.057955534431921404 0.05745084032195744
-0.0853614741371639 -0.057955534431921404 -0.05745084032195744
-0.07136445568720313 -0.055525506490713306 -0.06271796710898447
-0.05736743723724236 -0.05309547854950522 -0.06798509389601151
-0.04337041878728159 -0.050665450608297136 -0.07325222068303854
-0.029373400337320815 -0.04823542266708904 -0.07851934747006557
-0.015376381887360043 -0.04580539472588095 -0.08378647425709261
-0.0013793634373992763 -0.04337536678467286 -0.08905360104411965
0.01261765501256149 -0.04094533884346477 -0.09432072783114669
0.026614673462522265 -0.038515310902256676 -0.09958785461817372
0.04061169191248303 -0.036085282961048584 -0.10485498140520075
-0.08613775797973858 -0.04353679198109328 -0.05286156636994099
-0.07214073952977781 -0.04110676403988519 -0.05812869315696803
-0.05814372107981704 -0.0386767360986771 -0.06339581994399505
-0.044146702629856274 -0.036246708157469006 -0.06866294673102209
-0.0301496841798955 -0.033816680216260914 -0.07393007351804913
-0.016152665729934727 -0.03138665227505283 -0.07919720030507617
-0.0021556472799739625 -0.02895662433384474 -0.0844643270921032
0.011841371169986811 -0.02652659639263665 -0.08973145387913024
0.025838389619947586 -0.024096568451428556 -0.09499858066615727
0.03983540806990835 -0.021666540510220465 -0.1002657074531843
-0.08691404182231326 -0.029118049530265176 -0.04827229241792455
-0.0729170233723525 -0.026688021589057084 -0.05353941920495158
-0.058920004922391724 -0.02425799364784899 -0.05880654599197862
-0.044922986472430954 -0.0218279657066409 -0.06407367277900565
-0.030925968022470184 -0.019397937765432808 -0.06934079956603269
-0.01692894957250941 -0.016967909824224723 -0.07460792635305973
-0.0029319311225486453 -0.014537881883016631 -0.07987505314008676
0.011065087327412125 -0.01210785394180854 -0.0851421799271138
0.0250621057773729 -0.009677826000600447 -0.09040930671414082
0.03905912422733366 -0.007247798059392359 -0.09567643350116786
-0.08769032566488795 -0.014699307079437052 -0.0436830184659081
-0.07369330721492719 -0.01226927913822896 -0.04895014525293514
-0.05969628876496641 -0.009839251197020872 -0.05421727203996217
-0.04569927031500564 -0.007409223255812784 -0.0594843988269892
-0.03170225186504487 -0.004979195314604692 -0.06475152561401624
-0.017705233415084096 -0.0025491673733966 -0.07001865240104328
-0.0037082149651233316 -0.00011913943218851126 -0.0752857791880703
0.010288803484837438 0.0023108885090195805 -0.08055290597509734
0.024285821934798214 0.004740916450227671 -0.08582003276212438
0.03828284038475898 0.007170944391435761 -0.09108715954915142
-0.08846660950746263 -0.0002805646286089326 -0.03909374451389166
-0.07446959105750187 0.002149463312599159 -0.04436087130091869
-0.060472572607541096 0.0045794912538072476 -0.04962799808794572
-0.046475554157580326 0.007009519195015338 -0.05489512487497276
-0.032478535707619556 0.00943954713622343 -0.060162251661999795
-0.01848151725765878 0.01186957507743152 -0.06542937844902683
-0.004484498807698014 0.01429960301863961 -0.07069650523605386
0.009512519642262752 0.0167296309598477 -0.0759636320230809
0.023509538092223527 0.019159658901055792 -0.08123075881010794
0.0375065565421843 0.02158968684226388 -0.08649788559713496
-0.08924289335003732 0.01413817782221919 -0.03450447056187521
-0.07524587490007655 0.01656820576342728 -0.03977159734890224
-0.061248856450115775 0.01899823370463537 -0.04503872413592928
-0.04725183800015501 0.02142826164584346 -0.05030585092295631
-0.033254819550194235 0.02385828958705155 -0.055572977709983346
-0.019257801100233465 0.026288317528259643 -0.06084010449701038
-0.005260782650272701 0.02871834546946773 -0.06610723128403741
0.008736235799688073 0.031148373410675823 -0.07137435807106444
0.022733254249648848 0.03357840135188391 -0.07664148485809148
0.03673027269960961 0.036008429293092004 -0.08190861164511852
-0.090019177192612 0.0285569202730473 -0.029915196609858762
-0.07602215874265124 0.03098694821425539 -0.035182323396885797
-0.06202514029269046 0.03341697615546348 -0.04044945018391283
-0.04802812184272969 0.03584700409667157 -0.045716576970939865
-0.03403110339276892 0.03827703203787966 -0.0509837037579669
-0.020034084942808148 0.04070705997908775 -0.056250830544993934
-0.006037066492847383 0.043137087920295844 -0.06151795733202097
0.007959951957113387 0.045567115861503936 -0.066785084119048
0.021956970407074162 0.04799714380271203 -0.07205221090607504
0.03595398885703493 0.05042717174392011 -0.07731933769310208
-0.09079546103518668 0.04297566272387542 -0.02532592265784231
-0.07679844258522592 0.045405690665083515 -0.030593049444869347
-0.06280142413526515 0.047835718606291606 -0.03586017623189638
-0.04880440568530438 0.0502657465474997 -0.041127303018923415
-0.03480738723534361 0.05269577448870779 -0.04639442980595045
-0.020810368785382834 0.055125802429915875 -0.05166155659297749
-0.00681335033542207 0.05755583037112397 -0.05692868338000452
0.0071836681145387 0.05998585831233206 -0.06219581016703156
0.021180686564499476 0.06241588625354015 -0.0674629369540586
0.03517770501446024 0.06484591419474824 -0.07273006374108562
-0.09157174487776137 0.05739440517470354 -0.020736648705825866
-0.07757472642780061 0.05982443311591163 -0.026003775492852904
-0.06357770797783983 0.06225446105711972 -0.031270902279879935
-0.049580689527879064 0.06468448899832781 -0.036538029066906966
-0.035583671077918294 0.0671145169395359 -0.041805155853934
-0.02158665262795752 0.06954454488074399 -0.04707228264096104
-0.007589634177996752 0.07197457282195208 -0.05233940942798807
0.006407384271964014 0.07440460076316018 -0.05760653621501511
0.02040440272192479 0.07683462870436826 -0.06287366300204214
0.034401421171885556 0.07926465664557636 -0.06814078978906918
-0.09234802872033605 0.07181314762553166 -0.016147374753809424
-0.07835101027037529 0.07424317556673975 -0.021414501540836454
-0.06435399182041451 0.07667320350794785 -0.026681628327863485
-0.05035697337045375 0.07910323144915593 -0.03194875511489052
-0.03635995492049297 0.08153325939036403 -0.03721588190191756
-0.022362936470532203 0.08396328733157211 -0.0424830086889446
-0.008365918020571439 0.08639331527278021 -0.04775013547597163
0.005631100429389335 0.0888233432139883 -0.05301726226299867
0.01962811887935011 0.09125337115519638 -0.0582843890500257
0.03362513732931088 0.09368339909640448 -0.06355151583705274
-0.03362513732931088 -0.09368339909640448 0.06355151583705274
-0.01962811887935011 -0.09125337115519638 0.0582843890500257
-0.005631100429389342 -0.0888233432139883 0.05301726226299867
0.008365918020571432 -0.08639331527278021 0.04775013547597163
0.022362936470532203 -0.08396328733157211 0.0424830086889446
0.03635995492049297 -0.08153325939036403 0.03721588190191756
0.05035697337045374 -0.07910323144915593 0.03194875511489052
0.06435399182041451 -0.07667320350794785 0.026681628327863485
0.07835101027037529 -0.07424317556673975 0.021414501540836454
0.09234802872033605 -0.07181314762553166 0.016147374753809424
-0.034401421171885556 -0.07926465664557636 0.06814078978906918
-0.02040440272192479 -0.07683462870436826 0.06287366300204214
-0.006407384271964021 -0.07440460076316018 0.05760653621501511
0.007589634177996745 -0.07197457282195208 0.05233940942798808
0.02158665262795752 -0.06954454488074399 0.04707228264096104
0.035583671077918294 -0.0671145169395359 0.041805155853934
0.04958068952787906 -0.06468448899832781 0.03653802906690697
0.06357770797783983 -0.06225446105711972 0.031270902279879935
0.07757472642780061 -0.05982443311591163 0.026003775492852904
0.09157174487776137 -0.05739440517470354 0.020736648705825866
-0.03517770501446024 -0.06484591419474825 0.07273006374108562
-0.021180686564499476 -0.06241588625354016 0.06746293695405858
-0.007183668114538707 -0.059985858312332066 0.06219581016703156
0.006813350335422063 -0.057555830371123974 0.05692868338000452
0.020810368785382834 -0.05512580242991588 0.051661556592977484
0.03480738723534361 -0.0526957744887078 0.04639442980595045
0.04880440568530437 -0.050265746547499705 0.041127303018923415
0.06280142413526514 -0.04783571860629161 0.03586017623189638
0.07679844258522592 -0.04540569066508352 0.030593049444869347
0.09079546103518668 -0.04297566272387543 0.02532592265784231
-0.03595398885703493 -0.05042717174392013 0.07731933769310208
-0.021956970407074162 -0.047997143802712035 0.07205221090607504
-0.007959951957113394 -0.04556711586150394 0.066785084119048
0.006037066492847376 -0.04313708792029586 0.06151795733202097
0.02003408494280815 -0.040707059979087766 0.056250830544993934
0.03403110339276892 -0.038277032037879674 0.050983703757966896
0.048028121842729685 -0.03584700409667158 0.045716576970939865
0.062025140292690455 -0.03341697615546349 0.04044945018391283
0.07602215874265124 -0.030986948214255402 0.035182323396885797
0.090019177192612 -0.02855692027304731 0.02991519660985876
-0.03673027269960961 -0.036008429293092004 0.08190861164511852
-0.022733254249648848 -0.03357840135188391 0.07664148485809148
-0.00873623579968808 -0.031148373410675823 0.07137435807106446
0.005260782650272694 -0.028718345469467735 0.06610723128403742
0.019257801100233465 -0.026288317528259643 0.06084010449701038
0.033254819550194235 -0.02385828958705155 0.055572977709983346
0.047251838000155005 -0.021428261645843463 0.050305850922956315
0.06124885645011577 -0.01899823370463537 0.04503872413592928
0.07524587490007655 -0.01656820576342728 0.03977159734890224
0.08924289335003732 -0.01413817782221919 0.03450447056187521
-0.0375065565421843 -0.02158968684226388 0.08649788559713496
-0.023509538092223527 -0.019159658901055792 0.08123075881010794
-0.009512519642262759 -0.016729630959847704 0.0759636320230809
0.004484498807698007 -0.014299603018639612 0.07069650523605386
0.01848151725765878 -0.01186957507743152 0.06542937844902683
0.032478535707619556 -0.00943954713622343 0.060162251661999795
0.04647555415758032 -0.0070095191950153395 0.05489512487497276
0.06047257260754109 -0.004579491253807249 0.04962799808794573
0.07446959105750187 -0.002149463312599159 0.04436087130091869
0.08846660950746263 0.0002805646286089326 0.03909374451389166
-0.03828284038475898 -0.007170944391435771 0.0910871595491514
-0.024285821934798214 -0.004740916450227681 0.08582003276212438
-0.010288803484837445 -0.002310888509019591 0.08055290597509734
0.0037082149651233246 0.00011913943218849738 0.0752857791880703
0.017705233415084096 0.0025491673733965894 0.07001865240104327
0.03170225186504487 0.004979195314604681 0.06475152561401623
0.04569927031500563 0.00740922325581277 0.0594843988269892
0.0596962887649664 0.009839251197020862 0.05421727203996217
0.07369330721492719 0.012269279138228954 0.04895014525293513
0.08769032566488795 0.014699307079437039 0.0436830184659081
-0.03905912422733366 0.007247798059392352 0.09567643350116786
-0.0250621057773729 0.00967782600060044 0.09040930671414082
-0.011065087327412132 0.012107853941808532 0.0851421799271138
0.0029319311225486384 0.014537881883016624 0.07987505314008676
0.016928949572509414 0.016967909824224716 0.07460792635305973
0.030925968022470184 0.0193979377654328 0.06934079956603269
0.04492298647243095 0.021827965706640893 0.06407367277900565
0.05892000492239172 0.024257993647848985 0.05880654599197862
0.0729170233723525 0.026688021589057077 0.05353941920495158
0.08691404182231326 0.02911804953026516 0.04827229241792455
-0.03983540806990835 0.021666540510220465 0.1002657074531843
-0.025838389619947586 0.024096568451428556 0.09499858066615727
-0.011841371169986818 0.02652659639263665 0.08973145387913024
0.0021556472799739556 0.02895662433384474 0.0844643270921032
0.016152665729934727 0.03138665227505283 0.07919720030507617
0.0301496841798955 0.033816680216260914 0.07393007351804913
0.04414670262985627 0.036246708157469006 0.06866294673102209
0.05814372107981703 0.0386767360986771 0.06339581994399507
0.07214073952977781 0.04110676403988519 0.05812869315696803
0.08613775797973858 0.04353679198109328 0.05286156636994099
-0.04061169191248303 0.036085282961048584 0.10485498140520075
-0.026614673462522265 0.038515310902256676 0.09958785461817372
-0.012617655012561497 0.04094533884346477 0.09432072783114669
0.0013793634373992694 0.04337536678467286 0.08905360104411965
0.015376381887360043 0.04580539472588095 0.08378647425709261
0.029373400337320815 0.04823542266708904 0.07851934747006557
0.04337041878728158 0.050665450608297136 0.07325222068303855
0.05736743723724235 0.05309547854950522 0.06798509389601151
0.07136445568720313 0.055525506490713306 0.06271796710898447
0.0853614741371639 0.057955534431921404 0.05745084032195744
