# .PCD v0.7 - Point Cloud Data file format
VERSION 0.7
FIELDS x y z
SIZE 4 4 4
TYPE F F F
COUNT 1 1 1
WIDTH 600
HEIGHT 1
VIEWPOINT 0 0 0 1 0 0 0
POINTS 600
DATA ascii
-0.053357962471370535 -0.16517185117969063 -0.10459995117846714
-0.052679032528880676 -0.14096984064874352 -0.11407890173474813
-0.05200010258639083 -0.1167678301177964 -0.12355785229102913
-0.05132117264390097 -0.09256581958684927 -0.13303680284731015
-0.050642242701411114 -0.06836380905590214 -0.14251575340359113
-0.049963312758921255 -0.04416179852495501 -0.15199470395987214
-0.049284382816431396 -0.019959787994007893 -0.16147365451615314
-0.04860545287394155 0.004242222536939236 -0.17095260507243415
-0.04792652293145169 0.028444233067886366 -0.18043155562871513
-0.047247592988961834 0.05264624359883348 -0.18991050618499614
-0.06527747077216657 -0.15645558783325433 -0.08319899703155748
-0.06459854082967671 -0.13225357730230722 -0.09267794758783848
-0.06391961088718687 -0.10805156677136007 -0.10215689814411948
-0.06324068094469701 -0.08384955624041295 -0.11163584870040048
-0.06256175100220715 -0.059647545709465816 -0.12111479925668148
-0.0618828210597173 -0.035445535178518686 -0.13059374981296248
-0.06120389111722744 -0.011243524647571572 -0.14007270036924346
-0.060524961174737595 0.012958485883375557 -0.14955165092552447
-0.059846031232247736 0.03716049641432269 -0.15903060148180548
-0.05916710128975788 0.061362506945269804 -0.16850955203808646
-0.07719697907296262 -0.147739324486818 -0.061798042884647825
-0.07651804913047276 -0.12353731395587088 -0.07127699344092883
-0.07583911918798292 -0.09933530342492375 -0.08075594399720983
-0.07516018924549306 -0.07513329289397662 -0.09023489455349083
-0.0744812593030032 -0.0509312823630295 -0.09971384510977183
-0.07380232936051334 -0.026729271832082367 -0.10919279566605283
-0.07312339941802348 -0.0025272613011352515 -0.11867174622233383
-0.07244446947553364 0.021674749229811878 -0.12815069677861482
-0.07176553953304378 0.04587675976075901 -0.13762964733489583
-0.07108660959055392 0.07007877029170613 -0.1471085978911768
-0.08911648737375867 -0.13902306114038168 -0.04039708873773817
-0.08843755743126881 -0.11482105060943457 -0.04987603929401917
-0.08775862748877897 -0.09061904007848744 -0.05935498985030016
-0.08707969754628911 -0.06641702954754031 -0.06883394040658117
-0.08640076760379925 -0.04221501901659317 -0.07831289096286216
-0.08572183766130939 -0.018013008485646045 -0.08779184151914317
-0.08504290771881953 0.006189002045301072 -0.09727079207542416
-0.08436397777632969 0.0303910125762482 -0.10674974263170517
-0.08368504783383983 0.05459302310719533 -0.11622869318798616
-0.08300611789134997 0.07879503363814244 -0.12570764374426716
-0.10103599567455471 -0.13030679779394536 -0.018996134590828506
-0.10035706573206485 -0.10610478726299824 -0.028475085147109506
-0.099678135789575 -0.08190277673205111 -0.0379540357033905
-0.09899920584708514 -0.05770076620110398 -0.04743298625967151
-0.09832027590459529 -0.03349875567015685 -0.0569119368159525
-0.09764134596210543 -0.00929674513920972 -0.0663908873722335
-0.09696241601961557 0.014905265391737395 -0.0758698379285145
-0.09628348607712572 0.03910727592268452 -0.0853487884847955
-0.09560455613463587 0.06330928645363165 -0.0948277390410765
-0.094925626192146 0.08751129698457877 -0.10430668959735749
-0.11295550397535076 -0.12159053444750903 0.0024048195560811537
-0.1122765740328609 -0.09738852391656191 -0.007074131000199846
-0.11159764409037105 -0.07318651338561478 -0.016553081556480845
-0.1109187141478812 -0.048984502854667655 -0.02603203211276185
-0.11023978420539134 -0.024782492323720526 -0.03551098266904284
-0.10956085426290148 -0.0005804817927733975 -0.044989933225323846
-0.10888192432041162 0.02362152873817372 -0.05446888378160484
-0.10820299437792177 0.04782353926912085 -0.06394783433788585
-0.10752406443543192 0.07202554980006798 -0.07342678489416685
-0.10684513449294206 0.0962275603310151 -0.08290573545044784
-0.1248750122761468 -0.11287427110107272 0.0238057737029908
-0.12419608233365693 -0.0886722605701256 0.0143268231467098
-0.12351715239116709 -0.06447025003917847 0.0048478725904288035
-0.12283822244867723 -0.040268239508231336 -0.0046310779658522
-0.12215929250618737 -0.01606622897728421 -0.014110028522133194
-0.12148036256369751 0.008135781553662921 -0.0235889790784142
-0.12080143262120766 0.03233779208461004 -0.033067929634695195
-0.12012250267871781 0.05653980261555717 -0.0425468801909762
-0.11944357273622795 0.08074181314650429 -0.052025830747257196
-0.11876464279373809 0.1049438236774514 -0.06150478130353819
-0.13679452057694283 -0.10415800775463639 0.045206727849900465
-0.13611559063445297 -0.07995599722368928 0.035727777293619464
-0.13543666069196314 -0.05575398669274215 0.026248826737338464
-0.13475773074947328 -0.03155197616179502 0.01676987618105746
-0.13407880080698342 -0.007349965630847886 0.007290925624776467
-0.13339987086449356 0.016852044900099245 -0.0021880249315045404
-0.1327209409220037 0.04105405543104636 -0.011666975487785534
-0.13204201097951385 0.06525606596199349 -0.02114592604406654
-0.131363081037024 0.08945807649294062 -0.030624876600347534
-0.13068415109453413 0.11366008702388773 -0.040103827156628524
-0.14871402887773888 -0.09544174440820007 0.06660768199681012
-0.14803509893524902 -0.07123973387725295 0.05712873144052913
-0.1473561689927592 -0.04703772334630582 0.04764978088424813
-0.14667723905026933 -0.022835712815358688 0.03817083032796713
-0.14599830910777947 0.0013662977155884403 0.028691879771686135
-0.1453193791652896 0.02556830824653557 0.019212929215405128
-0.14464044922279976 0.04977031877748268 0.009733978659124133
-0.1439615192803099 0.07397232930842981 0.00025502810284312564
-0.14328258933782004 0.09817433983937694 -0.009223922453437868
-0.14260365939533018 0.12237635037032406 -0.01870287300971886
-0.16063353717853493 -0.08672548106176374 0.08800863614371979
-0.15995460723604507 -0.06252347053081662 0.07852968558743878
-0.15927567729355524 -0.038321459999869495 0.06905073503115779
-0.15859674735106538 -0.014119449468922367 0.05957178447487678
-0.15791781740857552 0.010082561062024762 0.050092833918595786
-0.15723888746608566 0.034284571592971894 0.04061388336231478
-0.1565599575235958 0.05848658212391901 0.03113493280603379
-0.15588102758110595 0.08268859265486614 0.02165598224975278
-0.1552020976386161 0.10689060318581327 0.012177031693471787
-0.15452316769612623 0.13109261371676037 0.002698081137190794
0.15452316769612623 -0.13109261371676037 -0.002698081137190794
0.1552020976386161 -0.10689060318581327 -0.012177031693471787
0.15588102758110595 -0.08268859265486615 -0.02165598224975278
0.1565599575235958 -0.05848658212391902 -0.03113493280603379
0.15723888746608566 -0.034284571592971894 -0.04061388336231478
0.15791781740857552 -0.010082561062024762 -0.050092833918595786
0.15859674735106538 0.014119449468922353 -0.05957178447487678
0.1592756772935552 0.03832145999986948 -0.06905073503115779
0.15995460723604507 0.06252347053081662 -0.07852968558743878
0.16063353717853493 0.08672548106176374 -0.08800863614371979
0.14260365939533018 -0.12237635037032406 0.01870287300971886
0.14328258933782004 -0.09817433983937694 0.009223922453437868
0.1439615192803099 -0.07397232930842983 -0.00025502810284312564
0.14464044922279976 -0.0497703187774827 -0.009733978659124133
0.1453193791652896 -0.02556830824653557 -0.019212929215405128
0.14599830910777947 -0.0013662977155884403 -0.028691879771686135
0.14667723905026933 0.022835712815358674 -0.03817083032796713
0.14735616899275916 0.04703772334630581 -0.04764978088424813
0.14803509893524902 0.07123973387725295 -0.05712873144052913
0.14871402887773888 0.09544174440820007 -0.06660768199681012
0.13068415109453416 -0.11366008702388773 0.04010382715662852
0.13136308103702402 -0.08945807649294062 0.030624876600347524
0.13204201097951385 -0.0652560659619935 0.02114592604406653
0.1327209409220037 -0.04105405543104638 0.011666975487785522
0.13339987086449356 -0.01685204490009925 0.0021880249315045287
0.13407880080698342 0.007349965630847881 -0.007290925624776478
0.13475773074947328 0.031551976161794996 -0.01676987618105747
0.13543666069196314 0.055753986692742126 -0.02624882673733847
0.136115590634453 0.07995599722368928 -0.03572777729361947
0.13679452057694286 0.10415800775463639 -0.04520672784990047
0.11876464279373809 -0.10494382367745142 0.061504781303538175
0.11944357273622795 -0.0807418131465043 0.05202583074725718
0.1201225026787178 -0.05653980261555718 0.04254688019097619
0.12080143262120766 -0.03233779208461005 0.03306792963469518
0.12148036256369751 -0.008135781553662924 0.02358897907841419
0.12215929250618737 0.016066228977284203 0.014110028522133182
0.12283822244867723 0.04026823950823132 0.004631077965852189
0.12351715239116708 0.06447025003917844 -0.004847872590428811
0.12419608233365693 0.08867226057012559 -0.014326823146709812
0.1248750122761468 0.1128742711010727 -0.02380577370299081
0.10684513449294206 -0.0962275603310151 0.08290573545044784
0.10752406443543192 -0.07202554980006798 0.07342678489416685
0.10820299437792176 -0.04782353926912086 0.06394783433788585
0.10888192432041162 -0.023621528738173733 0.05446888378160484
0.10956085426290148 0.0005804817927733975 0.044989933225323846
0.11023978420539134 0.024782492323720526 0.03551098266904284
0.1109187141478812 0.04898450285466764 0.02603203211276185
0.11159764409037104 0.07318651338561477 0.016553081556480848
0.1122765740328609 0.09738852391656191 0.007074131000199846
0.11295550397535076 0.12159053444750903 -0.0024048195560811537
0.094925626192146 -0.08751129698457877 0.10430668959735749
0.09560455613463587 -0.06330928645363165 0.0948277390410765
0.09628348607712571 -0.03910727592268454 0.0853487884847955
0.09696241601961557 -0.014905265391737409 0.0758698379285145
0.09764134596210543 0.00929674513920972 0.0663908873722335
0.09832027590459529 0.03349875567015685 0.0569119368159525
0.09899920584708514 0.05770076620110397 0.04743298625967151
0.09967813578957499 0.0819027767320511 0.03795403570339051
0.10035706573206485 0.10610478726299824 0.028475085147109506
0.10103599567455471 0.13030679779394536 0.018996134590828506
0.08300611789134997 -0.07879503363814246 0.12570764374426716
0.08368504783383983 -0.05459302310719533 0.11622869318798615
0.08436397777632967 -0.03039101257624822 0.10674974263170516
0.08504290771881953 -0.006189002045301091 0.09727079207542415
0.08572183766130939 0.018013008485646038 0.08779184151914315
0.08640076760379925 0.04221501901659317 0.07831289096286215
0.08707969754628911 0.06641702954754028 0.06883394040658115
0.08775862748877895 0.09061904007848741 0.059354989850300154
0.08843755743126881 0.11482105060943455 0.04987603929401915
0.08911648737375867 0.13902306114038168 0.04039708873773815
0.07108660959055392 -0.07007877029170613 0.1471085978911768
0.07176553953304378 -0.045876759760759014 0.1376296473348958
0.07244446947553362 -0.021674749229811895 0.12815069677861482
0.07312339941802348 0.002527261301135233 0.11867174622233381
0.07380232936051334 0.026729271832082364 0.10919279566605282
0.0744812593030032 0.05093128236302949 0.09971384510977181
0.07516018924549306 0.0751332928939766 0.09023489455349082
0.0758391191879829 0.09933530342492373 0.08075594399720981
0.07651804913047276 0.12353731395587088 0.07127699344092882
0.07719697907296262 0.147739324486818 0.06179804288464782
0.05916710128975788 -0.061362506945269804 0.16850955203808646
0.059846031232247736 -0.03716049641432269 0.15903060148180548
0.06052496117473758 -0.012958485883375571 0.14955165092552447
0.06120389111722744 0.011243524647571558 0.14007270036924346
0.0618828210597173 0.035445535178518686 0.13059374981296248
0.06256175100220715 0.059647545709465816 0.12111479925668148
0.06324068094469701 0.08384955624041293 0.11163584870040048
0.06391961088718685 0.10805156677136006 0.10215689814411948
0.06459854082967671 0.13225357730230722 0.09267794758783848
0.06527747077216657 0.15645558783325433 0.08319899703155748
0.047247592988961834 -0.05264624359883348 0.18991050618499614
0.04792652293145169 -0.028444233067886366 0.18043155562871513
0.04860545287394154 -0.0042422225369392495 0.17095260507243415
0.049284382816431396 0.01995978799400788 0.16147365451615314
0.049963312758921255 0.04416179852495501 0.15199470395987214
0.050642242701411114 0.06836380905590214 0.14251575340359113
0.05132117264390097 0.09256581958684926 0.13303680284731015
0.05200010258639082 0.11676783011779639 0.12355785229102914
0.052679032528880676 0.14096984064874352 0.11407890173474813
0.053357962471370535 0.16517185117969063 0.10459995117846714
-0.053357962471370535 -0.16517185117969063 -0.10459995117846714
-0.030260059119426447 -0.16138526923936505 -0.09327752117388087
-0.007162155767482373 -0.15759868729903947 -0.08195509116929461
0.015935747584461715 -0.1538121053587139 -0.07063266116470836
0.0390336509364058 -0.1500255234183883 -0.05931023116012209
0.06213155428834989 -0.1462389414780627 -0.04798780115553583
0.08522945764029397 -0.14245235953773713 -0.036665371150949574
0.10832736099223805 -0.13866577759741155 -0.025342941146363308
0.13142526434418214 -0.13487919565708598 -0.01402051114177705
0.15452316769612623 -0.13109261371676037 -0.002698081137190794
-0.06527747077216657 -0.15645558783325433 -0.08319899703155748
-0.04217956742022249 -0.15266900589292873 -0.07187656702697122
-0.019081664068278416 -0.14888242395260315 -0.06055413702238496
0.004016239283665673 -0.14509584201227757 -0.0492317070177987
0.02711414263560976 -0.141309260071952 -0.037909277013212436
0.05021204598755385 -0.1375226781316264 -0.02658684700862618
0.07330994933949793 -0.13373609619130084 -0.015264417004039922
0.09640785269144202 -0.12994951425097523 -0.0039419869994536515
0.1195057560433861 -0.12616293231064965 0.007380443005132605
0.14260365939533018 -0.12237635037032406 0.01870287300971886
-0.07719697907296262 -0.147739324486818 -0.061798042884647825
-0.05409907572101853 -0.1439527425464924 -0.05047561288006156
-0.03100117236907446 -0.14016616060616682 -0.039153182875475305
-0.00790326901713037 -0.13637957866584124 -0.02783075287088904
0.015194634334813719 -0.13259299672551567 -0.01650832286630278
0.038292537686757805 -0.1288064147851901 -0.005185892861716523
0.06139044103870188 -0.1250198328448645 0.0061365371428697335
0.08448834439064597 -0.1212332509045389 0.017458967147456005
0.10758624774259005 -0.11744666896421332 0.02878139715204226
0.13068415109453416 -0.11366008702388773 0.04010382715662852
-0.08911648737375867 -0.13902306114038168 -0.04039708873773817
-0.06601858402181458 -0.13523647920005608 -0.0290746587331519
-0.0429206806698705 -0.1314498972597305 -0.017752228728565644
-0.019822777317926414 -0.12766331531940492 -0.006429798723979382
0.0032751260340176725 -0.12387673337907934 0.004892631280606881
0.026373029385961762 -0.12009015143875376 0.01621506128519314
0.049470932737905836 -0.11630356949842818 0.027537491289779396
0.07256883608984992 -0.11251698755810259 0.03885992129436566
0.095666739441794 -0.10873040561777701 0.05018235129895192
0.11876464279373809 -0.10494382367745142 0.061504781303538175
-0.10103599567455471 -0.13030679779394536 -0.018996134590828506
-0.07793809232261062 -0.12652021585361975 -0.007673704586242244
-0.054840188970666545 -0.12273363391329419 0.003648725418344013
-0.03174228561872246 -0.1189470519729686 0.014971155422930276
-0.008644382266778371 -0.11516047003264301 0.02629358542751654
0.014453521085165717 -0.11137388809231744 0.037616015432102794
0.03755142443710979 -0.10758730615199186 0.04893844543668905
0.06064932778905388 -0.10380072421166626 0.06026087544127532
0.08374723114099797 -0.10001414227134069 0.07158330544586158
0.10684513449294206 -0.0962275603310151 0.08290573545044784
-0.11295550397535076 -0.12159053444750903 0.0024048195560811537
-0.08985760062340667 -0.11780395250718344 0.013727249560667417
-0.0667596972714626 -0.11401737056685786 0.025049679565253672
-0.04366179391951851 -0.11023078862653228 0.03637210956983994
-0.020563890567574416 -0.10644420668620669 0.0476945395744262
0.0025340127843696708 -0.10265762474588111 0.05901696957901246
0.025631916136313746 -0.09887104280555553 0.07033939958359871
0.04872981948825783 -0.09508446086522994 0.08166182958818498
0.07182772284020192 -0.09129787892490436 0.09298425959277123
0.094925626192146 -0.08751129698457877 0.10430668959735749
-0.1248750122761468 -0.11287427110107272 0.0238057737029908
-0.1017771089242027 -0.10908768916074713 0.03512820370757706
-0.07867920557225863 -0.10530110722042155 0.04645063371216332
-0.055581302220314543 -0.10151452528009597 0.05777306371674958
-0.032483398868370456 -0.09772794333977038 0.06909549372133585
-0.009385495516426368 -0.0939413613994448 0.0804179237259221
0.013712407835517706 -0.09015477945911922 0.09174035373050836
0.036810311187461794 -0.08636819751879363 0.10306278373509463
0.05990821453940588 -0.08258161557846805 0.11438521373968089
0.08300611789134997 -0.07879503363814246 0.12570764374426716
-0.13679452057694283 -0.10415800775463639 0.045206727849900465
-0.11369661722499876 -0.1003714258143108 0.05652915785448673
-0.09059871387305468 -0.09658484387398522 0.06785158785907298
-0.0675008105211106 -0.09279826193365964 0.07917401786365924
-0.0444029071691665 -0.08901167999333405 0.09049644786824551
-0.021305003817222414 -0.08522509805300847 0.10181887787283177
0.0017928995347216612 -0.0814385161126829 0.11314130787741802
0.024890802886665748 -0.0776519341723573 0.1244637378820043
0.04798870623860984 -0.07386535223203172 0.13578616788659054
0.07108660959055392 -0.07007877029170613 0.1471085978911768
-0.14871402887773888 -0.09544174440820007 0.06660768199681012
-0.1256161255257948 -0.09165516246787447 0.07793011200139639
-0.10251822217385073 -0.0878685805275489 0.08925254200598265
-0.07942031882190664 -0.08408199858722332 0.1005749720105689
-0.05632241546996255 -0.08029541664689772 0.11189740201515518
-0.03322451211801846 -0.07650883470657215 0.12321983201974143
-0.010126608766074388 -0.07272225276624657 0.13454226202432767
0.0129712945858697 -0.06893567082592097 0.14586469202891394
0.03606919793781379 -0.0651490888855954 0.15718712203350022
0.05916710128975788 -0.061362506945269804 0.16850955203808646
-0.16063353717853493 -0.08672548106176374 0.08800863614371979
-0.13753563382659084 -0.08293889912143815 0.09933106614830604
-0.11443773047464677 -0.07915231718111257 0.1106534961528923
-0.09133982712270268 -0.07536573524078699 0.12197592615747857
-0.06824192377075859 -0.0715791533004614 0.13329835616206484
-0.045144020418814504 -0.06779257136013582 0.14462078616665108
-0.02204611706687043 -0.06400598941981024 0.15594321617123735
0.0010517862850736577 -0.06021940747948465 0.16726564617582362
0.024149689637017746 -0.05643282553915907 0.17858807618040987
0.047247592988961834 -0.05264624359883348 0.18991050618499614
-0.047247592988961834 0.05264624359883348 -0.18991050618499614
-0.024149689637017746 0.05643282553915907 -0.17858807618040987
-0.0010517862850736716 0.06021940747948465 -0.16726564617582362
0.022046117066870416 0.06400598941981023 -0.15594321617123735
0.045144020418814504 0.06779257136013582 -0.14462078616665108
0.06824192377075859 0.0715791533004614 -0.13329835616206484
0.09133982712270267 0.07536573524078698 -0.12197592615747857
0.11443773047464675 0.07915231718111257 -0.11065349615289231
0.13753563382659084 0.08293889912143815 -0.09933106614830604
0.16063353717853493 0.08672548106176374 -0.08800863614371979
-0.05916710128975788 0.061362506945269804 -0.16850955203808646
-0.03606919793781379 0.0651490888855954 -0.15718712203350022
-0.012971294585869713 0.06893567082592097 -0.14586469202891394
0.010126608766074375 0.07272225276624655 -0.1345422620243277
0.03322451211801846 0.07650883470657215 -0.12321983201974143
0.05632241546996255 0.08029541664689772 -0.11189740201515518
0.07942031882190663 0.0840819985872233 -0.10057497201056892
0.10251822217385072 0.0878685805275489 -0.08925254200598265
0.1256161255257948 0.09165516246787447 -0.07793011200139639
0.14871402887773888 0.09544174440820007 -0.06660768199681012
-0.07108660959055392 0.07007877029170613 -0.1471085978911768
-0.04798870623860983 0.07386535223203172 -0.13578616788659056
-0.024890802886665758 0.0776519341723573 -0.12446373788200431
-0.0017928995347216688 0.08143851611268288 -0.11314130787741804
0.021305003817222418 0.08522509805300847 -0.10181887787283178
0.044402907169166506 0.08901167999333405 -0.09049644786824552
0.06750081052111058 0.09279826193365963 -0.07917401786365927
0.09059871387305467 0.09658484387398522 -0.067851587859073
0.11369661722499876 0.1003714258143108 -0.056529157854486735
0.13679452057694286 0.10415800775463639 -0.04520672784990047
-0.08300611789134997 0.07879503363814244 -0.12570764374426716
-0.059908214539405875 0.08258161557846803 -0.1143852137396809
-0.0368103111874618 0.08636819751879361 -0.10306278373509464
-0.013712407835517715 0.09015477945911919 -0.09174035373050837
0.009385495516426373 0.09394136139944478 -0.08041792372592212
0.03248339886837046 0.09772794333977036 -0.06909549372133586
0.05558130222031454 0.10151452528009594 -0.057773063716749604
0.07867920557225862 0.10530110722042153 -0.04645063371216334
0.1017771089242027 0.10908768916074711 -0.03512820370757708
0.1248750122761468 0.1128742711010727 -0.02380577370299081
-0.094925626192146 0.08751129698457877 -0.10430668959735749
-0.07182772284020192 0.09129787892490436 -0.09298425959277123
-0.048729819488257844 0.09508446086522994 -0.08166182958818498
-0.02563191613631376 0.09887104280555552 -0.07033939958359872
-0.0025340127843696708 0.10265762474588111 -0.05901696957901246
0.020563890567574416 0.10644420668620669 -0.0476945395744262
0.04366179391951849 0.11023078862653227 -0.036372109569839946
0.06675969727146258 0.11401737056685786 -0.02504967956525368
0.08985760062340667 0.11780395250718344 -0.013727249560667417
0.11295550397535076 0.12159053444750903 -0.0024048195560811537
-0.10684513449294206 0.0962275603310151 -0.08290573545044784
-0.08374723114099797 0.10001414227134069 -0.07158330544586158
-0.060649327789053895 0.10380072421166626 -0.06026087544127532
-0.03755142443710981 0.10758730615199184 -0.04893844543668906
-0.014453521085165717 0.11137388809231744 -0.037616015432102794
0.008644382266778371 0.11516047003264301 -0.02629358542751654
0.03174228561872244 0.11894705197296859 -0.014971155422930283
0.05484018897066653 0.12273363391329419 -0.00364872541834402
0.07793809232261062 0.12652021585361975 0.007673704586242244
0.10103599567455471 0.13030679779394536 0.018996134590828506
-0.11876464279373809 0.1049438236774514 -0.06150478130353819
-0.095666739441794 0.108730405617777 -0.05018235129895193
-0.07256883608984993 0.11251698755810258 -0.038859921294365676
-0.04947093273790584 0.11630356949842816 -0.027537491289779413
-0.026373029385961755 0.12009015143875375 -0.01621506128519315
-0.0032751260340176665 0.12387673337907933 -0.0048926312806068925
0.019822777317926407 0.12766331531940492 0.006429798723979364
0.042920680669870495 0.1314498972597305 0.017752228728565626
0.06601858402181458 0.13523647920005608 0.02907465873315189
0.08911648737375867 0.13902306114038168 0.04039708873773815
-0.13068415109453413 0.11366008702388773 -0.040103827156628524
-0.10758624774259005 0.11744666896421332 -0.02878139715204227
-0.08448834439064598 0.1212332509045389 -0.017458967147456015
-0.061390441038701886 0.12501983284486448 -0.006136537142869752
-0.0382925376867578 0.1288064147851901 0.005185892861716512
-0.015194634334813712 0.13259299672551567 0.016508322866302768
0.007903269017130362 0.13637957866584124 0.027830752870889024
0.03100117236907445 0.14016616060616682 0.03915318287547529
0.05409907572101854 0.1439527425464924 0.050475612880061554
0.07719697907296262 0.147739324486818 0.06179804288464782
-0.14260365939533018 0.12237635037032406 -0.01870287300971886
-0.1195057560433861 0.12616293231064965 -0.007380443005132605
-0.09640785269144203 0.12994951425097523 0.0039419869994536515
-0.07330994933949794 0.1337360961913008 0.015264417004039915
-0.05021204598755385 0.1375226781316264 0.02658684700862618
-0.02711414263560976 0.141309260071952 0.037909277013212436
-0.004016239283665687 0.14509584201227757 0.04923170701779869
0.019081664068278402 0.14888242395260315 0.060554137022384956
0.04217956742022249 0.15266900589292873 0.07187656702697122
0.06527747077216657 0.15645558783325433 0.08319899703155748
-0.15452316769612623 0.13109261371676037 0.002698081137190794
-0.13142526434418214 0.13487919565708598 0.01402051114177705
-0.10832736099223807 0.13866577759741155 0.025342941146363308
-0.08522945764029398 0.14245235953773713 0.03666537115094957
-0.06213155428834989 0.1462389414780627 0.04798780115553583
-0.0390336509364058 0.1500255234183883 0.05931023116012209
-0.01593574758446173 0.15381210535871387 0.07063266116470834
0.007162155767482359 0.15759868729903947 0.08195509116929461
0.030260059119426447 0.16138526923936505 0.09327752117388087
0.053357962471370535 0.16517185117969063 0.10459995117846714
-0.053357962471370535 -0.16517185117969063 -0.10459995117846714
-0.030260059119426447 -0.16138526923936505 -0.09327752117388087
-0.007162155767482373 -0.15759868729903947 -0.08195509116929461
0.015935747584461715 -0.1538121053587139 -0.07063266116470836
0.0390336509364058 -0.1500255234183883 -0.05931023116012209
0.06213155428834989 -0.1462389414780627 -0.04798780115553583
0.08522945764029397 -0.14245235953773713 -0.036665371150949574
0.10832736099223805 -0.13866577759741155 -0.025342941146363308
0.13142526434418214 -0.13487919565708598 -0.01402051114177705
0.15452316769612623 -0.13109261371676037 -0.002698081137190794
-0.052679032528880676 -0.14096984064874352 -0.11407890173474813
-0.029581129176936588 -0.13718325870841794 -0.10275647173016188
-0.006483225824992521 -0.13339667676809236 -0.09143404172557562
0.016614677526951567 -0.12961009482776678 -0.08011161172098935
0.03971258087889566 -0.12582351288744117 -0.0687891817164031
0.06281048423083975 -0.12203693094711561 -0.05746675171181683
0.08590838758278382 -0.11825034900679003 -0.046144321707230575
0.10900629093472791 -0.11446376706646444 -0.03482189170264431
0.132104194286672 -0.11067718512613886 -0.023499461698058045
0.1552020976386161 -0.10689060318581327 -0.012177031693471787
-0.05200010258639083 -0.1167678301177964 -0.12355785229102913
-0.028902199234446743 -0.11298124817747082 -0.11223542228644287
-0.005804295882502662 -0.10919466623714523 -0.10091299228185661
0.017293607469441426 -0.10540808429681965 -0.08959056227727034
0.040391510821385514 -0.10162150235649406 -0.07826813227268409
0.06348941417332961 -0.09783492041616848 -0.06694570226809783
0.08658731752527368 -0.0940483384758429 -0.055623272263511575
0.10968522087721777 -0.09026175653551732 -0.044300842258925305
0.13278312422916186 -0.08647517459519173 -0.03297841225433905
0.15588102758110595 -0.08268859265486615 -0.02165598224975278
-0.05132117264390097 -0.09256581958684927 -0.13303680284731015
-0.028223269291956884 -0.08877923764652369 -0.12171437284272386
-0.0051253659400128035 -0.0849926557061981 -0.11039194283813761
0.017972537411931284 -0.08120607376587252 -0.09906951283355135
0.04107044076387537 -0.07741949182554693 -0.0877470828289651
0.06416834411581945 -0.07363290988522135 -0.07642465282437882
0.08726624746776354 -0.06984632794489577 -0.06510222281979257
0.11036415081970763 -0.0660597460045702 -0.05377979281520631
0.13346205417165172 -0.0622731640642446 -0.04245736281062004
0.1565599575235958 -0.05848658212391902 -0.03113493280603379
-0.050642242701411114 -0.06836380905590214 -0.14251575340359113
-0.027544339349467026 -0.06457722711557656 -0.13119332339900486
-0.004446435997522952 -0.06079064517525098 -0.11987089339441862
0.018651467354421136 -0.05700406323492539 -0.10854846338983234
0.041749370706365224 -0.05321748129459981 -0.09722603338524609
0.06484727405830931 -0.04943089935427422 -0.08590360338065983
0.08794517741025339 -0.04564431741394864 -0.07458117337607358
0.11104308076219747 -0.04185773547362306 -0.0632587433714873
0.13414098411414158 -0.03807115353329747 -0.05193631336690104
0.15723888746608566 -0.034284571592971894 -0.04061388336231478
-0.049963312758921255 -0.04416179852495501 -0.15199470395987214
-0.026865409406977167 -0.04037521658462943 -0.14067227395528586
-0.0037675060550330926 -0.03658863464430385 -0.12934984395069962
0.019330397296910995 -0.03280205270397826 -0.11802741394611335
0.04242830064885508 -0.029015470763652677 -0.1067049839415271
0.06552620400079917 -0.025228888823327092 -0.09538255393694083
0.08862410735274324 -0.02144230688300151 -0.08406012393235457
0.11172201070468733 -0.017655724942675928 -0.07273769392776831
0.13481991405663143 -0.013869143002350344 -0.06141526392318205
0.15791781740857552 -0.010082561062024762 -0.050092833918595786
-0.049284382816431396 -0.019959787994007893 -0.16147365451615314
-0.02618647946448731 -0.01617320605368231 -0.15015122451156687
-0.0030885761125432408 -0.01238662411335673 -0.1388287945069806
0.020009327239400847 -0.008600042173031145 -0.12750636450239436
0.043107230591344935 -0.004813460232705559 -0.11618393449780809
0.06620513394328903 -0.0010268782923799806 -0.10486150449322182
0.0893030372952331 0.002759703647945605 -0.09353907448863558
0.11240094064717719 0.006546285588271183 -0.0822166444840493
0.1354988439991213 0.010332867528596775 -0.07089421447946305
0.15859674735106538 0.014119449468922353 -0.05957178447487678
-0.04860545287394155 0.004242222536939236 -0.17095260507243415
-0.025507549521997464 0.008028804477264813 -0.15963017506784788
-0.002409646170053382 0.011815386417590399 -0.1483077450632616
0.020688257181890705 0.015601968357915984 -0.13698531505867534
0.04378616053383479 0.01938855029824157 -0.1256628850540891
0.06688406388577889 0.02317513223856715 -0.11434045504950283
0.08998196723772296 0.026961714178892735 -0.10301802504491657
0.11307987058966705 0.030748296119218314 -0.09169559504033031
0.13617777394161112 0.0345348780595439 -0.08037316503574404
0.1592756772935552 0.03832145999986948 -0.06905073503115779
-0.04792652293145169 0.028444233067886366 -0.18043155562871513
-0.024828619579507605 0.032230815008211955 -0.1691091256241289
-0.0017307162275635233 0.03601739694853753 -0.15778669561954262
0.021367187124380564 0.03980397888886311 -0.14646426561495635
0.04446509047632465 0.043590560829188704 -0.13514183561037008
0.06756299382826873 0.04737714276951428 -0.12381940560578382
0.09066089718021282 0.05116372470983986 -0.11249697560119758
0.11375880053215691 0.054950306650165454 -0.1011745455966113
0.13685670388410098 0.05873688859049103 -0.08985211559202505
0.15995460723604507 0.06252347053081662 -0.07852968558743878
-0.047247592988961834 0.05264624359883348 -0.18991050618499614
-0.024149689637017746 0.05643282553915907 -0.17858807618040987
-0.0010517862850736716 0.06021940747948465 -0.16726564617582362
0.022046117066870416 0.06400598941981023 -0.15594321617123735
0.045144020418814504 0.06779257136013582 -0.14462078616665108
0.06824192377075859 0.0715791533004614 -0.13329835616206484
0.09133982712270267 0.07536573524078698 -0.12197592615747857
0.11443773047464675 0.07915231718111257 -0.11065349615289231
0.13753563382659084 0.08293889912143815 -0.09933106614830604
0.16063353717853493 0.08672548106176374 -0.08800863614371979
-0.16063353717853493 -0.08672548106176374 0.08800863614371979
-0.13753563382659084 -0.08293889912143815 0.09933106614830604
-0.11443773047464677 -0.07915231718111257 0.1106534961528923
-0.09133982712270268 -0.07536573524078699 0.12197592615747857
-0.06824192377075859 -0.0715791533004614 0.13329835616206484
-0.045144020418814504 -0.06779257136013582 0.14462078616665108
-0.02204611706687043 -0.06400598941981024 0.15594321617123735
0.0010517862850736577 -0.06021940747948465 0.16726564617582362
0.024149689637017746 -0.05643282553915907 0.17858807618040987
0.047247592988961834 -0.05264624359883348 0.18991050618499614
-0.15995460723604507 -0.06252347053081662 0.07852968558743878
-0.13685670388410098 -0.05873688859049103 0.08985211559202505
-0.11375880053215692 -0.054950306650165454 0.1011745455966113
-0.09066089718021283 -0.051163724709839875 0.11249697560119756
-0.06756299382826873 -0.04737714276951428 0.12381940560578382
-0.04446509047632465 -0.043590560829188704 0.13514183561037008
-0.021367187124380578 -0.039803978888863126 0.14646426561495635
0.0017307162275635095 -0.03601739694853753 0.15778669561954262
0.024828619579507605 -0.032230815008211955 0.1691091256241289
0.04792652293145169 -0.028444233067886366 0.18043155562871513
-0.15927567729355524 -0.038321459999869495 0.06905073503115779
-0.13617777394161115 -0.034534878059543916 0.08037316503574404
-0.11307987058966706 -0.030748296119218328 0.0916955950403303
-0.08998196723772298 -0.02696171417889275 0.10301802504491657
-0.06688406388577889 -0.023175132238567164 0.11434045504950283
-0.04378616053383479 -0.019388550298241585 0.1256628850540891
-0.02068825718189072 -0.015601968357915998 0.13698531505867534
0.002409646170053368 -0.01181538641759042 0.1483077450632616
0.02550754952199745 -0.008028804477264827 0.15963017506784788
0.04860545287394154 -0.0042422225369392495 0.17095260507243415
-0.15859674735106538 -0.014119449468922367 0.05957178447487678
-0.1354988439991213 -0.010332867528596789 0.07089421447946305
-0.1124009406471772 -0.006546285588271204 0.0822166444840493
-0.08930303729523312 -0.0027597036479456187 0.09353907448863556
-0.06620513394328903 0.0010268782923799668 0.10486150449322183
-0.04310723059134494 0.004813460232705545 0.11618393449780809
-0.02000932723940086 0.008600042173031132 0.12750636450239433
0.003088576112543227 0.012386624113356713 0.1388287945069806
0.02618647946448731 0.016173206053682297 0.15015122451156687
0.049284382816431396 0.01995978799400788 0.16147365451615314
-0.15791781740857552 0.010082561062024762 0.050092833918595786
-0.13481991405663143 0.013869143002350344 0.06141526392318205
-0.11172201070468735 0.017655724942675925 0.0727376939277683
-0.08862410735274326 0.02144230688300151 0.08406012393235457
-0.06552620400079917 0.025228888823327092 0.09538255393694083
-0.04242830064885508 0.029015470763652677 0.1067049839415271
-0.01933039729691101 0.03280205270397826 0.11802741394611334
0.0037675060550330787 0.03658863464430384 0.12934984395069962
0.026865409406977167 0.04037521658462943 0.14067227395528586
0.049963312758921255 0.04416179852495501 0.15199470395987214
-0.15723888746608566 0.034284571592971894 0.04061388336231478
-0.13414098411414158 0.03807115353329747 0.05193631336690104
-0.11104308076219749 0.04185773547362306 0.0632587433714873
-0.0879451774102534 0.04564431741394864 0.07458117337607356
-0.06484727405830931 0.04943089935427422 0.08590360338065983
-0.041749370706365224 0.05321748129459981 0.09722603338524609
-0.01865146735442115 0.05700406323492539 0.10854846338983234
0.004446435997522938 0.06079064517525097 0.1198708933944186
0.027544339349467026 0.06457722711557656 0.13119332339900486
0.050642242701411114 0.06836380905590214 0.14251575340359113
-0.1565599575235958 0.05848658212391901 0.03113493280603379
-0.13346205417165172 0.06227316406424459 0.04245736281062005
-0.11036415081970764 0.06605974600457017 0.053779792815206305
-0.08726624746776356 0.06984632794489576 0.06510222281979257
-0.06416834411581945 0.07363290988522134 0.07642465282437884
-0.04107044076387537 0.07741949182554692 0.0877470828289651
-0.0179725374119313 0.08120607376587251 0.09906951283355135
0.00512536594001279 0.08499265570619809 0.11039194283813761
0.028223269291956884 0.08877923764652368 0.12171437284272388
0.05132117264390097 0.09256581958684926 0.13303680284731015
-0.15588102758110595 0.08268859265486614 0.02165598224975278
-0.13278312422916186 0.08647517459519172 0.03297841225433905
-0.10968522087721778 0.0902617565355173 0.044300842258925305
-0.0865873175252737 0.09404833847584289 0.05562327226351157
-0.06348941417332961 0.09783492041616847 0.06694570226809783
-0.040391510821385514 0.10162150235649405 0.07826813227268409
-0.01729360746944144 0.10540808429681964 0.08959056227727034
0.005804295882502648 0.10919466623714522 0.10091299228185661
0.02890219923444673 0.11298124817747081 0.11223542228644287
0.05200010258639082 0.11676783011779639 0.12355785229102914
-0.1552020976386161 0.10689060318581327 0.012177031693471787
-0.132104194286672 0.11067718512613886 0.023499461698058045
-0.10900629093472793 0.11446376706646444 0.034821891702644305
-0.08590838758278384 0.11825034900679002 0.04614432170723057
-0.06281048423083975 0.12203693094711561 0.05746675171181683
-0.03971258087889566 0.12582351288744117 0.0687891817164031
-0.01661467752695158 0.12961009482776675 0.08011161172098935
0.006483225824992507 0.13339667676809236 0.09143404172557561
0.029581129176936588 0.13718325870841794 0.10275647173016188
0.052679032528880676 0.14096984064874352 0.11407890173474813
-0.15452316769612623 0.13109261371676037 0.002698081137190794
-0.13142526434418214 0.13487919565708598 0.01402051114177705
-0.10832736099223807 0.13866577759741155 0.025342941146363308
-0.08522945764029398 0.14245235953773713 0.03666537115094957
-0.06213155428834989 0.1462389414780627 0.04798780115553583
-0.0390336509364058 0.1500255234183883 0.05931023116012209
-0.01593574758446173 0.15381210535871387 0.07063266116470834
0.007162155767482359 0.15759868729903947 0.08195509116929461
0.030260059119426447 0.16138526923936505 0.09327752117388087
0.053357962471370535 0.16517185117969063 0.10459995117846714
