# .PCD v0.7 - Point Cloud Data file format
VERSION 0.7
FIELDS x y z
SIZE 4 4 4
TYPE F F F
COUNT 1 1 1
WIDTH 600
HEIGHT 1
VIEWPOINT 0 0 0 1 0 0 0
POINTS 600
DATA ascii
-0.1478454608122117 -0.137573135570403 -0.11449881735673097
-0.14307875917456725 -0.10876930100082688 -0.1203955982556204
-0.13831205753692283 -0.07996546643125077 -0.12629237915450986
-0.13354535589927838 -0.05116163186167466 -0.1321891600533993
-0.12877865426163393 -0.022357797292098545 -0.13808594095228874
-0.12401195262398952 0.00644603727747757 -0.1439827218511782
-0.11924525098634507 0.03524987184705367 -0.14987950275006764
-0.11447854934870064 0.06405370641662976 -0.15577628364895707
-0.10971184771105619 0.09285754098620588 -0.16167306454784652
-0.10494514607341175 0.121661375555782 -0.16756984544673598
-0.14913074866696993 -0.13140092592089744 -0.08538857485419761
-0.14436404702932548 -0.10259709135132133 -0.09128535575308706
-0.13959734539168106 -0.07379325678174523 -0.0971821366519765
-0.1348306437540366 -0.04498942221216912 -0.10307891755086596
-0.13006394211639216 -0.016185587642593008 -0.1089756984497554
-0.12529724047874774 0.01261824692698311 -0.11487247934864485
-0.12053053884110329 0.04142208149655921 -0.12076926024753429
-0.11576383720345886 0.0702259160661353 -0.12666604114642374
-0.1109971355658144 0.09902975063571143 -0.1325628220453132
-0.10623043392816997 0.12783358520528756 -0.13845960294420262
-0.15041603652172816 -0.12522871627139193 -0.05627833235166427
-0.14564933488408371 -0.09642488170181579 -0.062175113250553714
-0.1408826332464393 -0.06762104713223968 -0.06807189414944316
-0.13611593160879484 -0.03881721256266358 -0.0739686750483326
-0.1313492299711504 -0.010013377993087467 -0.07986545594722205
-0.12658252833350597 0.01879045657648865 -0.08576223684611149
-0.12181582669586152 0.047594291146064754 -0.09165901774500095
-0.11704912505821709 0.07639812571564085 -0.09755579864389038
-0.11228242342057264 0.10520196028521697 -0.10345257954277984
-0.1075157217829282 0.13400579485479308 -0.10934936044166928
-0.1517013243764864 -0.11905650662188638 -0.027168089849130918
-0.14693462273884195 -0.09025267205231026 -0.033064870748020364
-0.14216792110119753 -0.061448837482734144 -0.03896165164690981
-0.13740121946355308 -0.03264500291315804 -0.04485843254579926
-0.13263451782590863 -0.003841168343581927 -0.0507552134446887
-0.1278678161882642 0.02496266622599419 -0.05665199434357815
-0.12310111455061976 0.05376650079557029 -0.06254877524246759
-0.11833441291297532 0.08257033536514638 -0.06844555614135704
-0.11356771127533087 0.1113741699347225 -0.0743423370402465
-0.10880100963768644 0.14017800450429863 -0.08023911793913593
-0.15298661223124463 -0.11288429697238084 0.0019421526534024328
-0.14821991059360018 -0.08408046240280471 -0.003954628245487012
-0.14345320895595576 -0.055276627833228606 -0.009851409144376459
-0.1386865073183113 -0.0264727932636525 -0.015748190043265903
-0.13391980568066686 0.0023310413059236135 -0.02164497094215535
-0.12915310404302244 0.031134875875499728 -0.027541751841044796
-0.12438640240537799 0.05993871044507583 -0.03343853273993424
-0.11961970076773355 0.08874254501465192 -0.039335313638823685
-0.1148529991300891 0.11754637958422805 -0.04523209453771314
-0.11008629749244467 0.14635021415380417 -0.051128875436602585
-0.15427190008600286 -0.1067120873228753 0.03105239515593579
-0.1495051984483584 -0.07790825275329917 0.025155614257046342
-0.144738496810714 -0.04910441818372306 0.019258833358156896
-0.13997179517306954 -0.020300583614146956 0.013362052459267451
-0.1352050935354251 0.008503250955429155 0.007465271560378004
-0.13043839189778067 0.03730708552500527 0.001568490661488558
-0.12567169026013622 0.06611092009458137 -0.0043282902374008865
-0.12090498862249179 0.09491475466415747 -0.010225071136290328
-0.11613828698484734 0.12371858923373359 -0.01612185203517978
-0.1113715853472029 0.15252242380330971 -0.022018632934069228
-0.1555571879407611 -0.10053987767336976 0.060162637658469124
-0.15079048630311664 -0.07173604310379364 0.05426585675957968
-0.14602378466547222 -0.042932208534217524 0.04836907586069023
-0.14125708302782777 -0.01412837396464142 0.042472294961800786
-0.13649038139018332 0.014675460604934692 0.03657551406291134
-0.1317236797525389 0.04347929517451081 0.030678733164021896
-0.12695697811489445 0.0722831297440869 0.02478195226513245
-0.12219027647725002 0.101086964313663 0.018885171366243007
-0.11742357483960557 0.12989079888323912 0.012988390467353556
-0.11265687320196113 0.15869463345281526 0.00709160956846411
-0.15684247579551933 -0.09436766802386422 0.08927288016100247
-0.15207577415787488 -0.0655638334542881 0.08337609926211303
-0.14730907252023046 -0.036759998884711986 0.07747931836322358
-0.142542370882586 -0.007956164315135881 0.07158253746433414
-0.13777566924494156 0.02084767025444023 0.06568575656544469
-0.13300896760729713 0.04965150482401635 0.05978897566655524
-0.12824226596965269 0.07845533939359245 0.0538921947676658
-0.12347556433200825 0.10725917396316854 0.04799541386877636
-0.1187088626943638 0.13606300853274467 0.042098632969886904
-0.11394216105671937 0.1648668431023208 0.03620185207099746
-0.15812776365027756 -0.08819545837435867 0.11838312266353583
-0.1533610620126331 -0.05939162380478255 0.11248634176464639
-0.1485943603749887 -0.030587789235206442 0.10658956086575694
-0.14382765873734424 -0.001783954665630338 0.1006927799668675
-0.1390609570996998 0.027019879903945776 0.09479599906797805
-0.13429425546205537 0.05582371447352189 0.0888992181690886
-0.12952755382441092 0.084627549043098 0.08300243727019917
-0.12476085218676648 0.11343138361267409 0.07710565637130971
-0.11999415054912203 0.1422352181822502 0.07120887547242026
-0.1152274489114776 0.17103905275182632 0.06531209457353082
-0.1594130515050358 -0.08202324872485313 0.14749336516606917
-0.15464634986739134 -0.05321941415527701 0.14159658426717975
-0.14987964822974692 -0.024415579585700904 0.1356998033682903
-0.14511294659210247 0.004388254983875201 0.12980302246940084
-0.14034624495445802 0.033192089553451314 0.1239062415705114
-0.1355795433168136 0.06199592412302743 0.11800946067162195
-0.13081284167916915 0.09079975869260354 0.11211267977273251
-0.1260461400415247 0.11960359326217963 0.10621589887384307
-0.12127943840388025 0.14840742783175576 0.10031911797495362
-0.11651273676623582 0.17721126240133186 0.09442233707606416
0.11651273676623582 -0.17721126240133186 -0.09442233707606416
0.12127943840388025 -0.14840742783175576 -0.10031911797495362
0.1260461400415247 -0.11960359326217965 -0.10621589887384306
0.13081284167916915 -0.09079975869260355 -0.11211267977273251
0.1355795433168136 -0.06199592412302743 -0.11800946067162195
0.14034624495445802 -0.033192089553451314 -0.1239062415705114
0.14511294659210247 -0.004388254983875215 -0.12980302246940084
0.14987964822974692 0.02441557958570089 -0.1356998033682903
0.15464634986739134 0.05321941415527701 -0.14159658426717975
0.1594130515050358 0.08202324872485313 -0.14749336516606917
0.1152274489114776 -0.17103905275182632 -0.06531209457353082
0.11999415054912203 -0.1422352181822502 -0.07120887547242026
0.12476085218676648 -0.1134313836126741 -0.07710565637130971
0.12952755382441092 -0.08462754904309801 -0.08300243727019915
0.13429425546205537 -0.05582371447352189 -0.0888992181690886
0.1390609570996998 -0.027019879903945776 -0.09479599906797805
0.14382765873734424 0.0017839546656303242 -0.1006927799668675
0.1485943603749887 0.030587789235206428 -0.10658956086575694
0.1533610620126331 0.05939162380478255 -0.11248634176464639
0.15812776365027756 0.08819545837435867 -0.11838312266353583
0.11394216105671937 -0.1648668431023208 -0.03620185207099747
0.1187088626943638 -0.13606300853274467 -0.04209863296988692
0.12347556433200825 -0.10725917396316856 -0.047995413868776364
0.12824226596965269 -0.07845533939359246 -0.05389219476766581
0.13300896760729713 -0.04965150482401635 -0.05978897566655526
0.13777566924494156 -0.020847670254440235 -0.0656857565654447
0.142542370882586 0.007956164315135864 -0.07158253746433414
0.14730907252023046 0.03675999888471197 -0.0774793183632236
0.15207577415787488 0.0655638334542881 -0.08337609926211305
0.15684247579551933 0.09436766802386422 -0.08927288016100249
0.11265687320196113 -0.15869463345281526 -0.007091609568464123
0.11742357483960557 -0.12989079888323912 -0.01298839046735357
0.12219027647725002 -0.10108696431366303 -0.018885171366243014
0.12695697811489445 -0.07228312974408693 -0.02478195226513246
0.1317236797525389 -0.04347929517451081 -0.03067873316402191
0.13649038139018332 -0.014675460604934696 -0.03657551406291135
0.14125708302782777 0.014128373964641403 -0.0424722949618008
0.14602378466547222 0.04293220853421751 -0.048369075860690246
0.15079048630311664 0.07173604310379363 -0.05426585675957969
0.1555571879407611 0.10053987767336975 -0.06016263765846914
0.1113715853472029 -0.15252242380330971 0.022018632934069228
0.11613828698484734 -0.12371858923373359 0.01612185203517978
0.12090498862249179 -0.09491475466415748 0.010225071136290335
0.12567169026013622 -0.06611092009458139 0.00432829023740089
0.13043839189778067 -0.03730708552500527 -0.001568490661488558
0.1352050935354251 -0.008503250955429155 -0.007465271560378004
0.13997179517306954 0.020300583614146942 -0.01336205245926745
0.144738496810714 0.04910441818372305 -0.019258833358156893
0.1495051984483584 0.07790825275329917 -0.025155614257046342
0.15427190008600286 0.1067120873228753 -0.03105239515593579
0.11008629749244467 -0.14635021415380417 0.051128875436602585
0.1148529991300891 -0.11754637958422805 0.04523209453771314
0.11961970076773355 -0.08874254501465194 0.03933531363882369
0.12438640240537799 -0.05993871044507584 0.033438532739934246
0.12915310404302244 -0.031134875875499728 0.027541751841044796
0.13391980568066686 -0.0023310413059236135 0.02164497094215535
0.1386865073183113 0.026472793263652487 0.015748190043265907
0.14345320895595576 0.05527662783322859 0.009851409144376462
0.14821991059360018 0.08408046240280471 0.003954628245487012
0.15298661223124463 0.11288429697238084 -0.0019421526534024328
0.10880100963768644 -0.14017800450429863 0.08023911793913592
0.11356771127533087 -0.11137416993472252 0.07434233704024648
0.11833441291297532 -0.08257033536514641 0.06844555614135703
0.12310111455061976 -0.053766500795570306 0.06254877524246759
0.1278678161882642 -0.024962666225994194 0.056651994343578135
0.13263451782590863 0.003841168343581924 0.05075521344468869
0.13740121946355308 0.03264500291315802 0.04485843254579924
0.14216792110119753 0.06144883748273413 0.038961651646909796
0.14693462273884195 0.09025267205231025 0.03306487074802035
0.1517013243764864 0.11905650662188637 0.027168089849130904
0.1075157217829282 -0.13400579485479308 0.10934936044166928
0.11228242342057264 -0.10520196028521697 0.10345257954277982
0.11704912505821709 -0.07639812571564086 0.09755579864389038
0.12181582669586152 -0.04759429114606477 0.09165901774500093
0.12658252833350597 -0.018790456576488652 0.08576223684611148
0.1313492299711504 0.010013377993087463 0.07986545594722204
0.13611593160879484 0.038817212562663565 0.0739686750483326
0.1408826332464393 0.06762104713223967 0.06807189414944315
0.14564933488408371 0.09642488170181579 0.0621751132505537
0.15041603652172816 0.12522871627139193 0.056278332351664254
0.10623043392816997 -0.12783358520528756 0.13845960294420262
0.1109971355658144 -0.09902975063571143 0.1325628220453132
0.11576383720345886 -0.07022591606613532 0.12666604114642374
0.12053053884110329 -0.041422081496559224 0.12076926024753429
0.12529724047874774 -0.01261824692698311 0.11487247934864485
0.13006394211639216 0.016185587642593008 0.1089756984497554
0.1348306437540366 0.0449894222121691 0.10307891755086596
0.13959734539168106 0.07379325678174521 0.0971821366519765
0.14436404702932548 0.10259709135132133 0.09128535575308706
0.14913074866696993 0.13140092592089744 0.08538857485419761
0.10494514607341175 -0.121661375555782 0.16756984544673598
0.10971184771105619 -0.09285754098620588 0.16167306454784652
0.11447854934870064 -0.06405370641662977 0.1557762836489571
0.11924525098634507 -0.035249871847053686 0.14987950275006764
0.12401195262398952 -0.00644603727747757 0.1439827218511782
0.12877865426163393 0.022357797292098545 0.13808594095228874
0.13354535589927838 0.05116163186167465 0.1321891600533993
0.13831205753692283 0.07996546643125076 0.12629237915450986
0.14307875917456725 0.10876930100082688 0.1203955982556204
0.1478454608122117 0.137573135570403 0.11449881735673097
-0.1478454608122117 -0.137573135570403 -0.11449881735673097
-0.11847232774793978 -0.14197737188495063 -0.11226809732554577
-0.08909919468366782 -0.1463816081994983 -0.11003737729436057
-0.05972606161939587 -0.15078584451404595 -0.10780665726317537
-0.03035292855512392 -0.1551900808285936 -0.10557593723199017
-0.0009797954908519644 -0.15959431714314126 -0.10334521720080497
0.028393337573419976 -0.1639985534576889 -0.10111449716961977
0.05776647063769192 -0.16840278977223655 -0.09888377713843458
0.08713960370196389 -0.17280702608678422 -0.09665305710724936
0.11651273676623582 -0.17721126240133186 -0.09442233707606416
-0.14913074866696993 -0.13140092592089744 -0.08538857485419761
-0.119757615602698 -0.1358051622354451 -0.08315785482301241
-0.09038448253842604 -0.14020939854999276 -0.08092713479182721
-0.061011349474154104 -0.1446136348645404 -0.07869641476064201
-0.03163821640988215 -0.14901787117908805 -0.07646569472945682
-0.002265083345610195 -0.15342210749363572 -0.07423497469827162
0.027108049718661743 -0.15782634380818336 -0.07200425466708642
0.05648118278293369 -0.162230580122731 -0.06977353463590122
0.08585431584720567 -0.16663481643727868 -0.06754281460471602
0.1152274489114776 -0.17103905275182632 -0.06531209457353082
-0.15041603652172816 -0.12522871627139193 -0.05627833235166427
-0.12104290345745623 -0.12963295258593957 -0.05404761232047906
-0.09166977039318427 -0.13403718890048721 -0.05181689228929386
-0.06229663732891234 -0.13844142521503489 -0.049586172258108664
-0.032923504264640385 -0.14284566152958253 -0.047355452226923465
-0.003550371200368426 -0.1472498978441302 -0.04512473219573827
0.025822761863903514 -0.15165413415867784 -0.04289401216455307
0.055195894928175455 -0.1560583704732255 -0.040663292133367876
0.08456902799244743 -0.16046260678777316 -0.03843257210218267
0.11394216105671937 -0.1648668431023208 -0.03620185207099747
-0.1517013243764864 -0.11905650662188638 -0.027168089849130918
-0.12232819131221447 -0.12346074293643403 -0.024937369817945716
-0.0929550582479425 -0.12786497925098167 -0.022706649786760517
-0.06358192518367056 -0.13226921556552934 -0.020475929755575318
-0.03420879211939861 -0.13667345188007698 -0.01824520972439012
-0.004835659055126657 -0.14107768819462466 -0.01601448969320492
0.024537474009145282 -0.1454819245091723 -0.013783769662019723
0.05391060707341723 -0.14988616082371994 -0.011553049630834528
0.0832837401376892 -0.15429039713826762 -0.009322329599649322
0.11265687320196113 -0.15869463345281526 -0.007091609568464123
-0.15298661223124463 -0.11288429697238084 0.0019421526534024328
-0.1236134791669727 -0.11728853328692848 0.004172872684587635
-0.09424034610270074 -0.12169276960147614 0.006403592715772834
-0.0648672130384288 -0.1260970059160238 0.008634312746958032
-0.03549407997415684 -0.13050124223057144 0.01086503277814323
-0.006120946909884887 -0.1349054785451191 0.01309575280932843
0.023252186154387053 -0.13930971485966676 0.015326472840513628
0.052625319218659 -0.1437139511742144 0.017557192871698823
0.08199845228293097 -0.14811818748876207 0.01978791290288403
0.1113715853472029 -0.15252242380330971 0.022018632934069228
-0.15427190008600286 -0.1067120873228753 0.03105239515593579
-0.12489876702173093 -0.11111632363742294 0.03328311518712099
-0.09552563395745897 -0.1155205599519706 0.035513835218306186
-0.06615250089318703 -0.11992479626651825 0.037744555249491385
-0.036779367828915076 -0.1243290325810659 0.039975275280676584
-0.007406234764643118 -0.12873326889561357 0.04220599531186178
0.02196689829962882 -0.1331375052101612 0.04443671534304698
0.051340031363900765 -0.13754174152470885 0.04666743537423218
0.08071316442817274 -0.14194597783925653 0.048898155405417386
0.11008629749244467 -0.14635021415380417 0.051128875436602585
-0.1555571879407611 -0.10053987767336976 0.060162637658469124
-0.12618405487648915 -0.1049441139879174 0.06239335768965433
-0.0968109218122172 -0.10934835030246506 0.06462407772083953
-0.06743778874794526 -0.11375258661701272 0.06685479775202473
-0.03806465568367331 -0.11815682293156037 0.06908551778320993
-0.008691522619401348 -0.12256105924610804 0.07131623781439513
0.02068161044487059 -0.12696529556065567 0.07354695784558032
0.05005474350914253 -0.1313695318752033 0.07577767787676552
0.0794278765734145 -0.13577376818975098 0.07800839790795072
0.10880100963768644 -0.14017800450429863 0.08023911793913592
-0.15684247579551933 -0.09436766802386422 0.08927288016100247
-0.12746934273124738 -0.09877190433841186 0.09150360019218767
-0.09809620966697544 -0.10317614065295952 0.09373432022337287
-0.06872307660270349 -0.10758037696750718 0.09596504025455807
-0.039349943538431534 -0.11198461328205482 0.09819576028574327
-0.009976810474159579 -0.11638884959660249 0.10042648031692847
0.01939632259011236 -0.12079308591115014 0.10265720034811367
0.04876945565438431 -0.12519732222569777 0.10488792037929887
0.07814258871865627 -0.12960155854024544 0.10711864041048408
0.1075157217829282 -0.13400579485479308 0.10934936044166928
-0.15812776365027756 -0.08819545837435867 0.11838312266353583
-0.12875463058600561 -0.09259969468890632 0.12061384269472104
-0.09938149752173367 -0.09700393100345397 0.12284456272590624
-0.07000836445746172 -0.10140816731800163 0.12507528275709143
-0.040635231393189766 -0.10581240363254928 0.12730600278827664
-0.011262098328917811 -0.11021663994709695 0.12953672281946182
0.01811103473535413 -0.11462087626164459 0.13176744285064704
0.047484167799626074 -0.11902511257619224 0.13399816288183222
0.07685730086389804 -0.1234293488907399 0.13622888291301744
0.10623043392816997 -0.12783358520528756 0.13845960294420262
-0.1594130515050358 -0.08202324872485313 0.14749336516606917
-0.13003991844076385 -0.08642748503940077 0.1497240851972544
-0.10066678537649189 -0.09083172135394843 0.1519548052284396
-0.07129365231221994 -0.09523595766849609 0.15418552525962478
-0.041920519247948 -0.09964019398304373 0.15641624529081
-0.01254738618367604 -0.1040444302975914 0.15864696532199518
0.016825746880595897 -0.10844866661213905 0.1608776853531804
0.04619887994486784 -0.11285290292668669 0.16310840538436558
0.07557201300913982 -0.11725713924123436 0.1653391254155508
0.10494514607341175 -0.121661375555782 0.16756984544673598
-0.10494514607341175 0.121661375555782 -0.16756984544673598
-0.07557201300913982 0.11725713924123436 -0.1653391254155508
-0.046198879944867856 0.11285290292668669 -0.16310840538436558
-0.01682574688059591 0.10844866661213905 -0.1608776853531804
0.01254738618367604 0.1040444302975914 -0.15864696532199518
0.041920519247948 0.09964019398304373 -0.15641624529081
0.07129365231221993 0.09523595766849609 -0.15418552525962478
0.10066678537649187 0.09083172135394843 -0.1519548052284396
0.13003991844076385 0.08642748503940077 -0.1497240851972544
0.1594130515050358 0.08202324872485313 -0.14749336516606917
-0.10623043392816997 0.12783358520528756 -0.13845960294420262
-0.07685730086389804 0.1234293488907399 -0.13622888291301744
-0.04748416779962609 0.11902511257619224 -0.13399816288183222
-0.018111034735354144 0.11462087626164459 -0.13176744285064704
0.011262098328917811 0.11021663994709695 -0.12953672281946182
0.040635231393189766 0.10581240363254928 -0.12730600278827664
0.07000836445746171 0.10140816731800163 -0.12507528275709143
0.09938149752173366 0.09700393100345397 -0.12284456272590624
0.12875463058600561 0.09259969468890632 -0.12061384269472104
0.15812776365027756 0.08819545837435867 -0.11838312266353583
-0.1075157217829282 0.13400579485479308 -0.10934936044166928
-0.07814258871865627 0.12960155854024544 -0.10711864041048408
-0.04876945565438432 0.12519732222569777 -0.10488792037929888
-0.019396322590112373 0.12079308591115014 -0.10265720034811368
0.00997681047415958 0.11638884959660249 -0.10042648031692848
0.039349943538431534 0.11198461328205482 -0.09819576028574328
0.06872307660270348 0.10758037696750718 -0.09596504025455808
0.09809620966697542 0.10317614065295952 -0.09373432022337289
0.12746934273124738 0.09877190433841186 -0.09150360019218769
0.15684247579551933 0.09436766802386422 -0.08927288016100249
-0.10880100963768644 0.14017800450429863 -0.08023911793913593
-0.0794278765734145 0.13577376818975098 -0.07800839790795074
-0.050054743509142546 0.1313695318752033 -0.07577767787676554
-0.020681610444870605 0.12696529556065567 -0.07354695784558034
0.00869152261940135 0.12256105924610802 -0.07131623781439514
0.03806465568367331 0.11815682293156035 -0.06908551778320994
0.06743778874794525 0.11375258661701271 -0.06685479775202474
0.09681092181221719 0.10934835030246505 -0.06462407772083954
0.12618405487648915 0.10494411398791739 -0.062393357689654344
0.1555571879407611 0.10053987767336975 -0.06016263765846914
-0.11008629749244467 0.14635021415380417 -0.051128875436602585
-0.08071316442817274 0.14194597783925653 -0.048898155405417386
-0.05134003136390078 0.13754174152470885 -0.04666743537423219
-0.021966898299628834 0.1331375052101612 -0.04443671534304698
0.007406234764643118 0.12873326889561357 -0.04220599531186178
0.036779367828915076 0.1243290325810659 -0.039975275280676584
0.06615250089318701 0.11992479626651825 -0.037744555249491385
0.09552563395745896 0.1155205599519706 -0.035513835218306186
0.12489876702173093 0.11111632363742294 -0.03328311518712099
0.15427190008600286 0.1067120873228753 -0.03105239515593579
-0.1113715853472029 0.15252242380330971 -0.022018632934069228
-0.08199845228293097 0.14811818748876207 -0.01978791290288403
-0.05262531921865901 0.1437139511742144 -0.01755719287169883
-0.023252186154387067 0.13930971485966676 -0.015326472840513628
0.006120946909884887 0.1349054785451191 -0.01309575280932843
0.03549407997415684 0.13050124223057144 -0.01086503277814323
0.06486721303842878 0.1260970059160238 -0.008634312746958032
0.09424034610270073 0.12169276960147614 -0.006403592715772834
0.1236134791669727 0.11728853328692848 -0.004172872684587635
0.15298661223124463 0.11288429697238084 -0.0019421526534024328
-0.11265687320196113 0.15869463345281526 0.00709160956846411
-0.0832837401376892 0.15429039713826762 0.009322329599649308
-0.053910607073417244 0.14988616082371994 0.011553049630834507
-0.024537474009145296 0.1454819245091723 0.01378376966201971
0.004835659055126657 0.14107768819462466 0.016014489693204906
0.03420879211939861 0.13667345188007698 0.018245209724390105
0.06358192518367055 0.13226921556552934 0.020475929755575304
0.09295505824794249 0.12786497925098167 0.022706649786760503
0.12232819131221447 0.12346074293643401 0.0249373698179457
0.1517013243764864 0.11905650662188637 0.027168089849130904
-0.11394216105671937 0.1648668431023208 0.03620185207099746
-0.08456902799244743 0.16046260678777316 0.038432572102182656
-0.05519589492817547 0.1560583704732255 0.040663292133367855
-0.025822761863903528 0.15165413415867784 0.04289401216455306
0.0035503712003684264 0.1472498978441302 0.04512473219573826
0.032923504264640385 0.14284566152958253 0.04735545222692346
0.06229663732891232 0.13844142521503489 0.04958617225810866
0.09166977039318426 0.13403718890048721 0.051816892289293856
0.12104290345745623 0.12963295258593957 0.054047612320479055
0.15041603652172816 0.12522871627139193 0.056278332351664254
-0.1152274489114776 0.17103905275182632 0.06531209457353082
-0.08585431584720567 0.16663481643727868 0.06754281460471602
-0.0564811827829337 0.162230580122731 0.06977353463590122
-0.027108049718661757 0.15782634380818336 0.07200425466708642
0.002265083345610195 0.15342210749363572 0.07423497469827162
0.03163821640988215 0.14901787117908805 0.07646569472945682
0.06101134947415409 0.1446136348645404 0.07869641476064201
0.09038448253842603 0.14020939854999276 0.08092713479182721
0.119757615602698 0.1358051622354451 0.08315785482301241
0.14913074866696993 0.13140092592089744 0.08538857485419761
-0.11651273676623582 0.17721126240133186 0.09442233707606416
-0.08713960370196389 0.17280702608678422 0.09665305710724936
-0.057766470637691934 0.16840278977223655 0.09888377713843456
-0.02839333757341999 0.1639985534576889 0.10111449716961977
0.0009797954908519644 0.15959431714314126 0.10334521720080497
0.03035292855512392 0.1551900808285936 0.10557593723199017
0.05972606161939586 0.15078584451404595 0.10780665726317537
0.08909919468366781 0.1463816081994983 0.11003737729436057
0.11847232774793978 0.14197737188495063 0.11226809732554577
0.1478454608122117 0.137573135570403 0.11449881735673097
-0.1478454608122117 -0.137573135570403 -0.11449881735673097
-0.11847232774793978 -0.14197737188495063 -0.11226809732554577
-0.08909919468366782 -0.1463816081994983 -0.11003737729436057
-0.05972606161939587 -0.15078584451404595 -0.10780665726317537
-0.03035292855512392 -0.1551900808285936 -0.10557593723199017
-0.0009797954908519644 -0.15959431714314126 -0.10334521720080497
0.028393337573419976 -0.1639985534576889 -0.10111449716961977
0.05776647063769192 -0.16840278977223655 -0.09888377713843458
0.08713960370196389 -0.17280702608678422 -0.09665305710724936
0.11651273676623582 -0.17721126240133186 -0.09442233707606416
-0.14307875917456725 -0.10876930100082688 -0.1203955982556204
-0.11370562611029535 -0.11317353731537452 -0.11816487822443521
-0.08433249304602339 -0.11757777362992218 -0.11593415819325001
-0.054959359981751436 -0.12198200994446984 -0.11370343816206481
-0.025586226917479478 -0.12638624625901748 -0.11147271813087961
0.0037869061467924745 -0.13079048257356513 -0.10924199809969441
0.03316003921106441 -0.1351947188881128 -0.10701127806850921
0.06253317227533635 -0.13959895520266044 -0.10478055803732401
0.09190630533960832 -0.1440031915172081 -0.10254983800613882
0.12127943840388025 -0.14840742783175576 -0.10031911797495362
-0.13831205753692283 -0.07996546643125077 -0.12629237915450986
-0.1089389244726509 -0.08436970274579841 -0.12406165912332466
-0.07956579140837894 -0.08877393906034607 -0.12183093909213946
-0.050192658344106994 -0.09317817537489373 -0.11960021906095426
-0.02081952527983504 -0.09758241168944139 -0.11736949902976906
0.008553607784436914 -0.10198664800398903 -0.11513877899858387
0.037926740848708854 -0.10639088431853669 -0.11290805896739867
0.0672998739129808 -0.11079512063308435 -0.11067733893621347
0.09667300697725277 -0.115199356947632 -0.10844661890502827
0.1260461400415247 -0.11960359326217965 -0.10621589887384306
-0.13354535589927838 -0.05116163186167466 -0.1321891600533993
-0.10417222283500646 -0.05556586817622231 -0.1299584400222141
-0.0747990897707345 -0.05997010449076996 -0.12772771999102892
-0.04542595670646255 -0.06437434080531762 -0.1254969999598437
-0.0160528236421906 -0.06877857711986528 -0.1232662799286585
0.013320309422081355 -0.07318281343441294 -0.1210355598974733
0.042693442486353296 -0.07758704974896058 -0.1188048398662881
0.07206657555062523 -0.08199128606350824 -0.11657411983510291
0.1014397086148972 -0.0863955223780559 -0.11434339980391771
0.13081284167916915 -0.09079975869260355 -0.11211267977273251
-0.12877865426163393 -0.022357797292098545 -0.13808594095228874
-0.09940552119736203 -0.0267620336066462 -0.13585522092110355
-0.07003238813309007 -0.031166269921193854 -0.13362450088991834
-0.04065925506881811 -0.035570506235741504 -0.13139378085873316
-0.01128612200454616 -0.03997474255028916 -0.12916306082754794
0.018087011059725794 -0.04437897886483682 -0.12693234079636276
0.04746014412399774 -0.04878321517938447 -0.12470162076517756
0.07683327718826967 -0.05318745149393212 -0.12247090073399236
0.10620641025254164 -0.05759168780847978 -0.12024018070280715
0.1355795433168136 -0.06199592412302743 -0.11800946067162195
-0.12401195262398952 0.00644603727747757 -0.1439827218511782
-0.09463881955971758 0.0020418009629299193 -0.141752001819993
-0.06526568649544562 -0.0023624353516177384 -0.1395212817888078
-0.035892553431173674 -0.006766671666165389 -0.1372905617576226
-0.006519420366901718 -0.011170907980713043 -0.1350598417264374
0.022853712697370236 -0.015575144295260699 -0.1328291216952522
0.052226845761642174 -0.01997938060980835 -0.130598401664067
0.08159997882591412 -0.024383616924356005 -0.1283676816328818
0.11097311189018609 -0.028787853238903663 -0.1261369616016966
0.14034624495445802 -0.033192089553451314 -0.1239062415705114
-0.11924525098634507 0.03524987184705367 -0.14987950275006764
-0.08987211792207314 0.030845635532506015 -0.14764878271888243
-0.060498984857801176 0.026441399217958364 -0.14541806268769725
-0.03112585179352923 0.022037162903410706 -0.14318734265651203
-0.00175271872925728 0.017632926588863056 -0.14095662262532685
0.027620414335014675 0.013228690274315398 -0.13872590259414164
0.056993547399286616 0.008824453959767747 -0.13649518256295645
0.08636668046355855 0.004420217645220097 -0.13426446253177124
0.11573981352783053 1.5981330672438665e-05 -0.13203374250058605
0.14511294659210247 -0.004388254983875215 -0.12980302246940084
-0.11447854934870064 0.06405370641662976 -0.15577628364895707
-0.0851054162844287 0.059649470102082124 -0.15354556361777189
-0.05573228322015674 0.055245233787534466 -0.15131484358658667
-0.026359150155884796 0.05084099747298681 -0.1490841235554015
0.00301398290838716 0.04643676115843915 -0.14685340352421627
0.032387115972659114 0.04203252484389151 -0.1446226834930311
0.06176024903693105 0.03762828852934385 -0.14239196346184588
0.09113338210120299 0.03322405221479619 -0.1401612434306607
0.12050651516547496 0.02881981590024854 -0.13793052339947548
0.14987964822974692 0.02441557958570089 -0.1356998033682903
-0.10971184771105619 0.09285754098620588 -0.16167306454784652
-0.08033871464678426 0.08845330467165824 -0.15944234451666134
-0.05096558158251229 0.08404906835711058 -0.15721162448547613
-0.02159244851824035 0.07964483204256292 -0.15498090445429094
0.007780684546031602 0.07524059572801527 -0.15275018442310573
0.037153817610303556 0.07083635941346762 -0.15051946439192054
0.0665269506745755 0.06643212309891997 -0.14828874436073533
0.09590008373884744 0.062027886784372314 -0.14605802432955015
0.12527321680311942 0.05762365046982466 -0.14382730429836493
0.15464634986739134 0.05321941415527701 -0.14159658426717975
-0.10494514607341175 0.121661375555782 -0.16756984544673598
-0.07557201300913982 0.11725713924123436 -0.1653391254155508
-0.046198879944867856 0.11285290292668669 -0.16310840538436558
-0.01682574688059591 0.10844866661213905 -0.1608776853531804
0.01254738618367604 0.1040444302975914 -0.15864696532199518
0.041920519247948 0.09964019398304373 -0.15641624529081
0.07129365231221993 0.09523595766849609 -0.15418552525962478
0.10066678537649187 0.09083172135394843 -0.1519548052284396
0.13003991844076385 0.08642748503940077 -0.1497240851972544
0.1594130515050358 0.08202324872485313 -0.14749336516606917
-0.1594130515050358 -0.08202324872485313 0.14749336516606917
-0.13003991844076385 -0.08642748503940077 0.1497240851972544
-0.10066678537649189 -0.09083172135394843 0.1519548052284396
-0.07129365231221994 -0.09523595766849609 0.15418552525962478
-0.041920519247948 -0.09964019398304373 0.15641624529081
-0.01254738618367604 -0.1040444302975914 0.15864696532199518
0.016825746880595897 -0.10844866661213905 0.1608776853531804
0.04619887994486784 -0.11285290292668669 0.16310840538436558
0.07557201300913982 -0.11725713924123436 0.1653391254155508
0.10494514607341175 -0.121661375555782 0.16756984544673598
-0.15464634986739134 -0.05321941415527701 0.14159658426717975
-0.12527321680311942 -0.05762365046982466 0.14382730429836493
-0.09590008373884745 -0.062027886784372314 0.14605802432955015
-0.06652695067457551 -0.06643212309891997 0.14828874436073533
-0.037153817610303556 -0.07083635941346762 0.15051946439192054
-0.007780684546031602 -0.07524059572801527 0.15275018442310573
0.021592448518240336 -0.07964483204256292 0.15498090445429094
0.05096558158251228 -0.08404906835711058 0.15721162448547613
0.08033871464678426 -0.08845330467165824 0.15944234451666134
0.10971184771105619 -0.09285754098620588 0.16167306454784652
-0.14987964822974692 -0.024415579585700904 0.1356998033682903
-0.12050651516547496 -0.028819815900248555 0.13793052339947548
-0.091133382101203 -0.033224052214796206 0.1401612434306607
-0.06176024903693107 -0.03762828852934386 0.1423919634618459
-0.032387115972659114 -0.04203252484389152 0.1446226834930311
-0.0030139829083871616 -0.046436761158439165 0.1468534035242163
0.026359150155884775 -0.05084099747298682 0.1490841235554015
0.05573228322015672 -0.05524523378753448 0.1513148435865867
0.0851054162844287 -0.05964947010208214 0.15354556361777189
0.11447854934870064 -0.06405370641662977 0.1557762836489571
-0.14511294659210247 0.004388254983875201 0.12980302246940084
-0.11573981352783053 -1.5981330672452543e-05 0.13203374250058605
-0.08636668046355857 -0.004420217645220104 0.13426446253177124
-0.05699354739928663 -0.008824453959767761 0.13649518256295645
-0.02762041433501468 -0.013228690274315412 0.13872590259414164
0.0017527187292572782 -0.01763292658886307 0.14095662262532685
0.031125851793529218 -0.02203716290341072 0.14318734265651203
0.06049898485780116 -0.02644139921795837 0.14541806268769725
0.08987211792207314 -0.03084563553250603 0.14764878271888243
0.11924525098634507 -0.035249871847053686 0.14987950275006764
-0.14034624495445802 0.033192089553451314 0.1239062415705114
-0.11097311189018609 0.028787853238903663 0.1261369616016966
-0.08159997882591413 0.02438361692435601 0.12836768163288179
-0.05222684576164219 0.019979380609808355 0.130598401664067
-0.022853712697370236 0.015575144295260699 0.1328291216952522
0.006519420366901718 0.011170907980713043 0.1350598417264374
0.03589255343117366 0.006766671666165392 0.1372905617576226
0.0652656864954456 0.0023624353516177384 0.1395212817888078
0.09463881955971758 -0.0020418009629299193 0.141752001819993
0.12401195262398952 -0.00644603727747757 0.1439827218511782
-0.1355795433168136 0.06199592412302743 0.11800946067162195
-0.10620641025254164 0.05759168780847978 0.12024018070280715
-0.07683327718826968 0.05318745149393212 0.12247090073399235
-0.04746014412399775 0.04878321517938447 0.12470162076517755
-0.018087011059725794 0.04437897886483682 0.12693234079636276
0.01128612200454616 0.03997474255028916 0.12916306082754794
0.040659255068818095 0.03557050623574151 0.13139378085873316
0.07003238813309005 0.031166269921193854 0.13362450088991834
0.09940552119736203 0.0267620336066462 0.13585522092110355
0.12877865426163393 0.022357797292098545 0.13808594095228874
-0.13081284167916915 0.09079975869260354 0.11211267977273251
-0.1014397086148972 0.08639552237805588 0.11434339980391771
-0.07206657555062525 0.08199128606350822 0.11657411983510291
-0.04269344248635331 0.07758704974896057 0.1188048398662881
-0.013320309422081357 0.07318281343441292 0.1210355598974733
0.016052823642190597 0.06877857711986526 0.1232662799286585
0.04542595670646254 0.0643743408053176 0.1254969999598437
0.07479908977073449 0.059970104490769956 0.12772771999102892
0.10417222283500646 0.0555658681762223 0.1299584400222141
0.13354535589927838 0.05116163186167465 0.1321891600533993
-0.1260461400415247 0.11960359326217963 0.10621589887384307
-0.09667300697725277 0.11519935694763199 0.10844661890502827
-0.06729987391298081 0.11079512063308433 0.11067733893621347
-0.037926740848708874 0.10639088431853667 0.11290805896739867
-0.008553607784436916 0.10198664800398902 0.11513877899858387
0.020819525279835036 0.09758241168944137 0.11736949902976906
0.05019265834410697 0.09317817537489372 0.11960021906095426
0.07956579140837892 0.08877393906034606 0.12183093909213946
0.1089389244726509 0.0843697027457984 0.12406165912332466
0.13831205753692283 0.07996546643125076 0.12629237915450986
-0.12127943840388025 0.14840742783175576 0.10031911797495362
-0.09190630533960832 0.1440031915172081 0.10254983800613882
-0.06253317227533636 0.13959895520266044 0.10478055803732401
-0.033160039211064425 0.1351947188881128 0.10701127806850921
-0.0037869061467924745 0.13079048257356513 0.10924199809969441
0.025586226917479478 0.12638624625901748 0.11147271813087961
0.05495935998175142 0.12198200994446984 0.11370343816206481
0.08433249304602337 0.11757777362992218 0.11593415819325001
0.11370562611029535 0.11317353731537452 0.11816487822443521
0.14307875917456725 0.10876930100082688 0.1203955982556204
-0.11651273676623582 0.17721126240133186 0.09442233707606416
-0.08713960370196389 0.17280702608678422 0.09665305710724936
-0.057766470637691934 0.16840278977223655 0.09888377713843456
-0.02839333757341999 0.1639985534576889 0.10111449716961977
0.0009797954908519644 0.15959431714314126 0.10334521720080497
0.03035292855512392 0.1551900808285936 0.10557593723199017
0.05972606161939586 0.15078584451404595 0.10780665726317537
0.08909919468366781 0.1463816081994983 0.11003737729436057
0.11847232774793978 0.14197737188495063 0.11226809732554577
0.1478454608122117 0.137573135570403 0.11449881735673097
