# .PCD v0.7 - Point Cloud Data file format
VERSION 0.7
FIELDS x y z
SIZE 4 4 4
TYPE F F F
COUNT 1 1 1
WIDTH 600
HEIGHT 1
VIEWPOINT 0 0 0 1 0 0 0
POINTS 600
DATA ascii
-0.08774002335943543 -0.02255545762934851 -0.06353601451979222
-0.07748289711549106 -0.013271695756532118 -0.06672169610819678
-0.06722577087154667 -0.003987933883715719 -0.06990737769660134
-0.056968644627602295 0.005295827989100675 -0.0730930592850059
-0.04671151838365791 0.014579589861917073 -0.07627874087341045
-0.03645439213971353 0.023863351734733477 -0.07946442246181501
-0.026197265895769147 0.03314711360754986 -0.08265010405021957
-0.015940139651824763 0.04243087548036626 -0.08583578563862412
-0.005683013407880379 0.051714637353182664 -0.08902146722702868
0.0045741128360639975 0.060998399225999055 -0.09220714881543324
-0.08829859127620003 -0.017403014463284863 -0.05031914001100926
-0.07804146503225566 -0.008119252590468475 -0.05350482159941381
-0.06778433878831128 0.001164509282347926 -0.056690503187818375
-0.05752721254436691 0.01044827115516432 -0.059876184776222925
-0.04727008630042252 0.019732033027980718 -0.06306186636462749
-0.03701296005647814 0.029015794900797122 -0.06624754795303205
-0.02675583381253376 0.03829955677361351 -0.0694332295414366
-0.016498707568589375 0.04758331864642991 -0.07261891112984116
-0.006241581324644993 0.05686708051924631 -0.07580459271824572
0.004015544919299384 0.0661508423920627 -0.07899027430665027
-0.08885715919296465 -0.012250571297221218 -0.037102265502226284
-0.07860003294902028 -0.002966809424404827 -0.04028794709063084
-0.0683429067050759 0.006316952448411573 -0.0434736286790354
-0.05808578046113152 0.015600714321227966 -0.046659310267439955
-0.047828654217187135 0.024884476194044363 -0.04984499185584451
-0.03757152797324275 0.03416823806686077 -0.05303067344424907
-0.027314401729298374 0.04345199993967716 -0.056216355032653625
-0.01705727548535399 0.05273576181249356 -0.05940203662105818
-0.006800149241409606 0.06201952368530996 -0.06258771820946274
0.003456977002534771 0.07130328555812634 -0.0657733997978673
-0.08941572710972927 -0.007098128131157574 -0.023885390993443327
-0.0791586008657849 0.0021856337416588157 -0.02707107258184788
-0.06890147462184051 0.011469395614475216 -0.03025675417025244
-0.05864434837789613 0.02075315748729161 -0.033442435758657
-0.048387222133951746 0.030036919360108008 -0.036628117347061555
-0.03813009589000736 0.03932068123292441 -0.03981379893546611
-0.027872969646062985 0.0486044431057408 -0.04299948052387067
-0.0176158434021186 0.0578882049785572 -0.046185162112275226
-0.007358717158174218 0.0671719668513736 -0.04937084370067978
0.0028984090857701586 0.07645572872418999 -0.05255652528908434
-0.08997429502649387 -0.001945684965093927 -0.010668516484660355
-0.0797171687825495 0.007338076907722463 -0.01385419807306491
-0.06946004253860512 0.016621838780538863 -0.017039879661469467
-0.05920291629466074 0.025905600653355256 -0.020225561249874024
-0.04894579005071636 0.03518936252617166 -0.02341124283827858
-0.038688663806771974 0.04447312439898806 -0.026596924426683138
-0.0284315375628276 0.05375688627180445 -0.029782606015087695
-0.018174411318883216 0.06304064814462085 -0.03296828760349225
-0.007917285074938833 0.07232441001743725 -0.036153969191896805
0.0023398411690055453 0.08160817189025364 -0.03933965078030136
-0.09053286294325849 0.0032067582009697193 0.002548358024122615
-0.08027573669931412 0.012490520073786109 -0.0006373235642819399
-0.07001861045536974 0.02177428194660251 -0.003823005152686499
-0.05976148421142536 0.031058043819418905 -0.007008686741091054
-0.049504357967480976 0.0403418056922353 -0.01019436832949561
-0.03924723172353659 0.0496255675650517 -0.013380049917900167
-0.028990105479592212 0.05890932943786809 -0.016565731506304724
-0.018732979235647828 0.06819309131068449 -0.01975141309470928
-0.008475852991703444 0.0774768531835009 -0.022937094683113838
0.001781273252240932 0.08676061505631728 -0.026122776271518395
-0.0910914308600231 0.008359201367033362 0.015765232532905578
-0.08083430461607873 0.017642963239849752 0.012579550944501023
-0.07057717837213434 0.026926725112666153 0.009393869356096464
-0.06032005212818997 0.03621048698548255 0.006208187767691908
-0.05006292588424559 0.04549424885829895 0.0030225061792873513
-0.039805799640301204 0.05477801073111535 -0.00016317540911720574
-0.029548673396356827 0.06406177260393174 -0.0033488569975217626
-0.019291547152412443 0.07334553447674813 -0.00653453858592632
-0.009034420908468057 0.08262929634956453 -0.009720220174330876
0.0012227053354763194 0.09191305822238093 -0.012905901762735433
-0.09164999877678771 0.01351164453309701 0.02898210704168855
-0.08139287253284334 0.0227954064059134 0.02579642545328399
-0.07113574628889896 0.0320791682787298 0.022610743864879435
-0.06087862004495458 0.04136293015154619 0.019425062276474878
-0.0506214938010102 0.05064669202436259 0.01623938068807032
-0.040364367557065815 0.05993045389717899 0.013053699099665765
-0.03010724131312144 0.06921421576999538 0.009868017511261208
-0.019850115069177054 0.07849797764281179 0.0066823359228566515
-0.00959298882523267 0.08778173951562819 0.003496654334452094
0.0006641374187117062 0.09706550138844458 0.00031097274604753735
-0.09220856669355233 0.018664087699160656 0.04219898155047152
-0.08195144044960796 0.027947849571977046 0.03901329996206696
-0.07169431420566358 0.03723161144479345 0.035827618373662405
-0.061437187961719195 0.04651537331760984 0.03264193678525785
-0.05118006171777481 0.05579913519042624 0.029456255196853295
-0.04092293547383043 0.06508289706324265 0.026270573608448738
-0.030665809229886053 0.07436665893605904 0.02308489202004418
-0.02040868298594167 0.08365042080887543 0.019899210431639624
-0.010151556741997284 0.09293418268169183 0.016713528843235067
0.00010556950194709305 0.10221794455450822 0.013527847254830508
-0.09276713461031694 0.0238165308652243 0.05541585605925448
-0.08251000836637257 0.033100292738040694 0.052230174470849926
-0.07225288212242818 0.04238405461085709 0.04904449288244537
-0.061995755878483806 0.05166781648367349 0.04585881129404081
-0.05173862963453942 0.060951578356489886 0.042673129705636255
-0.04148150339059504 0.07023534022930629 0.0394874481172317
-0.031224377146650665 0.07951910210212268 0.03630176652882714
-0.02096725090270628 0.08880286397493907 0.033116084940422584
-0.010710124658761897 0.09808662584775547 0.02993040335201803
-0.0004529984148175198 0.10737038772057186 0.026744721763613474
0.0004529984148175198 -0.10737038772057186 -0.026744721763613474
0.010710124658761897 -0.09808662584775547 -0.02993040335201803
0.02096725090270628 -0.08880286397493907 -0.033116084940422584
0.031224377146650658 -0.07951910210212268 -0.03630176652882714
0.04148150339059504 -0.07023534022930629 -0.0394874481172317
0.05173862963453942 -0.060951578356489886 -0.042673129705636255
0.0619957558784838 -0.051667816483673495 -0.04585881129404081
0.07225288212242818 -0.04238405461085709 -0.04904449288244537
0.08251000836637257 -0.033100292738040694 -0.052230174470849926
0.09276713461031694 -0.0238165308652243 -0.05541585605925448
-0.00010556950194709305 -0.10221794455450822 -0.013527847254830508
0.010151556741997284 -0.09293418268169183 -0.016713528843235067
0.02040868298594167 -0.08365042080887543 -0.019899210431639624
0.030665809229886046 -0.07436665893605904 -0.02308489202004418
0.04092293547383043 -0.06508289706324265 -0.026270573608448738
0.05118006171777481 -0.05579913519042624 -0.029456255196853295
0.06143718796171919 -0.04651537331760985 -0.03264193678525785
0.07169431420566358 -0.03723161144479345 -0.035827618373662405
0.08195144044960796 -0.027947849571977046 -0.03901329996206696
0.09220856669355233 -0.018664087699160656 -0.04219898155047152
-0.0006641374187117062 -0.09706550138844458 -0.00031097274604753735
0.00959298882523267 -0.08778173951562819 -0.003496654334452094
0.019850115069177054 -0.07849797764281179 -0.0066823359228566515
0.03010724131312143 -0.0692142157699954 -0.009868017511261208
0.040364367557065815 -0.05993045389717899 -0.013053699099665765
0.0506214938010102 -0.05064669202436259 -0.01623938068807032
0.060878620044954576 -0.0413629301515462 -0.019425062276474878
0.07113574628889896 -0.0320791682787298 -0.022610743864879435
0.08139287253284334 -0.0227954064059134 -0.02579642545328399
0.09164999877678771 -0.01351164453309701 -0.02898210704168855
-0.001222705335476319 -0.09191305822238094 0.012905901762735424
0.009034420908468057 -0.08262929634956455 0.009720220174330867
0.019291547152412443 -0.07334553447674814 0.0065345385859263095
0.02954867339635682 -0.06406177260393175 0.003348856997521753
0.039805799640301204 -0.05477801073111535 0.00016317540911719604
0.05006292588424559 -0.04549424885829895 -0.003022506179287361
0.060320052128189965 -0.03621048698548256 -0.0062081877676919165
0.07057717837213434 -0.026926725112666156 -0.009393869356096473
0.08083430461607873 -0.017642963239849756 -0.012579550944501031
0.0910914308600231 -0.008359201367033367 -0.015765232532905588
-0.001781273252240932 -0.08676061505631728 0.026122776271518395
0.008475852991703444 -0.0774768531835009 0.022937094683113838
0.018732979235647828 -0.06819309131068449 0.01975141309470928
0.028990105479592205 -0.0589093294378681 0.016565731506304724
0.03924723172353659 -0.0496255675650517 0.013380049917900167
0.049504357967480976 -0.0403418056922353 0.01019436832949561
0.05976148421142535 -0.03105804381941891 0.007008686741091056
0.07001861045536974 -0.02177428194660251 0.003823005152686499
0.08027573669931412 -0.012490520073786109 0.0006373235642819399
0.09053286294325849 -0.0032067582009697193 -0.002548358024122615
-0.0023398411690055453 -0.08160817189025364 0.03933965078030136
0.007917285074938833 -0.07232441001743725 0.036153969191896805
0.018174411318883216 -0.06304064814462085 0.03296828760349225
0.028431537562827593 -0.05375688627180446 0.029782606015087695
0.038688663806771974 -0.04447312439898806 0.026596924426683138
0.04894579005071636 -0.03518936252617166 0.02341124283827858
0.059202916294660735 -0.025905600653355263 0.020225561249874024
0.06946004253860512 -0.016621838780538863 0.017039879661469467
0.0797171687825495 -0.007338076907722463 0.01385419807306491
0.08997429502649387 0.001945684965093927 0.010668516484660355
-0.002898409085770158 -0.07645572872419 0.052556525289084326
0.007358717158174219 -0.06717196685137361 0.04937084370067977
0.0176158434021186 -0.0578882049785572 0.04618516211227521
0.02787296964606298 -0.04860444310574081 0.042999480523870655
0.03813009589000736 -0.03932068123292441 0.0398137989354661
0.048387222133951746 -0.03003691936010801 0.03662811734706154
0.05864434837789612 -0.02075315748729162 0.033442435758656984
0.06890147462184051 -0.011469395614475221 0.03025675417025243
0.0791586008657849 -0.0021856337416588196 0.02707107258184787
0.08941572710972927 0.0070981281311575705 0.023885390993443317
-0.003456977002534771 -0.07130328555812634 0.0657733997978673
0.006800149241409606 -0.06201952368530996 0.06258771820946274
0.01705727548535399 -0.05273576181249356 0.05940203662105818
0.027314401729298367 -0.04345199993967717 0.056216355032653625
0.03757152797324275 -0.03416823806686077 0.05303067344424907
0.047828654217187135 -0.024884476194044363 0.04984499185584451
0.05808578046113151 -0.015600714321227973 0.046659310267439955
0.0683429067050759 -0.006316952448411573 0.0434736286790354
0.07860003294902028 0.002966809424404827 0.04028794709063084
0.08885715919296465 0.012250571297221218 0.037102265502226284
-0.004015544919299384 -0.0661508423920627 0.07899027430665027
0.006241581324644993 -0.05686708051924631 0.07580459271824572
0.016498707568589375 -0.04758331864642991 0.07261891112984116
0.026755833812533752 -0.03829955677361352 0.0694332295414366
0.03701296005647814 -0.029015794900797122 0.06624754795303205
0.04727008630042252 -0.019732033027980718 0.06306186636462749
0.0575272125443669 -0.010448271155164326 0.05987618477622293
0.06778433878831128 -0.001164509282347926 0.056690503187818375
0.07804146503225566 0.008119252590468475 0.05350482159941381
0.08829859127620003 0.017403014463284863 0.05031914001100926
-0.0045741128360639975 -0.060998399225999055 0.09220714881543324
0.005683013407880379 -0.051714637353182664 0.08902146722702868
0.015940139651824763 -0.04243087548036626 0.08583578563862412
0.02619726589576914 -0.03314711360754987 0.08265010405021957
0.03645439213971353 -0.023863351734733477 0.07946442246181501
0.04671151838365791 -0.014579589861917073 0.07627874087341045
0.05696864462760229 -0.005295827989100682 0.0730930592850059
0.06722577087154667 0.003987933883715719 0.06990737769660134
0.07748289711549106 0.013271695756532118 0.06672169610819678
0.08774002335943543 0.02255545762934851 0.06353601451979222
-0.08774002335943543 -0.02255545762934851 -0.06353601451979222
-0.07794079871785178 -0.03197933875059555 -0.05944809310243903
-0.06814157407626811 -0.04140321987184259 -0.055360171685085835
-0.05834234943468446 -0.050827100993089624 -0.05127225026773264
-0.048543124793100786 -0.06025098211433667 -0.047184328850379445
-0.03874390015151713 -0.06967486323558371 -0.04309640743302625
-0.02894467550993347 -0.07909874435683074 -0.039008486015673055
-0.019145450868349803 -0.08852262547807778 -0.03492056459831986
-0.009346226226766136 -0.09794650659932483 -0.03083264318096667
0.0004529984148175198 -0.10737038772057186 -0.026744721763613474
-0.08829859127620003 -0.017403014463284863 -0.05031914001100926
-0.07849936663461639 -0.0268268955845319 -0.046231218593656066
-0.06870014199303272 -0.03625077670577895 -0.04214329717630287
-0.05890091735144907 -0.04567465782702598 -0.038055375758949676
-0.0491016927098654 -0.05509853894827302 -0.03396745434159648
-0.03930246806828174 -0.06452242006952007 -0.02987953292424329
-0.02950324342669808 -0.0739463011907671 -0.025791611506890095
-0.019704018785114415 -0.08337018231201414 -0.0217036900895369
-0.00990479414353075 -0.09279406343326119 -0.017615768672183705
-0.00010556950194709305 -0.10221794455450822 -0.013527847254830508
-0.08885715919296465 -0.012250571297221218 -0.037102265502226284
-0.079057934551381 -0.021674452418468253 -0.03301434408487309
-0.06925870990979734 -0.0310983335397153 -0.028926422667519897
-0.05945948526821368 -0.040522214660962334 -0.024838501250166706
-0.04966026062663001 -0.04994609578220937 -0.02075057983281351
-0.03986103598504635 -0.05936997690345642 -0.016662658415460316
-0.030061811343462697 -0.06879385802470346 -0.012574736998107123
-0.02026258670187903 -0.0782177391459505 -0.008486815580753928
-0.010463362060295363 -0.08764162026719755 -0.004398894163400733
-0.0006641374187117062 -0.09706550138844458 -0.00031097274604753735
-0.08941572710972927 -0.007098128131157574 -0.023885390993443327
-0.07961650246814563 -0.01652200925240461 -0.019797469576090132
-0.06981727782656195 -0.025945890373651654 -0.015709548158736937
-0.06001805318497829 -0.03536977149489869 -0.011621626741383744
-0.05021882854339462 -0.04479365261614573 -0.00753370532403055
-0.040419603901810965 -0.05421753373739278 -0.003445783906677356
-0.030620379260227308 -0.06364141485863982 0.0006421375106758389
-0.02082115461864364 -0.07306529597988685 0.0047300589280290335
-0.011021929977059976 -0.0824891771011339 0.00881798034538223
-0.001222705335476319 -0.09191305822238094 0.012905901762735424
-0.08997429502649387 -0.001945684965093927 -0.010668516484660355
-0.08017507038491023 -0.011369566086340962 -0.006580595067307159
-0.07037584574332656 -0.02079344720758801 -0.002492673649953964
-0.0605766211017429 -0.030217328328835044 0.0015952477673992274
-0.05077739646015923 -0.03964120945008208 0.005683169184752423
-0.040978171818575576 -0.04906509057132913 0.009771090602105615
-0.031178947176991923 -0.058488971692576164 0.01385901201945881
-0.021379722535408256 -0.0679128528138232 0.017946933436812005
-0.01158049789382459 -0.07733673393507025 0.0220348548541652
-0.001781273252240932 -0.08676061505631728 0.026122776271518395
-0.09053286294325849 0.0032067582009697193 0.002548358024122615
-0.08073363830167485 -0.0062171229202773156 0.00663627944147581
-0.07093441366009118 -0.01564100404152436 0.010724200858829006
-0.06113518901850752 -0.025064885162771396 0.014812122276182197
-0.05133596437692385 -0.03448876628401844 0.01890004369353539
-0.041536739735340195 -0.04391264740526549 0.022987965110888586
-0.03173751509375654 -0.05333652852651252 0.02707588652824178
-0.021938290452172868 -0.06276040964775956 0.031163807945594976
-0.012139065810589201 -0.0721842907690066 0.03525172936294817
-0.0023398411690055453 -0.08160817189025364 0.03933965078030136
-0.0910914308600231 0.008359201367033362 0.015765232532905578
-0.08129220621843945 -0.0010646797542136722 0.019853153950258773
-0.07149298157685578 -0.010488560875460719 0.023941075367611968
-0.06169375693527213 -0.019912441996707754 0.02802899678496516
-0.05189453229368846 -0.029336323117954793 0.03211691820231835
-0.042095307652104806 -0.03876020423920184 0.036204839619671546
-0.03229608301052115 -0.048184085360448874 0.04029276103702474
-0.022496858368937483 -0.05760796648169591 0.044380682454377936
-0.012697633727353814 -0.06703184760294296 0.04846860387173113
-0.002898409085770158 -0.07645572872419 0.052556525289084326
-0.09164999877678771 0.01351164453309701 0.02898210704168855
-0.08185077413520407 0.004087763411849975 0.03307002845904174
-0.0720515494936204 -0.005336117709397071 0.03715794987639494
-0.062252324852036744 -0.014759998830644105 0.041245871293748126
-0.052453100210453074 -0.024183879951891144 0.04533379271110132
-0.04265387556886942 -0.0336077610731382 0.049421714128454516
-0.03285465092728576 -0.04303164219438523 0.05350963554580771
-0.023055426285702094 -0.05245552331563227 0.057597556963160906
-0.013256201644118427 -0.061879404436879316 0.0616854783805141
-0.003456977002534771 -0.07130328555812634 0.0657733997978673
-0.09220856669355233 0.018664087699160656 0.04219898155047152
-0.08240934205196869 0.009240206577913622 0.046286902967824714
-0.07261011741038502 -0.00018367454333342392 0.05037482438517791
-0.06281089276880136 -0.009607555664580459 0.054462745802531104
-0.053011668127217686 -0.0190314367858275 0.0585506672198843
-0.04321244348563403 -0.028455317907074548 0.0626385886372375
-0.03341321884405037 -0.037879199028321583 0.06672651005459068
-0.02361399420246671 -0.04730308014956862 0.07081443147194388
-0.01381476956088304 -0.05672696127081567 0.07490235288929707
-0.004015544919299384 -0.0661508423920627 0.07899027430665027
-0.09276713461031694 0.0238165308652243 0.05541585605925448
-0.0829679099687333 0.014392649743977266 0.05950377747660768
-0.07316868532714962 0.004968768622730221 0.06359169889396088
-0.06336946068556597 -0.004455112498516814 0.06767962031131407
-0.0535702360439823 -0.013878993619763854 0.07176754172866726
-0.04377101140239864 -0.023302874741010903 0.07585546314602046
-0.033971786760814984 -0.032726755862257935 0.07994338456337365
-0.02417256211923132 -0.04215063698350497 0.08403130598072685
-0.014373337477647654 -0.05157451810475202 0.08811922739808004
-0.0045741128360639975 -0.060998399225999055 0.09220714881543324
0.0045741128360639975 0.060998399225999055 -0.09220714881543324
0.014373337477647654 0.05157451810475202 -0.08811922739808004
0.02417256211923132 0.04215063698350497 -0.08403130598072685
0.03397178676081497 0.032726755862257935 -0.07994338456337365
0.04377101140239864 0.023302874741010903 -0.07585546314602046
0.0535702360439823 0.013878993619763854 -0.07176754172866726
0.06336946068556595 0.004455112498516818 -0.06767962031131407
0.07316868532714962 -0.004968768622730221 -0.06359169889396088
0.0829679099687333 -0.014392649743977266 -0.05950377747660768
0.09276713461031694 -0.0238165308652243 -0.05541585605925448
0.004015544919299384 0.0661508423920627 -0.07899027430665027
0.01381476956088304 0.05672696127081567 -0.07490235288929707
0.02361399420246671 0.04730308014956862 -0.07081443147194388
0.03341321884405036 0.037879199028321583 -0.06672651005459068
0.04321244348563403 0.028455317907074548 -0.0626385886372375
0.053011668127217686 0.0190314367858275 -0.0585506672198843
0.06281089276880135 0.009607555664580462 -0.054462745802531104
0.07261011741038502 0.00018367454333342392 -0.05037482438517791
0.08240934205196869 -0.009240206577913622 -0.046286902967824714
0.09220856669355233 -0.018664087699160656 -0.04219898155047152
0.003456977002534771 0.07130328555812634 -0.0657733997978673
0.013256201644118427 0.061879404436879316 -0.0616854783805141
0.023055426285702094 0.05245552331563227 -0.057597556963160906
0.03285465092728575 0.04303164219438523 -0.05350963554580771
0.04265387556886942 0.0336077610731382 -0.049421714128454516
0.052453100210453074 0.024183879951891144 -0.04533379271110132
0.06225232485203673 0.014759998830644109 -0.04124587129374813
0.0720515494936204 0.005336117709397071 -0.03715794987639494
0.08185077413520407 -0.004087763411849975 -0.03307002845904174
0.09164999877678771 -0.01351164453309701 -0.02898210704168855
0.0028984090857701586 0.07645572872418999 -0.05255652528908434
0.012697633727353814 0.06703184760294295 -0.048468603871731145
0.022496858368937483 0.05760796648169591 -0.04438068245437795
0.032296083010521136 0.048184085360448874 -0.040292761037024755
0.042095307652104806 0.03876020423920184 -0.03620483961967156
0.05189453229368846 0.02933632311795479 -0.032116918202318365
0.06169375693527212 0.019912441996707754 -0.02802899678496517
0.07149298157685578 0.010488560875460714 -0.023941075367611978
0.08129220621843945 0.0010646797542136685 -0.019853153950258783
0.0910914308600231 -0.008359201367033367 -0.015765232532905588
0.0023398411690055453 0.08160817189025364 -0.03933965078030136
0.012139065810589201 0.0721842907690066 -0.03525172936294817
0.021938290452172868 0.06276040964775956 -0.031163807945594976
0.031737515093756524 0.05333652852651252 -0.02707588652824178
0.041536739735340195 0.04391264740526549 -0.022987965110888586
0.05133596437692385 0.03448876628401844 -0.01890004369353539
0.06113518901850751 0.0250648851627714 -0.014812122276182199
0.07093441366009118 0.01564100404152436 -0.010724200858829006
0.08073363830167485 0.0062171229202773156 -0.00663627944147581
0.09053286294325849 -0.0032067582009697193 -0.002548358024122615
0.001781273252240932 0.08676061505631728 -0.026122776271518395
0.01158049789382459 0.07733673393507025 -0.0220348548541652
0.021379722535408256 0.0679128528138232 -0.017946933436812005
0.03117894717699191 0.058488971692576164 -0.01385901201945881
0.040978171818575576 0.04906509057132913 -0.009771090602105615
0.05077739646015923 0.03964120945008208 -0.005683169184752423
0.06057662110174289 0.030217328328835048 -0.0015952477673992292
0.07037584574332656 0.02079344720758801 0.002492673649953964
0.08017507038491023 0.011369566086340962 0.006580595067307159
0.08997429502649387 0.001945684965093927 0.010668516484660355
0.0012227053354763194 0.09191305822238093 -0.012905901762735433
0.011021929977059976 0.08248917710113389 -0.008817980345382238
0.02082115461864364 0.07306529597988684 -0.004730058928029044
0.030620379260227294 0.0636414148586398 -0.0006421375106758486
0.040419603901810965 0.05421753373739278 0.0034457839066773465
0.05021882854339462 0.04479365261614573 0.007533705324030539
0.06001805318497828 0.03536977149489869 0.011621626741383733
0.06981727782656195 0.02594589037365165 0.015709548158736927
0.07961650246814563 0.016522009252404605 0.01979746957609012
0.08941572710972927 0.0070981281311575705 0.023885390993443317
0.0006641374187117062 0.09706550138844458 0.00031097274604753735
0.010463362060295363 0.08764162026719755 0.004398894163400733
0.02026258670187903 0.0782177391459505 0.008486815580753928
0.030061811343462683 0.06879385802470346 0.012574736998107123
0.03986103598504635 0.05936997690345642 0.016662658415460316
0.04966026062663001 0.04994609578220937 0.02075057983281351
0.059459485268213666 0.040522214660962334 0.024838501250166702
0.06925870990979734 0.0310983335397153 0.028926422667519897
0.079057934551381 0.021674452418468253 0.03301434408487309
0.08885715919296465 0.012250571297221218 0.037102265502226284
0.00010556950194709305 0.10221794455450822 0.013527847254830508
0.00990479414353075 0.09279406343326119 0.017615768672183705
0.019704018785114415 0.08337018231201414 0.0217036900895369
0.029503243426698068 0.0739463011907671 0.025791611506890095
0.03930246806828174 0.06452242006952007 0.02987953292424329
0.0491016927098654 0.05509853894827302 0.03396745434159648
0.058900917351449054 0.04567465782702598 0.038055375758949676
0.06870014199303272 0.03625077670577895 0.04214329717630287
0.07849936663461639 0.0268268955845319 0.046231218593656066
0.08829859127620003 0.017403014463284863 0.05031914001100926
-0.0004529984148175198 0.10737038772057186 0.026744721763613474
0.009346226226766136 0.09794650659932483 0.03083264318096667
0.019145450868349803 0.08852262547807778 0.03492056459831986
0.028944675509933456 0.07909874435683074 0.039008486015673055
0.03874390015151713 0.06967486323558371 0.04309640743302625
0.048543124793100786 0.06025098211433667 0.047184328850379445
0.05834234943468444 0.05082710099308963 0.05127225026773264
0.06814157407626811 0.04140321987184259 0.055360171685085835
0.07794079871785178 0.03197933875059555 0.05944809310243903
0.08774002335943543 0.02255545762934851 0.06353601451979222
-0.08774002335943543 -0.02255545762934851 -0.06353601451979222
-0.07794079871785178 -0.03197933875059555 -0.05944809310243903
-0.06814157407626811 -0.04140321987184259 -0.055360171685085835
-0.05834234943468446 -0.050827100993089624 -0.05127225026773264
-0.048543124793100786 -0.06025098211433667 -0.047184328850379445
-0.03874390015151713 -0.06967486323558371 -0.04309640743302625
-0.02894467550993347 -0.07909874435683074 -0.039008486015673055
-0.019145450868349803 -0.08852262547807778 -0.03492056459831986
-0.009346226226766136 -0.09794650659932483 -0.03083264318096667
0.0004529984148175198 -0.10737038772057186 -0.026744721763613474
-0.07748289711549106 -0.013271695756532118 -0.06672169610819678
-0.0676836724739074 -0.022695576877779153 -0.06263377469084358
-0.05788444783232373 -0.0321194579990262 -0.058545853273490385
-0.04808522319074007 -0.041543339120273234 -0.0544579318561372
-0.038285998549156416 -0.05096722024152028 -0.050370010438784
-0.028486773907572746 -0.060391101362767326 -0.04628208902143081
-0.01868754926598909 -0.06981498248401435 -0.04219416760407761
-0.008888324624405426 -0.07923886360526139 -0.03810624618672442
0.0009109000171782402 -0.08866274472650844 -0.03401832476937122
0.010710124658761897 -0.09808662584775547 -0.02993040335201803
-0.06722577087154667 -0.003987933883715719 -0.06990737769660134
-0.057426546229963016 -0.013411815004962753 -0.06581945627924814
-0.047627321588379345 -0.0228356961262098 -0.06173153486189495
-0.03782809694679569 -0.03225957724745684 -0.057643613444541754
-0.028028872305212026 -0.04168345836870388 -0.05355569202718856
-0.018229647663628362 -0.05110733948995092 -0.049467770609835364
-0.008430423022044706 -0.06053122061119796 -0.04537984919248217
0.0013688016195389572 -0.069955101732445 -0.041291927775128974
0.011168026261122625 -0.07937898285369203 -0.03720400635777578
0.02096725090270628 -0.08880286397493907 -0.033116084940422584
-0.056968644627602295 0.005295827989100675 -0.0730930592850059
-0.04716941998601864 -0.00412805313214636 -0.0690051378676527
-0.037370195344434975 -0.013551934253393405 -0.0649172164502995
-0.027570970702851312 -0.02297581537464044 -0.06082929503294631
-0.01777174606126765 -0.03239969649588748 -0.056741373615593116
-0.007972521419683985 -0.041823577617134525 -0.05265345219823992
0.0018267032218996708 -0.05124745873838157 -0.048565530780886726
0.011625927863483335 -0.0606713398596286 -0.04447760936353353
0.021425152505067 -0.07009522098087564 -0.040389687946180336
0.031224377146650658 -0.07951910210212268 -0.03630176652882714
-0.04671151838365791 0.014579589861917073 -0.07627874087341045
-0.036912293742074255 0.00515570874067004 -0.07219081945605725
-0.027113069100490585 -0.0042681723805770054 -0.06810289803870406
-0.017313844458906928 -0.01369205350182404 -0.06401497662135086
-0.007514619817323265 -0.023115934623071082 -0.05992705520399767
0.002284604824260399 -0.03253981574431813 -0.05583913378664448
0.012083829465844055 -0.04196369686556516 -0.05175121236929128
0.02188305410742772 -0.051387577986812205 -0.04766329095193809
0.03168227874901138 -0.060811459108059254 -0.04357536953458489
0.04148150339059504 -0.07023534022930629 -0.0394874481172317
-0.03645439213971353 0.023863351734733477 -0.07946442246181501
-0.026655167498129868 0.014439470613486442 -0.07537650104446181
-0.0168559428565462 0.005015589492239392 -0.07128857962710862
-0.007056718214962544 -0.004408291629007644 -0.06720065820975542
0.002742506426621118 -0.013832172750254685 -0.06311273679240223
0.012541731068204783 -0.023256053871501727 -0.059024815375049035
0.02234095570978844 -0.032679934992748766 -0.05493689395769584
0.0321401803513721 -0.04210381611399581 -0.050848972540342645
0.041939404992955766 -0.05152769723524285 -0.04676105112298945
0.05173862963453942 -0.060951578356489886 -0.042673129705636255
-0.026197265895769147 0.03314711360754986 -0.08265010405021957
-0.01639804125418549 0.02372323248630283 -0.07856218263286636
-0.006598816612601826 0.01429935136505579 -0.07447426121551318
0.0032004080289818305 0.00487547024380875 -0.07038633979815997
0.012999632670565494 -0.004548410877438292 -0.06629841838080679
0.022798857312149156 -0.013972291998685334 -0.06221049696345359
0.03259808195373281 -0.023396173119932372 -0.0581225755461004
0.04239730659531647 -0.03282005424117941 -0.0540346541287472
0.05219653123690014 -0.04224393536242646 -0.04994673271139401
0.0619957558784838 -0.051667816483673495 -0.04585881129404081
-0.015940139651824763 0.04243087548036626 -0.08583578563862412
-0.006140915010241107 0.033006994359119225 -0.08174786422127092
0.0036583096313425596 0.023583113237872187 -0.07765994280391773
0.013457534272926217 0.014159232116625151 -0.07357202138656453
0.02325675891450988 0.004735350995378108 -0.06948409996921134
0.03305598355609354 -0.004688530125868934 -0.06539617855185814
0.0428552081976772 -0.01411241124711597 -0.061308257134504954
0.052654432839260856 -0.02353629236836301 -0.05722033571715176
0.06245365748084453 -0.032960173489610056 -0.053132414299798564
0.07225288212242818 -0.04238405461085709 -0.04904449288244537
-0.005683013407880379 0.051714637353182664 -0.08902146722702868
0.004116211233703277 0.04229075623193563 -0.08493354580967548
0.013915435875286944 0.03286687511068858 -0.08084562439232229
0.0237146605168706 0.02344299398944155 -0.07675770297496909
0.033513885158454264 0.014019112868194513 -0.0726697815576159
0.04331310980003793 0.0045952317469474665 -0.0685818601402627
0.053112334441621584 -0.004828649374299572 -0.06449393872290951
0.06291155908320524 -0.01425253049554661 -0.060406017305556316
0.07271078372478891 -0.023676411616793656 -0.05631809588820312
0.08251000836637257 -0.033100292738040694 -0.052230174470849926
0.0045741128360639975 0.060998399225999055 -0.09220714881543324
0.014373337477647654 0.05157451810475202 -0.08811922739808004
0.02417256211923132 0.04215063698350497 -0.08403130598072685
0.03397178676081497 0.032726755862257935 -0.07994338456337365
0.04377101140239864 0.023302874741010903 -0.07585546314602046
0.0535702360439823 0.013878993619763854 -0.07176754172866726
0.06336946068556595 0.004455112498516818 -0.06767962031131407
0.07316868532714962 -0.004968768622730221 -0.06359169889396088
0.0829679099687333 -0.014392649743977266 -0.05950377747660768
0.09276713461031694 -0.0238165308652243 -0.05541585605925448
-0.09276713461031694 0.0238165308652243 0.05541585605925448
-0.0829679099687333 0.014392649743977266 0.05950377747660768
-0.07316868532714962 0.004968768622730221 0.06359169889396088
-0.06336946068556597 -0.004455112498516814 0.06767962031131407
-0.0535702360439823 -0.013878993619763854 0.07176754172866726
-0.04377101140239864 -0.023302874741010903 0.07585546314602046
-0.033971786760814984 -0.032726755862257935 0.07994338456337365
-0.02417256211923132 -0.04215063698350497 0.08403130598072685
-0.014373337477647654 -0.05157451810475202 0.08811922739808004
-0.0045741128360639975 -0.060998399225999055 0.09220714881543324
-0.08251000836637257 0.033100292738040694 0.052230174470849926
-0.07271078372478891 0.023676411616793656 0.05631809588820312
-0.06291155908320524 0.01425253049554661 0.060406017305556316
-0.053112334441621584 0.004828649374299576 0.06449393872290951
-0.04331310980003793 -0.0045952317469474665 0.0685818601402627
-0.033513885158454264 -0.014019112868194513 0.0726697815576159
-0.023714660516870607 -0.02344299398944155 0.07675770297496909
-0.013915435875286944 -0.03286687511068858 0.08084562439232229
-0.004116211233703277 -0.04229075623193563 0.08493354580967548
0.005683013407880379 -0.051714637353182664 0.08902146722702868
-0.07225288212242818 0.04238405461085709 0.04904449288244537
-0.06245365748084453 0.032960173489610056 0.053132414299798564
-0.052654432839260856 0.02353629236836301 0.05722033571715176
-0.0428552081976772 0.014112411247115975 0.061308257134504954
-0.03305598355609354 0.004688530125868934 0.06539617855185814
-0.02325675891450988 -0.004735350995378108 0.06948409996921134
-0.013457534272926223 -0.014159232116625144 0.07357202138656453
-0.0036583096313425596 -0.023583113237872187 0.07765994280391773
0.006140915010241107 -0.033006994359119225 0.08174786422127092
0.015940139651824763 -0.04243087548036626 0.08583578563862412
-0.061995755878483806 0.05166781648367349 0.04585881129404081
-0.05219653123690015 0.04224393536242645 0.04994673271139401
-0.042397306595316486 0.032820054241179404 0.0540346541287472
-0.03259808195373283 0.02339617311993237 0.0581225755461004
-0.022798857312149166 0.013972291998685327 0.06221049696345359
-0.012999632670565503 0.004548410877438285 0.06629841838080679
-0.003200408028981846 -0.004875470243808753 0.07038633979815997
0.006598816612601817 -0.01429935136505579 0.07447426121551318
0.016398041254185484 -0.02372323248630284 0.07856218263286636
0.02619726589576914 -0.03314711360754987 0.08265010405021957
-0.05173862963453942 0.060951578356489886 0.042673129705636255
-0.041939404992955766 0.05152769723524285 0.04676105112298945
-0.0321401803513721 0.04210381611399581 0.050848972540342645
-0.022340955709788446 0.03267993499274877 0.05493689395769584
-0.012541731068204783 0.023256053871501727 0.059024815375049035
-0.002742506426621118 0.013832172750254685 0.06311273679240223
0.007056718214962537 0.004408291629007647 0.06720065820975542
0.0168559428565462 -0.005015589492239392 0.07128857962710862
0.026655167498129868 -0.014439470613486442 0.07537650104446181
0.03645439213971353 -0.023863351734733477 0.07946442246181501
-0.04148150339059504 0.07023534022930629 0.0394874481172317
-0.03168227874901138 0.060811459108059254 0.04357536953458489
-0.02188305410742772 0.051387577986812205 0.04766329095193809
-0.012083829465844062 0.04196369686556517 0.05175121236929128
-0.002284604824260399 0.03253981574431813 0.05583913378664448
0.007514619817323265 0.023115934623071082 0.05992705520399767
0.01731384445890692 0.013692053501824047 0.06401497662135086
0.027113069100490585 0.0042681723805770054 0.06810289803870406
0.036912293742074255 -0.00515570874067004 0.07219081945605725
0.04671151838365791 -0.014579589861917073 0.07627874087341045
-0.031224377146650665 0.07951910210212268 0.03630176652882714
-0.02142515250506701 0.07009522098087564 0.040389687946180336
-0.011625927863483343 0.0606713398596286 0.04447760936353354
-0.0018267032218996864 0.05124745873838156 0.048565530780886726
0.007972521419683977 0.04182357761713452 0.05265345219823992
0.017771746061267638 0.032399696495887476 0.056741373615593116
0.027570970702851295 0.02297581537464044 0.06082929503294631
0.03737019534443496 0.013551934253393398 0.0649172164502995
0.04716941998601863 0.004128053132146353 0.0690051378676527
0.05696864462760229 -0.005295827989100682 0.0730930592850059
-0.02096725090270628 0.08880286397493907 0.033116084940422584
-0.011168026261122625 0.07937898285369203 0.03720400635777578
-0.0013688016195389572 0.069955101732445 0.041291927775128974
0.008430423022044699 0.060531220611197964 0.04537984919248217
0.018229647663628362 0.05110733948995092 0.049467770609835364
0.028028872305212026 0.04168345836870388 0.05355569202718856
0.03782809694679569 0.03225957724745684 0.057643613444541754
0.047627321588379345 0.0228356961262098 0.06173153486189495
0.057426546229963016 0.013411815004962753 0.06581945627924814
0.06722577087154667 0.003987933883715719 0.06990737769660134
-0.010710124658761897 0.09808662584775547 0.02993040335201803
-0.0009109000171782402 0.08866274472650844 0.03401832476937122
0.008888324624405426 0.07923886360526139 0.03810624618672442
0.018687549265989083 0.06981498248401435 0.04219416760407761
0.028486773907572746 0.060391101362767326 0.04628208902143081
0.038285998549156416 0.05096722024152028 0.050370010438784
0.04808522319074007 0.04154333912027324 0.05445793185613719
0.05788444783232373 0.0321194579990262 0.058545853273490385
0.0676836724739074 0.022695576877779153 0.06263377469084358
0.07748289711549106 0.013271695756532118 0.06672169610819678
-0.0004529984148175198 0.10737038772057186 0.026744721763613474
0.009346226226766136 0.09794650659932483 0.03083264318096667
0.019145450868349803 0.08852262547807778 0.03492056459831986
0.028944675509933456 0.07909874435683074 0.039008486015673055
0.03874390015151713 0.06967486323558371 0.04309640743302625
0.048543124793100786 0.06025098211433667 0.047184328850379445
0.05834234943468444 0.05082710099308963 0.05127225026773264
0.06814157407626811 0.04140321987184259 0.055360171685085835
0.07794079871785178 0.03197933875059555 0.05944809310243903
0.08774002335943543 0.02255545762934851 0.06353601451979222
