# .PCD v0.7 - Point Cloud Data file format
VERSION 0.7
FIELDS x y z
SIZE 4 4 4
TYPE F F F
COUNT 1 1 1
WIDTH 600
HEIGHT 1
VIEWPOINT 0 0 0 1 0 0 0
POINTS 600
DATA ascii
-0.10622572485382956 -0.045377505534561484 -0.16288587197784207
-0.11313481991419241 -0.028414549507556515 -0.14497223668478773
-0.12004391497455529 -0.01145159348055156 -0.12705860139173342
-0.12695301003491813 0.005511362546453409 -0.10914496609867909
-0.13386210509528101 0.022474318573458364 -0.09123133080562476
-0.14077120015564387 0.03943727460046333 -0.07331769551257043
-0.14768029521600673 0.05640023062746828 -0.05540406021951611
-0.1545893902763696 0.07336318665447325 -0.037490424926461784
-0.16149848533673247 0.0903261426814782 -0.019576789633407452
-0.16840758039709533 0.10728909870848317 -0.0016631543403531246
-0.0994259587544356 -0.06195045293581258 -0.14456985722111365
-0.10633505381479846 -0.044987496908807614 -0.1266562219280593
-0.11324414887516134 -0.028024540881802663 -0.108742586635005
-0.12015324393552419 -0.011061584854797694 -0.09082895134195067
-0.12706233899588706 0.005901371172207262 -0.07291531604889634
-0.13397143405624992 0.02286432719921223 -0.055001680755842004
-0.14088052911661278 0.03982728322621718 -0.03708804546278768
-0.14778962417697566 0.05679023925322215 -0.019174410169733355
-0.15469871923733852 0.07375319528022711 -0.001260774876679028
-0.16160781429770138 0.09071615130723207 0.0166528604163753
-0.09262619265504167 -0.07852340033706368 -0.12625384246438523
-0.09953528771540453 -0.061560444310058714 -0.1083402071713309
-0.1064443827757674 -0.04459748828305376 -0.09042657187827657
-0.11335347783613026 -0.027634532256048786 -0.07251293658522225
-0.12026257289649313 -0.010671576229043831 -0.05459930129216792
-0.127171667956856 0.006291379797961138 -0.03668566599911359
-0.13408076301721886 0.02325433582496609 -0.01877203070605927
-0.14098985807758171 0.04021729185197105 -0.0008583954130049414
-0.1478989531379446 0.057180247878976014 0.017055239880049387
-0.15480804819830746 0.07414320390598098 0.034968875173103715
-0.08582642655564773 -0.09509634773831478 -0.1079378277076568
-0.09273552161601059 -0.07813339171130981 -0.09002419241460247
-0.09964461667637346 -0.06117043568430486 -0.07211055712154815
-0.10655371173673632 -0.04420747965729989 -0.054196921828493824
-0.11346280679709919 -0.027244523630294934 -0.036283286535439496
-0.12037190185746205 -0.010281567603289965 -0.018369651242385165
-0.1272809969178249 0.0066813884237149875 -0.00045601594933084483
-0.13419009197818776 0.023644344450719952 0.017457619343723484
-0.14109918703855065 0.040607300477724914 0.03537125463677781
-0.1480082820989135 0.057570256504729876 0.05328488992983214
-0.0790266604562538 -0.11166929513956589 -0.08962181295092837
-0.08593575551661665 -0.09470633911256092 -0.07170817765787404
-0.09284485057697953 -0.07774338308555596 -0.053794542364819724
-0.09975394563734238 -0.06078042705855099 -0.035880907071765396
-0.10666304069770526 -0.04381747103154603 -0.017967271778711068
-0.11357213575806811 -0.026854515004541068 -5.3636485656741323e-05
-0.12048123081843097 -0.009891558977536115 0.01785999880739758
-0.12739032587879384 0.007071397049468851 0.03577363410045191
-0.1342994209391567 0.02403435307647381 0.05368726939350624
-0.14120851599951956 0.04099730910347878 0.07160090468656057
-0.07222689435685985 -0.12824224254081698 -0.07130579819419995
-0.0791359894172227 -0.11127928651381201 -0.05339216290114562
-0.08604508447758558 -0.09431633048680706 -0.0354785276080913
-0.09295417953794843 -0.07735337445980209 -0.017564892315036974
-0.0998632745983113 -0.06039041843279714 0.00034874297801735523
-0.10677236965867416 -0.04342746240579217 0.01826237827107168
-0.11368146471903702 -0.026464506378787216 0.036176013564126
-0.12059055977939989 -0.009501550351782252 0.05408964885718033
-0.12749965483976278 0.00746140567522271 0.07200328415023466
-0.13440874990012563 0.024424361702227674 0.08991691944328899
-0.06542712825746591 -0.14481518994206807 -0.05298978343747154
-0.07233622331782877 -0.12785223391506312 -0.03507614814441721
-0.07924531837819164 -0.11088927788805815 -0.017162512851362888
-0.0861544134385545 -0.09392632186105318 0.0007511224416914419
-0.09306350849891737 -0.07696336583404823 0.01866475773474577
-0.09997260355928023 -0.06000040980704326 0.036578393027800096
-0.10688169861964308 -0.04303745378003831 0.05449202832085442
-0.11379079368000596 -0.026074497753033346 0.07240566361390875
-0.12069988874036883 -0.009111541726028382 0.09031929890696308
-0.12760898380073168 0.00785141430097658 0.10823293420001741
-0.058627362158071974 -0.1613881373433192 -0.03467376868074311
-0.06553645721843483 -0.1444251813163142 -0.016760133387688784
-0.0724455522787977 -0.12746222528930926 0.0011535019053655385
-0.07935464733916056 -0.11049926926230429 0.019067137198419865
-0.08626374239952343 -0.09353631323529933 0.0369807724914742
-0.09317283745988629 -0.07657335720829436 0.054894407784528525
-0.10008193252024915 -0.059610401181289414 0.07280804307758285
-0.10699102758061202 -0.042647445154284445 0.09072167837063717
-0.11390012264097489 -0.025684489127279483 0.1086353136636915
-0.12080921770133775 -0.008721533100274523 0.12654894895674582
-0.05182759605867803 -0.17796108474457029 -0.016357753924014687
-0.05873669111904089 -0.1609981287175653 0.001555881369039642
-0.06564578617940377 -0.14403517269056035 0.019469516662093962
-0.07255488123976662 -0.1270722166635554 0.03738315195514829
-0.0794639763001295 -0.11010926063655044 0.05529678724820262
-0.08637307136049235 -0.09314630460954547 0.07321042254125695
-0.09328216642085521 -0.07618334858254051 0.09112405783431127
-0.10019126148121808 -0.05922039255553555 0.1090376931273656
-0.10710035654158095 -0.04225743652853059 0.12695132842041992
-0.11400945160194381 -0.025294480501525624 0.14486496371347427
-0.045027829959284095 -0.19453403214582138 0.0019582608327137385
-0.05193692501964695 -0.17757107611881642 0.019871896125768066
-0.058846020080009824 -0.16060812009181147 0.03778553141882239
-0.06575511514037267 -0.14364516406480649 0.05569916671187672
-0.07266421020073555 -0.12668220803780153 0.07361280200493105
-0.0795733052610984 -0.10971925201079656 0.09152643729798537
-0.08648240032146126 -0.09275629598379162 0.10944007259103969
-0.09339149538182413 -0.07579333995678665 0.12735370788409403
-0.100300590442187 -0.05883038392978169 0.14526734317714834
-0.10720968550254986 -0.04186742790277673 0.1631809784702027
0.10720968550254986 0.04186742790277673 -0.1631809784702027
0.100300590442187 0.05883038392978169 -0.14526734317714834
0.09339149538182413 0.07579333995678664 -0.12735370788409403
0.08648240032146128 0.0927562959837916 -0.1094400725910397
0.0795733052610984 0.10971925201079656 -0.09152643729798537
0.07266421020073555 0.12668220803780153 -0.07361280200493105
0.06575511514037269 0.14364516406480649 -0.055699166711876726
0.058846020080009824 0.16060812009181144 -0.0377855314188224
0.05193692501964695 0.17757107611881642 -0.019871896125768066
0.045027829959284095 0.19453403214582138 -0.0019582608327137385
0.11400945160194381 0.025294480501525624 -0.14486496371347427
0.10710035654158095 0.04225743652853059 -0.12695132842041992
0.10019126148121808 0.059220392555535545 -0.10903769312736561
0.09328216642085523 0.0761833485825405 -0.09112405783431128
0.08637307136049235 0.09314630460954547 -0.07321042254125695
0.0794639763001295 0.11010926063655044 -0.05529678724820262
0.07255488123976664 0.1270722166635554 -0.0373831519551483
0.06564578617940377 0.14403517269056035 -0.01946951666209397
0.05873669111904089 0.1609981287175653 -0.001555881369039642
0.05182759605867803 0.17796108474457029 0.016357753924014687
0.12080921770133775 0.008721533100274532 -0.12654894895674584
0.11390012264097489 0.025684489127279494 -0.10863531366369152
0.10699102758061202 0.042647445154284445 -0.09072167837063719
0.10008193252024916 0.05961040118128941 -0.07280804307758286
0.09317283745988629 0.07657335720829438 -0.05489440778452853
0.08626374239952343 0.09353631323529935 -0.036980772491474204
0.07935464733916058 0.1104992692623043 -0.019067137198419883
0.0724455522787977 0.12746222528930926 -0.0011535019053655552
0.06553645721843483 0.1444251813163142 0.016760133387688773
0.05862736215807197 0.1613881373433192 0.0346737686807431
0.12760898380073168 -0.007851414300976571 -0.10823293420001741
0.12069988874036883 0.009111541726028391 -0.09031929890696308
0.11379079368000596 0.026074497753033346 -0.07240566361390877
0.1068816986196431 0.04303745378003831 -0.05449202832085444
0.09997260355928023 0.06000040980704327 -0.03657839302780011
0.09306350849891737 0.07696336583404824 -0.01866475773474578
0.08615441343855451 0.0939263218610532 -0.0007511224416914587
0.07924531837819164 0.11088927788805815 0.01716251285136287
0.07233622331782877 0.12785223391506312 0.035076148144417195
0.06542712825746591 0.1448151899420681 0.05298978343747152
0.13440874990012563 -0.024424361702227674 -0.08991691944328899
0.12749965483976278 -0.00746140567522271 -0.07200328415023466
0.12059055977939989 0.009501550351782245 -0.05408964885718034
0.11368146471903703 0.026464506378787205 -0.03617601356412601
0.10677236965867416 0.04342746240579217 -0.01826237827107168
0.0998632745983113 0.06039041843279714 -0.00034874297801735523
0.09295417953794845 0.07735337445980209 0.017564892315036967
0.08604508447758558 0.09431633048680704 0.035478527608091295
0.0791359894172227 0.11127928651381201 0.05339216290114562
0.07222689435685985 0.12824224254081698 0.07130579819419995
0.14120851599951956 -0.04099730910347878 -0.07160090468656057
0.1342994209391567 -0.02403435307647381 -0.05368726939350624
0.12739032587879384 -0.007071397049468858 -0.035773634100451916
0.12048123081843098 0.009891558977536104 -0.017859998807397588
0.11357213575806811 0.026854515004541068 5.3636485656741323e-05
0.10666304069770526 0.04381747103154603 0.017967271778711068
0.0997539456373424 0.06078042705855099 0.03588090707176539
0.09284485057697953 0.07774338308555595 0.05379454236481972
0.08593575551661665 0.09470633911256092 0.07170817765787404
0.0790266604562538 0.11166929513956589 0.08962181295092837
0.1480082820989135 -0.05757025650472987 -0.05328488992983215
0.14109918703855065 -0.04060730047772491 -0.03537125463677782
0.13419009197818776 -0.023644344450719952 -0.0174576193437235
0.1272809969178249 -0.006681388423714988 0.00045601594933082797
0.12037190185746205 0.010281567603289974 0.018369651242385154
0.11346280679709919 0.02724452363029494 0.03628328653543948
0.10655371173673633 0.044207479657299896 0.0541969218284938
0.09964461667637346 0.06117043568430485 0.07211055712154814
0.09273552161601059 0.07813339171130983 0.09002419241460247
0.08582642655564773 0.0950963477383148 0.1079378277076568
0.15480804819830746 -0.07414320390598098 -0.03496887517310372
0.1478989531379446 -0.05718024787897601 -0.017055239880049398
0.14098985807758171 -0.04021729185197105 0.0008583954130049245
0.13408076301721886 -0.02325433582496609 0.01877203070605925
0.127171667956856 -0.006291379797961129 0.03668566599911358
0.12026257289649313 0.01067157622904384 0.05459930129216791
0.11335347783613027 0.027634532256048797 0.07251293658522223
0.1064443827757674 0.04459748828305375 0.09042657187827656
0.09953528771540453 0.06156044431005872 0.10834020717133089
0.09262619265504167 0.07852340033706369 0.1262538424643852
0.16160781429770138 -0.09071615130723207 -0.0166528604163753
0.15469871923733852 -0.07375319528022711 0.001260774876679028
0.14778962417697566 -0.05679023925322216 0.01917441016973335
0.1408805291166128 -0.039827283226217196 0.037088045462787676
0.13397143405624992 -0.02286432719921223 0.055001680755842004
0.12706233899588706 -0.005901371172207262 0.07291531604889634
0.1201532439355242 0.011061584854797694 0.09082895134195065
0.11324414887516134 0.02802454088180265 0.10874258663500498
0.10633505381479846 0.044987496908807614 0.1266562219280593
0.0994259587544356 0.06195045293581258 0.14456985722111365
0.16840758039709533 -0.10728909870848317 0.0016631543403531246
0.16149848533673247 -0.0903261426814782 0.019576789633407452
0.1545893902763696 -0.07336318665447325 0.03749042492646178
0.14768029521600673 -0.056400230627468295 0.055404060219516105
0.14077120015564387 -0.03943727460046333 0.07331769551257043
0.13386210509528101 -0.022474318573458364 0.09123133080562476
0.12695301003491816 -0.005511362546453409 0.10914496609867907
0.12004391497455529 0.011451593480551546 0.12705860139173342
0.11313481991419241 0.028414549507556515 0.14497223668478773
0.10622572485382956 0.045377505534561484 0.16288587197784207
-0.10622572485382956 -0.045377505534561484 -0.16288587197784207
-0.08251067925867628 -0.0356836240415239 -0.16291866158810436
-0.05879563366352302 -0.02598974254848633 -0.16295145119836665
-0.03508058806836975 -0.016295861055448745 -0.16298424080862894
-0.011365542473216474 -0.00660197956241116 -0.16301703041889123
0.012349503121936797 0.0030919019306264103 -0.16304982002915352
0.03606454871709006 0.012785783423663988 -0.16308260963941582
0.05977959431224333 0.022479664916701565 -0.1631153992496781
0.08349463990739658 0.03217354640973915 -0.1631481888599404
0.10720968550254986 0.04186742790277673 -0.1631809784702027
-0.0994259587544356 -0.06195045293581258 -0.14456985722111365
-0.07571091315928233 -0.052256571442775 -0.14460264683137594
-0.05199586756412908 -0.04256268994973743 -0.14463543644163823
-0.028280821968975807 -0.032868808456699844 -0.14466822605190052
-0.004565776373822534 -0.023174926963662263 -0.1447010156621628
0.01914926922133074 -0.013481045470624693 -0.1447338052724251
0.042864314816484 -0.0037871639775871146 -0.1447665948826874
0.06657936041163727 0.005906717515450463 -0.14479938449294968
0.09029440600679053 0.015600599008488047 -0.14483217410321197
0.11400945160194381 0.025294480501525624 -0.14486496371347427
-0.09262619265504167 -0.07852340033706368 -0.12625384246438523
-0.06891114705988839 -0.06882951884402609 -0.12628663207464752
-0.04519610146473514 -0.05913563735098853 -0.1263194216849098
-0.02148105586958187 -0.04944175585795094 -0.1263522112951721
0.002233989725571403 -0.03974787436491336 -0.1263850009054344
0.025949035320724675 -0.030053992871875785 -0.12641779051569668
0.049664080915877935 -0.020360111378838208 -0.12645058012595897
0.0733791265110312 -0.01066622988580063 -0.12648336973622126
0.09709417210618447 -0.0009723483927630458 -0.12651615934648355
0.12080921770133775 0.008721533100274532 -0.12654894895674584
-0.08582642655564773 -0.09509634773831478 -0.1079378277076568
-0.062111380960494456 -0.0854024662452772 -0.10797061731791908
-0.0383963353653412 -0.07570858475223963 -0.10800340692818138
-0.014681289770187931 -0.06601470325920204 -0.10803619653844367
0.009033755824965344 -0.05632082176616446 -0.10806898614870596
0.032748801420118615 -0.04662694027312689 -0.10810177575896825
0.05646384701527188 -0.03693305878008931 -0.10813456536923054
0.08017889261042514 -0.027239177287051733 -0.10816735497949283
0.1038939382055784 -0.01754529579401415 -0.10820014458975512
0.12760898380073168 -0.007851414300976571 -0.10823293420001741
-0.0790266604562538 -0.11166929513956589 -0.08962181295092837
-0.05531161486110051 -0.1019754136465283 -0.08965460256119066
-0.03159656926594726 -0.09228153215349073 -0.08968739217145295
-0.00788152367079399 -0.08258765066045315 -0.08972018178171524
0.015833521924359283 -0.07289376916741556 -0.08975297139197753
0.03954856751951256 -0.063199887674378 -0.08978576100223983
0.06326361311466581 -0.05350600618134041 -0.08981855061250212
0.08697865870981908 -0.04381212468830283 -0.0898513402227644
0.11069370430497234 -0.03411824319526525 -0.0898841298330267
0.13440874990012563 -0.024424361702227674 -0.08991691944328899
-0.07222689435685985 -0.12824224254081698 -0.07130579819419995
-0.048511848761706576 -0.1185483610477794 -0.07133858780446224
-0.02479680316655332 -0.10885447955474183 -0.07137137741472453
-0.0010817575714000493 -0.09916059806170424 -0.07140416702498682
0.022633288023753226 -0.08946671656866666 -0.07143695663524911
0.046348333618906494 -0.07977283507562909 -0.0714697462455114
0.07006337921405976 -0.07007895358259152 -0.0715025358557737
0.09377842480921303 -0.06038507208955394 -0.07153532546603598
0.1174934704043663 -0.050691190596516354 -0.07156811507629827
0.14120851599951956 -0.04099730910347878 -0.07160090468656057
-0.06542712825746591 -0.14481518994206807 -0.05298978343747154
-0.04171208266231264 -0.1351213084490305 -0.05302257304773383
-0.017997037067159383 -0.12542742695599293 -0.05305536265799612
0.0057180085279938874 -0.11573354546295533 -0.05308815226825841
0.029433054123147163 -0.10603966396991775 -0.0531209418785207
0.05314809971830043 -0.09634578247688018 -0.05315373148878299
0.0768631453134537 -0.08665190098384261 -0.05318652109904528
0.10057819090860697 -0.07695801949080502 -0.05321931070930757
0.12429323650376023 -0.06726413799776744 -0.05325210031956986
0.1480082820989135 -0.05757025650472987 -0.05328488992983215
-0.058627362158071974 -0.1613881373433192 -0.03467376868074311
-0.0349123165629187 -0.1516942558502816 -0.0347065582910054
-0.011197270967765443 -0.14200037435724402 -0.03473934790126769
0.012517774627387828 -0.13230649286420645 -0.03477213751152998
0.0362328202225411 -0.12261261137116886 -0.03480492712179227
0.059947865817694374 -0.11291872987813129 -0.03483771673205456
0.08366291141284764 -0.10322484838509371 -0.03487050634231685
0.1073779570080009 -0.09353096689205613 -0.03490329595257914
0.13109300260315418 -0.08383708539901855 -0.03493608556284143
0.15480804819830746 -0.07414320390598098 -0.03496887517310372
-0.05182759605867803 -0.17796108474457029 -0.016357753924014687
-0.028112550463524757 -0.1682672032515327 -0.016390543534276977
-0.0043975048683715014 -0.15857332175849512 -0.016423333144539268
0.019317540726781768 -0.14887944026545755 -0.016456122754801558
0.043032586321935046 -0.13918555877241995 -0.01648891236506385
0.06674763191708831 -0.12949167727938238 -0.01652170197532614
0.09046267751224157 -0.11979779578634481 -0.01655449158558843
0.11417772310739484 -0.11010391429330724 -0.01658728119585072
0.1378927687025481 -0.10041003280026965 -0.01662007080611301
0.16160781429770138 -0.09071615130723207 -0.0166528604163753
-0.045027829959284095 -0.19453403214582138 0.0019582608327137385
-0.021312784364130814 -0.1848401506527838 0.001925471222451448
0.002402261231022439 -0.17514626915974624 0.0018926816121891577
0.02611730682617571 -0.16545238766670864 0.0018598920019268672
0.04983235242132898 -0.15575850617367107 0.0018271023916645768
0.07354739801648226 -0.1460646246806335 0.0017943127814022864
0.09726244361163552 -0.1363707431875959 0.001761523171139996
0.12097748920678879 -0.12667686169455833 0.0017287335608777055
0.14469253480194205 -0.11698298020152074 0.001695943950615415
0.16840758039709533 -0.10728909870848317 0.0016631543403531246
-0.16840758039709533 0.10728909870848317 -0.0016631543403531246
-0.14469253480194205 0.11698298020152074 -0.001695943950615415
-0.1209774892067888 0.12667686169455833 -0.0017287335608777055
-0.09726244361163554 0.1363707431875959 -0.001761523171139996
-0.07354739801648226 0.1460646246806335 -0.0017943127814022864
-0.04983235242132898 0.15575850617367107 -0.0018271023916645768
-0.026117306826175725 0.16545238766670864 -0.0018598920019268672
-0.002402261231022453 0.1751462691597462 -0.0018926816121891577
0.021312784364130814 0.1848401506527838 -0.001925471222451448
0.045027829959284095 0.19453403214582138 -0.0019582608327137385
-0.16160781429770138 0.09071615130723207 0.0166528604163753
-0.1378927687025481 0.10041003280026965 0.01662007080611301
-0.11417772310739485 0.11010391429330722 0.01658728119585072
-0.09046267751224159 0.11979779578634481 0.01655449158558843
-0.06674763191708831 0.12949167727938238 0.01652170197532614
-0.043032586321935046 0.13918555877241995 0.01648891236506385
-0.01931754072678178 0.14887944026545755 0.016456122754801558
0.0043975048683714876 0.15857332175849512 0.016423333144539268
0.028112550463524757 0.1682672032515327 0.016390543534276977
0.05182759605867803 0.17796108474457029 0.016357753924014687
-0.15480804819830746 0.07414320390598098 0.034968875173103715
-0.13109300260315418 0.08383708539901856 0.034936085562841425
-0.10737795700800092 0.09353096689205613 0.034903295952579134
-0.08366291141284765 0.10322484838509371 0.034870506342316844
-0.05994786581769438 0.1129187298781313 0.034837716732054554
-0.03623282022254111 0.12261261137116887 0.03480492712179226
-0.012517774627387845 0.13230649286420645 0.03477213751152997
0.011197270967765426 0.14200037435724402 0.03473934790126768
0.03491231656291869 0.1516942558502816 0.03470655829100539
0.05862736215807197 0.1613881373433192 0.0346737686807431
-0.1480082820989135 0.057570256504729876 0.05328488992983214
-0.12429323650376023 0.06726413799776745 0.053252100319569846
-0.10057819090860698 0.07695801949080502 0.053219310709307556
-0.07686314531345372 0.08665190098384261 0.053186521099045266
-0.05314809971830044 0.09634578247688019 0.053153731488782975
-0.029433054123147166 0.10603966396991776 0.053120941878520685
-0.005718008527993906 0.11573354546295535 0.053088152268258394
0.017997037067159365 0.12542742695599293 0.053055362657996104
0.04171208266231263 0.1351213084490305 0.05302257304773381
0.06542712825746591 0.1448151899420681 0.05298978343747152
-0.14120851599951956 0.04099730910347878 0.07160090468656057
-0.1174934704043663 0.050691190596516354 0.07156811507629827
-0.09377842480921304 0.060385072089553925 0.07153532546603598
-0.07006337921405978 0.0700789535825915 0.0715025358557737
-0.046348333618906494 0.07977283507562909 0.0714697462455114
-0.022633288023753226 0.08946671656866666 0.07143695663524911
0.0010817575714000354 0.09916059806170424 0.07140416702498682
0.024796803166553305 0.10885447955474181 0.07137137741472453
0.048511848761706576 0.1185483610477794 0.07133858780446224
0.07222689435685985 0.12824224254081698 0.07130579819419995
-0.13440874990012563 0.024424361702227674 0.08991691944328899
-0.11069370430497234 0.03411824319526525 0.0898841298330267
-0.08697865870981909 0.04381212468830282 0.0898513402227644
-0.06326361311466583 0.0535060061813404 0.08981855061250212
-0.03954856751951256 0.063199887674378 0.08978576100223983
-0.015833521924359283 0.07289376916741556 0.08975297139197753
0.007881523670793976 0.08258765066045315 0.08972018178171524
0.03159656926594725 0.09228153215349072 0.08968739217145295
0.05531161486110051 0.1019754136465283 0.08965460256119066
0.0790266604562538 0.11166929513956589 0.08962181295092837
-0.12760898380073168 0.00785141430097658 0.10823293420001741
-0.1038939382055784 0.017545295794014155 0.10820014458975512
-0.08017889261042516 0.027239177287051726 0.10816735497949283
-0.0564638470152719 0.03693305878008931 0.10813456536923054
-0.03274880142011862 0.046626940273126895 0.10810177575896825
-0.009033755824965347 0.056320821766164465 0.10806898614870596
0.014681289770187914 0.06601470325920206 0.10803619653844367
0.038396335365341185 0.07570858475223963 0.10800340692818138
0.06211138096049445 0.08540246624527721 0.10797061731791908
0.08582642655564773 0.0950963477383148 0.1079378277076568
-0.12080921770133775 -0.008721533100274523 0.12654894895674582
-0.09709417210618447 0.0009723483927630547 0.12651615934648353
-0.07337912651103122 0.010666229885800625 0.12648336973622124
-0.049664080915877956 0.02036011137883821 0.12645058012595894
-0.025949035320724678 0.030053992871875795 0.12641779051569665
-0.002233989725571407 0.039747874364913366 0.12638500090543436
0.021481055869581853 0.04944175585795095 0.12635221129517207
0.04519610146473513 0.05913563735098852 0.12631942168490978
0.06891114705988839 0.0688295188440261 0.1262866320746475
0.09262619265504167 0.07852340033706369 0.1262538424643852
-0.11400945160194381 -0.025294480501525624 0.14486496371347427
-0.09029440600679053 -0.015600599008488047 0.14483217410321197
-0.06657936041163728 -0.005906717515450477 0.14479938449294968
-0.04286431481648401 0.0037871639775871077 0.1447665948826874
-0.01914926922133074 0.013481045470624693 0.1447338052724251
0.004565776373822534 0.023174926963662263 0.1447010156621628
0.028280821968975793 0.032868808456699844 0.14466822605190052
0.051995867564129064 0.042562689949737414 0.14463543644163823
0.07571091315928233 0.052256571442775 0.14460264683137594
0.0994259587544356 0.06195045293581258 0.14456985722111365
-0.10720968550254986 -0.04186742790277673 0.1631809784702027
-0.08349463990739658 -0.03217354640973915 0.1631481888599404
-0.05977959431224334 -0.02247966491670158 0.1631153992496781
-0.03606454871709008 -0.012785783423663995 0.16308260963941582
-0.012349503121936797 -0.0030919019306264103 0.16304982002915352
0.011365542473216474 0.00660197956241116 0.16301703041889123
0.035080588068369736 0.016295861055448745 0.16298424080862894
0.05879563366352301 0.025989742548486315 0.16295145119836665
0.08251067925867628 0.0356836240415239 0.16291866158810436
0.10622572485382956 0.045377505534561484 0.16288587197784207
-0.10622572485382956 -0.045377505534561484 -0.16288587197784207
-0.08251067925867628 -0.0356836240415239 -0.16291866158810436
-0.05879563366352302 -0.02598974254848633 -0.16295145119836665
-0.03508058806836975 -0.016295861055448745 -0.16298424080862894
-0.011365542473216474 -0.00660197956241116 -0.16301703041889123
0.012349503121936797 0.0030919019306264103 -0.16304982002915352
0.03606454871709006 0.012785783423663988 -0.16308260963941582
0.05977959431224333 0.022479664916701565 -0.1631153992496781
0.08349463990739658 0.03217354640973915 -0.1631481888599404
0.10720968550254986 0.04186742790277673 -0.1631809784702027
-0.11313481991419241 -0.028414549507556515 -0.14497223668478773
-0.08941977431903914 -0.01872066801451893 -0.14500502629505002
-0.06570472872388589 -0.00902678652148136 -0.1450378159053123
-0.041989683128732615 0.0006670949715562104 -0.1450706055155746
-0.018274637533579344 0.010360976464593795 -0.1451033951258369
0.005440408061573925 0.02005485795763138 -0.14513618473609918
0.029155453656727188 0.02974873945066895 -0.14516897434636147
0.052870499251880455 0.039442620943706534 -0.14520176395662376
0.07658554484703373 0.04913650243674411 -0.14523455356688605
0.100300590442187 0.05883038392978169 -0.14526734317714834
-0.12004391497455529 -0.01145159348055156 -0.12705860139173342
-0.09632886937940201 -0.0017577119875139754 -0.1270913910019957
-0.07261382378424876 0.007936169505523595 -0.127124180612258
-0.04889877818909548 0.017630050998561173 -0.1271569702225203
-0.025183732593942205 0.02732393249159875 -0.12718975983278258
-0.001468686998788933 0.037017813984636334 -0.12722254944304487
0.02224635859636433 0.046711695477673905 -0.12725533905330716
0.0459614041915176 0.05640557697071148 -0.12728812866356945
0.06967644978667085 0.06609945846374907 -0.12732091827383174
0.09339149538182413 0.07579333995678664 -0.12735370788409403
-0.12695301003491813 0.005511362546453409 -0.10914496609867909
-0.10323796443976486 0.01520524403949098 -0.10917775570894138
-0.07952291884461161 0.02489912553252855 -0.10921054531920367
-0.055807873249458344 0.034593007025566135 -0.10924333492946596
-0.032092827654305066 0.04428688851860371 -0.10927612453972825
-0.008377782059151797 0.05398077001164129 -0.10930891414999054
0.01533726353600146 0.06367465150467887 -0.10934170376025283
0.03905230913115474 0.07336853299771645 -0.10937449337051512
0.062767354726308 0.08306241449075402 -0.10940728298077741
0.08648240032146128 0.0927562959837916 -0.1094400725910397
-0.13386210509528101 0.022474318573458364 -0.09123133080562476
-0.11014705950012774 0.03216820006649594 -0.09126412041588705
-0.08643201390497447 0.04186208155953352 -0.09129691002614934
-0.06271696830982121 0.0515559630525711 -0.09132969963641163
-0.03900192271466793 0.061249844545608674 -0.09136248924667392
-0.015286877119514661 0.07094372603864625 -0.09139527885693621
0.008428168475638603 0.08063760753168384 -0.0914280684671985
0.03214321407079187 0.0903314890247214 -0.0914608580774608
0.05585825966594513 0.10002537051775899 -0.09149364768772308
0.0795733052610984 0.10971925201079656 -0.09152643729798537
-0.14077120015564387 0.03943727460046333 -0.07331769551257043
-0.1170561545604906 0.04913115609350091 -0.07335048512283272
-0.09334110896533734 0.05882503758653848 -0.07338327473309501
-0.06962606337018408 0.06851891907957607 -0.0734160643433573
-0.045911017775030795 0.07821280057261365 -0.0734488539536196
-0.022195972179877527 0.08790668206565122 -0.07348164356388188
0.0015190734152757306 0.09760056355868879 -0.07351443317414418
0.025234119010429 0.10729444505172638 -0.07354722278440647
0.048949164605582275 0.11698832654476396 -0.07358001239466876
0.07266421020073555 0.12668220803780153 -0.07361280200493105
-0.14768029521600673 0.05640023062746828 -0.05540406021951611
-0.12396524962085345 0.06609411212050587 -0.0554368498297784
-0.1002502040257002 0.07578799361354344 -0.05546963944004069
-0.07653515843054694 0.08548187510658102 -0.05550242905030298
-0.05282011283539366 0.09517575659961859 -0.05553521866056527
-0.02910506724024039 0.10486963809265618 -0.055568008270827564
-0.005390021645087127 0.11456351958569375 -0.055600797881089854
0.018325023950066143 0.12425740107873133 -0.055633587491352145
0.04204006954521942 0.13395128257176891 -0.055666377101614435
0.06575511514037269 0.14364516406480649 -0.055699166711876726
-0.1545893902763696 0.07336318665447325 -0.037490424926461784
-0.1308743446812163 0.08305706814751082 -0.037523214536724074
-0.10715929908606307 0.0927509496405484 -0.037556004146986365
-0.0834442534909098 0.10244483113358598 -0.037588793757248655
-0.059729207895756524 0.11213871262662356 -0.037621583367510945
-0.03601416230060325 0.12183259411966114 -0.037654372977773236
-0.01229911670544999 0.1315264756126987 -0.037687162588035526
0.01141592888970328 0.1412203571057363 -0.03771995219829782
0.035130974484856546 0.15091423859877387 -0.03775274180856011
0.058846020080009824 0.16060812009181144 -0.0377855314188224
-0.16149848533673247 0.0903261426814782 -0.019576789633407452
-0.1377834397415792 0.10002002417451579 -0.019609579243669743
-0.11406839414642594 0.10971390566755336 -0.019642368853932033
-0.09035334855127267 0.11940778716059094 -0.019675158464194323
-0.06663830295611939 0.12910166865362852 -0.019707948074456614
-0.04292325736096612 0.1387955501466661 -0.019740737684718904
-0.019208211765812857 0.14848943163970368 -0.019773527294981195
0.004506833829340415 0.15818331313274125 -0.019806316905243485
0.028221879424493678 0.16787719462577883 -0.019839106515505776
0.05193692501964695 0.17757107611881642 -0.019871896125768066
-0.16840758039709533 0.10728909870848317 -0.0016631543403531246
-0.14469253480194205 0.11698298020152074 -0.001695943950615415
-0.1209774892067888 0.12667686169455833 -0.0017287335608777055
-0.09726244361163554 0.1363707431875959 -0.001761523171139996
-0.07354739801648226 0.1460646246806335 -0.0017943127814022864
-0.04983235242132898 0.15575850617367107 -0.0018271023916645768
-0.026117306826175725 0.16545238766670864 -0.0018598920019268672
-0.002402261231022453 0.1751462691597462 -0.0018926816121891577
0.021312784364130814 0.1848401506527838 -0.001925471222451448
0.045027829959284095 0.19453403214582138 -0.0019582608327137385
-0.045027829959284095 -0.19453403214582138 0.0019582608327137385
-0.021312784364130814 -0.1848401506527838 0.001925471222451448
0.002402261231022439 -0.17514626915974624 0.0018926816121891577
0.02611730682617571 -0.16545238766670864 0.0018598920019268672
0.04983235242132898 -0.15575850617367107 0.0018271023916645768
0.07354739801648226 -0.1460646246806335 0.0017943127814022864
0.09726244361163552 -0.1363707431875959 0.001761523171139996
0.12097748920678879 -0.12667686169455833 0.0017287335608777055
0.14469253480194205 -0.11698298020152074 0.001695943950615415
0.16840758039709533 -0.10728909870848317 0.0016631543403531246
-0.05193692501964695 -0.17757107611881642 0.019871896125768066
-0.028221879424493678 -0.16787719462577883 0.019839106515505776
-0.004506833829340429 -0.15818331313274125 0.019806316905243485
0.019208211765812843 -0.14848943163970368 0.019773527294981195
0.04292325736096612 -0.1387955501466661 0.019740737684718904
0.06663830295611939 -0.12910166865362852 0.019707948074456614
0.09035334855127265 -0.11940778716059094 0.019675158464194323
0.11406839414642592 -0.10971390566755336 0.019642368853932033
0.1377834397415792 -0.10002002417451579 0.019609579243669743
0.16149848533673247 -0.0903261426814782 0.019576789633407452
-0.058846020080009824 -0.16060812009181147 0.03778553141882239
-0.035130974484856546 -0.15091423859877387 0.0377527418085601
-0.011415928889703294 -0.1412203571057363 0.03771995219829781
0.01229911670544998 -0.13152647561269873 0.03768716258803552
0.03601416230060325 -0.12183259411966114 0.03765437297777323
0.059729207895756524 -0.11213871262662356 0.03762158336751094
0.0834442534909098 -0.10244483113358599 0.03758879375724865
0.10715929908606306 -0.09275094964054842 0.03755600414698636
0.1308743446812163 -0.08305706814751083 0.03752321453672407
0.1545893902763696 -0.07336318665447325 0.03749042492646178
-0.06575511514037267 -0.14364516406480649 0.05569916671187672
-0.042040069545219404 -0.13395128257176891 0.05566637710161443
-0.01832502395006615 -0.12425740107873134 0.05563358749135214
0.005390021645087117 -0.11456351958569376 0.05560079788108985
0.029105067240240392 -0.10486963809265619 0.05556800827082756
0.05282011283539366 -0.0951757565996186 0.055535218660565266
0.07653515843054692 -0.08548187510658103 0.055502429050302976
0.1002502040257002 -0.07578799361354345 0.055469639440040686
0.12396524962085347 -0.06609411212050587 0.055436849829778395
0.14768029521600673 -0.056400230627468295 0.055404060219516105
-0.07266421020073555 -0.12668220803780153 0.07361280200493105
-0.048949164605582275 -0.11698832654476396 0.07358001239466876
-0.025234119010429015 -0.10729444505172638 0.07354722278440647
-0.0015190734152757445 -0.0976005635586888 0.07351443317414418
0.022195972179877527 -0.08790668206565122 0.07348164356388188
0.045911017775030795 -0.07821280057261365 0.0734488539536196
0.06962606337018407 -0.06851891907957607 0.0734160643433573
0.09334110896533733 -0.05882503758653849 0.07338327473309501
0.1170561545604906 -0.04913115609350091 0.07335048512283272
0.14077120015564387 -0.03943727460046333 0.07331769551257043
-0.0795733052610984 -0.10971925201079656 0.09152643729798537
-0.05585825966594513 -0.10002537051775899 0.09149364768772308
-0.03214321407079188 -0.09033148902472142 0.0914608580774608
-0.008428168475638617 -0.08063760753168384 0.0914280684671985
0.015286877119514661 -0.07094372603864625 0.09139527885693621
0.03900192271466793 -0.061249844545608674 0.09136248924667392
0.0627169683098212 -0.051555963052571104 0.09132969963641163
0.08643201390497446 -0.041862081559533526 0.09129691002614934
0.11014705950012774 -0.03216820006649594 0.09126412041588705
0.13386210509528101 -0.022474318573458364 0.09123133080562476
-0.08648240032146126 -0.09275629598379162 0.10944007259103969
-0.06276735472630798 -0.08306241449075404 0.1094072829807774
-0.03905230913115474 -0.07336853299771647 0.10937449337051511
-0.015337263536001474 -0.06367465150467888 0.10934170376025282
0.0083777820591518 -0.0539807700116413 0.10930891414999053
0.03209282765430507 -0.044286888518603726 0.10927612453972824
0.05580787324945833 -0.03459300702556615 0.10924333492946595
0.0795229188446116 -0.02489912553252857 0.10921054531920366
0.10323796443976488 -0.015205244039490994 0.10917775570894137
0.12695301003491816 -0.005511362546453409 0.10914496609867907
-0.09339149538182413 -0.07579333995678665 0.12735370788409403
-0.06967644978667085 -0.06609945846374907 0.12732091827383174
-0.04596140419151761 -0.056405576970711496 0.12728812866356945
-0.022246358596364337 -0.04671169547767392 0.12725533905330716
0.0014686869987889364 -0.03701781398463634 0.12722254944304487
0.025183732593942208 -0.027323932491598757 0.12718975983278258
0.048898778189095465 -0.017630050998561186 0.1271569702225203
0.07261382378424874 -0.007936169505523609 0.127124180612258
0.09632886937940201 0.0017577119875139754 0.1270913910019957
0.12004391497455529 0.011451593480551546 0.12705860139173342
-0.100300590442187 -0.05883038392978169 0.14526734317714834
-0.07658554484703373 -0.04913650243674411 0.14523455356688605
-0.05287049925188048 -0.039442620943706534 0.14520176395662376
-0.0291554536567272 -0.029748739450668957 0.14516897434636147
-0.005440408061573925 -0.02005485795763138 0.14513618473609918
0.018274637533579344 -0.010360976464593795 0.1451033951258369
0.0419896831287326 -0.0006670949715562243 0.1450706055155746
0.06570472872388587 0.00902678652148136 0.1450378159053123
0.08941977431903914 0.01872066801451893 0.14500502629505002
0.11313481991419241 0.028414549507556515 0.14497223668478773
-0.10720968550254986 -0.04186742790277673 0.1631809784702027
-0.08349463990739658 -0.03217354640973915 0.1631481888599404
-0.05977959431224334 -0.02247966491670158 0.1631153992496781
-0.03606454871709008 -0.012785783423663995 0.16308260963941582
-0.012349503121936797 -0.0030919019306264103 0.16304982002915352
0.011365542473216474 0.00660197956241116 0.16301703041889123
0.035080588068369736 0.016295861055448745 0.16298424080862894
0.05879563366352301 0.025989742548486315 0.16295145119836665
0.08251067925867628 0.0356836240415239 0.16291866158810436
0.10622572485382956 0.045377505534561484 0.16288587197784207
