# .PCD v0.7 - Point Cloud Data file format
VERSION 0.7
FIELDS x y z
SIZE 4 4 4
TYPE F F F
COUNT 1 1 1
WIDTH 600
HEIGHT 1
VIEWPOINT 0 0 0 1 0 0 0
POINTS 600
DATA ascii
-0.15590351378355033 -0.04968452649959506 -0.11730071005995152
-0.15488593779276053 -0.029049074031274377 -0.10179691799687819
-0.15386836180197072 -0.008413621562953688 -0.08629312593380488
-0.15285078581118092 0.012221830905367005 -0.07078933387073157
-0.1518332098203911 0.0328572833736877 -0.05528554180765825
-0.1508156338296013 0.053492735842008386 -0.03978174974458494
-0.1497980578388115 0.07412818831032907 -0.024277957681511635
-0.1487804818480217 0.09476364077864975 -0.008774165618438322
-0.1477629058572319 0.11539909324697045 0.006729626444635006
-0.1467453298664421 0.13603454571529114 0.02223341850770833
-0.1461882829538494 -0.06436548204616054 -0.09839809748999795
-0.1451707069630596 -0.04373002957783984 -0.08289430542692462
-0.14415313097226978 -0.02309457710951916 -0.06739051336385131
-0.14313555498147998 -0.0024591246411984646 -0.051886721300777996
-0.14211797899069017 0.018176327827122227 -0.036382929237704684
-0.14110040299990037 0.03881178029544292 -0.020879137174631367
-0.14008282700911057 0.0594472327637636 -0.0053753451115580615
-0.13906525101832076 0.08008268523208428 0.010128446951515251
-0.13804767502753096 0.10071813770040498 0.025632239014588578
-0.13703009903674115 0.12135359016872567 0.04113603107766191
-0.13647305212414845 -0.07904643759272599 -0.07949548492004438
-0.13545547613335865 -0.058410985124405304 -0.06399169285697107
-0.13443790014256884 -0.03777553265608462 -0.048487900793897754
-0.13342032415177904 -0.017140080187763924 -0.03298410873082444
-0.13240274816098924 0.003495372280556768 -0.01748031666775112
-0.13138517217019943 0.02413082474887746 -0.001976524604677805
-0.13036759617940963 0.044766277217198135 0.013527267458395501
-0.12935002018861982 0.06540172968551883 0.029031059521468814
-0.12833244419783002 0.08603718215383953 0.04453485158454214
-0.12731486820704022 0.10667263462216021 0.060038643647615464
-0.12675782129444751 -0.09372739313929146 -0.060592872350090816
-0.1257402453036577 -0.07309194067097077 -0.0450890802870175
-0.12472266931286792 -0.05245648820265009 -0.029585288223944184
-0.12370509332207812 -0.03182103573432939 -0.014081496160870871
-0.12268751733128831 -0.011185583266008697 0.001422295902202446
-0.12166994134049851 0.009449869202311993 0.01692608796527576
-0.1206523653497087 0.030085321670632673 0.03242988002834907
-0.1196347893589189 0.05072077413895336 0.04793367209142238
-0.1186172133681291 0.07135622660727406 0.0634374641544957
-0.11759963737733929 0.09199167907559475 0.07894125621756903
-0.11704259046474659 -0.10840834868585693 -0.04169025978013725
-0.11602501447395679 -0.08777289621753624 -0.026186467717063927
-0.11500743848316698 -0.06713744374921556 -0.010682675653990614
-0.11398986249237718 -0.046501991280894855 0.0048211164090826986
-0.11297228650158737 -0.025866538812574162 0.020324908472156015
-0.11195471051079757 -0.005231086344253473 0.03582870053522933
-0.11093713452000777 0.015404366124067205 0.05133249259830264
-0.10991955852921796 0.0360398185923879 0.06683628466137595
-0.10890198253842816 0.0566752710607086 0.08234007672444928
-0.10788440654763835 0.07731072352902928 0.0978438687875226
-0.10732735963504565 -0.12308930423242238 -0.022787647210183677
-0.10630978364425585 -0.1024538517641017 -0.007283855147110357
-0.10529220765346604 -0.08181839929578101 0.008219936915962955
-0.10427463166267624 -0.061182946827460324 0.023723728979036268
-0.10325705567188644 -0.04054749435913963 0.03922752104210959
-0.10223947968109663 -0.01991204189081894 0.0547313131051829
-0.10122190369030683 0.0007234105775017391 0.0702351051682562
-0.10020432769951702 0.021358863045822428 0.08573889723132952
-0.09918675170872722 0.04199431551414313 0.10124268929440285
-0.09816917571793742 0.06262976798246382 0.11674648135747617
-0.09761212880534473 -0.13777025977898785 -0.0038850346402301184
-0.09659455281455492 -0.11713480731066717 0.011618757422843202
-0.09557697682376512 -0.09649935484234648 0.027122549485916515
-0.09455940083297532 -0.07586390237402578 0.042626341548989824
-0.09354182484218551 -0.055228449905705086 0.058130133612063144
-0.09252424885139571 -0.0345929974373844 0.07363392567513646
-0.0915066728606059 -0.013957544969063719 0.08913771773820976
-0.0904890968698161 0.006677907499256971 0.10464150980128308
-0.0894715208790263 0.02731335996757767 0.1201453018643564
-0.08845394488823649 0.04794881243589836 0.13564909392742974
-0.08789689797564379 -0.1524512153255533 0.015017577929723448
-0.08687932198485399 -0.13181576285723262 0.030521369992796768
-0.08586174599406418 -0.11118031038891193 0.04602516205587008
-0.08484417000327438 -0.09054485792059125 0.061528954118943394
-0.08382659401248457 -0.06990940545227055 0.0770327461820167
-0.08280901802169477 -0.04927395298394986 0.09253653824509003
-0.08179144203090497 -0.028638500515629182 0.10804033030816333
-0.08077386604011516 -0.008003048047308494 0.12354412237123664
-0.07975629004932536 0.012632404421012206 0.13904791443430997
-0.07873871405853555 0.03326785688933289 0.1545517064973833
-0.07818166714594285 -0.1671321708721188 0.03392019049967702
-0.07716409115515305 -0.1464967184037981 0.04942398256275034
-0.07614651516436324 -0.12586126593547742 0.06492777462582365
-0.07512893917357344 -0.10522581346715672 0.08043156668889696
-0.07411136318278363 -0.08459036099883602 0.09593535875197028
-0.07309378719199383 -0.06395490853051533 0.1114391508150436
-0.07207621120120403 -0.04331945606219465 0.12694294287811692
-0.07105863521041422 -0.02268400359387396 0.14244673494119023
-0.07004105921962442 -0.0020485511255532627 0.15795052700426354
-0.06902348322883461 0.018586901342767425 0.17345431906733688
-0.06846643631624191 -0.18181312641868425 0.052822803069630594
-0.06744886032545211 -0.16117767395036356 0.06832659513270391
-0.0664312843346623 -0.14054222148204287 0.08383038719577722
-0.0654137083438725 -0.11990676901372219 0.09933417925885053
-0.0643961323530827 -0.09927131654540149 0.11483797132192386
-0.06337855636229289 -0.0786358640770808 0.13034176338499717
-0.062360980371503096 -0.05800041160876012 0.14584555544807049
-0.06134340438071329 -0.037364959140439434 0.1613493475111438
-0.06032582838992349 -0.01672950667211873 0.1768531395742171
-0.05930825239913368 0.0039059457962019547 0.19235693163729045
0.05930825239913368 -0.0039059457962019547 -0.19235693163729045
0.06032582838992349 0.01672950667211873 -0.1768531395742171
0.06134340438071329 0.03736495914043942 -0.1613493475111438
0.062360980371503096 0.058000411608760113 -0.14584555544807049
0.06337855636229289 0.0786358640770808 -0.13034176338499717
0.0643961323530827 0.09927131654540149 -0.11483797132192386
0.0654137083438725 0.11990676901372217 -0.09933417925885055
0.0664312843346623 0.14054222148204287 -0.08383038719577723
0.06744886032545211 0.16117767395036356 -0.06832659513270391
0.06846643631624191 0.18181312641868425 -0.052822803069630594
0.06902348322883461 -0.018586901342767425 -0.17345431906733688
0.07004105921962442 0.0020485511255532627 -0.15795052700426354
0.07105863521041422 0.022684003593873948 -0.14244673494119023
0.07207621120120403 0.043319456062194645 -0.12694294287811692
0.07309378719199383 0.06395490853051533 -0.1114391508150436
0.07411136318278363 0.08459036099883602 -0.09593535875197028
0.07512893917357344 0.1052258134671567 -0.08043156668889698
0.07614651516436324 0.1258612659354774 -0.06492777462582366
0.07716409115515305 0.1464967184037981 -0.04942398256275034
0.07818166714594285 0.1671321708721188 -0.03392019049967702
0.07873871405853555 -0.033267856889332884 -0.1545517064973833
0.07975629004932536 -0.012632404421012199 -0.13904791443430997
0.08077386604011516 0.008003048047308487 -0.12354412237123667
0.08179144203090497 0.028638500515629182 -0.10804033030816336
0.08280901802169477 0.04927395298394987 -0.09253653824509003
0.08382659401248457 0.06990940545227056 -0.07703274618201672
0.08484417000327438 0.09054485792059125 -0.061528954118943414
0.08586174599406418 0.11118031038891193 -0.0460251620558701
0.08687932198485399 0.13181576285723262 -0.03052136999279678
0.08789689797564379 0.1524512153255533 -0.015017577929723459
0.08845394488823648 -0.04794881243589835 -0.13564909392742974
0.08947152087902628 -0.027313359967577663 -0.12014530186435642
0.09048909686981609 -0.006677907499256977 -0.1046415098012831
0.09150667286060589 0.013957544969063717 -0.08913771773820979
0.0925242488513957 0.03459299743738441 -0.07363392567513646
0.0935418248421855 0.05522844990570509 -0.05813013361206315
0.0945594008329753 0.07586390237402578 -0.042626341548989845
0.0955769768237651 0.09649935484234647 -0.027122549485916532
0.09659455281455491 0.11713480731066717 -0.011618757422843212
0.09761212880534471 0.13777025977898785 0.0038850346402301084
0.09816917571793742 -0.06262976798246382 -0.11674648135747617
0.09918675170872722 -0.04199431551414313 -0.10124268929440285
0.10020432769951702 -0.021358863045822442 -0.08573889723132953
0.10122190369030683 -0.0007234105775017495 -0.07023510516825622
0.10223947968109663 0.01991204189081894 -0.0547313131051829
0.10325705567188644 0.04054749435913963 -0.03922752104210959
0.10427463166267624 0.06118294682746032 -0.02372372897903628
0.10529220765346604 0.081818399295781 -0.008219936915962962
0.10630978364425585 0.1024538517641017 0.007283855147110357
0.10732735963504565 0.12308930423242238 0.022787647210183677
0.10788440654763835 -0.07731072352902928 -0.0978438687875226
0.10890198253842816 -0.0566752710607086 -0.08234007672444928
0.10991955852921796 -0.03603981859238791 -0.06683628466137596
0.11093713452000777 -0.015404366124067216 -0.05133249259830265
0.11195471051079757 0.005231086344253473 -0.03582870053522933
0.11297228650158737 0.025866538812574162 -0.020324908472156015
0.11398986249237718 0.04650199128089485 -0.004821116409082709
0.11500743848316698 0.06713744374921554 0.010682675653990607
0.11602501447395679 0.08777289621753624 0.026186467717063927
0.11704259046474659 0.10840834868585693 0.04169025978013725
0.11759963737733928 -0.09199167907559475 -0.07894125621756905
0.11861721336812908 -0.07135622660727406 -0.06343746415449572
0.11963478935891889 -0.050720774138953366 -0.04793367209142241
0.12065236534970869 -0.030085321670632676 -0.032429880028349095
0.1216699413404985 -0.009449869202311985 -0.016926087965275772
0.1226875173312883 0.011185583266008705 -0.0014222959022024563
0.1237050933220781 0.03182103573432939 0.01408149616087085
0.1247226693128679 0.05245648820265008 0.029585288223944167
0.1257402453036577 0.07309194067097077 0.04508908028701748
0.12675782129444751 0.09372739313929146 0.0605928723500908
0.12731486820704022 -0.1066726346221602 -0.06003864364761548
0.12833244419783002 -0.08603718215383951 -0.04453485158454215
0.12935002018861982 -0.06540172968551883 -0.02903105952146884
0.13036759617940963 -0.04476627721719814 -0.013527267458395525
0.13138517217019943 -0.02413082474887745 0.0019765246046777947
0.13240274816098924 -0.0034953722805567597 0.01748031666775111
0.13342032415177904 0.017140080187763928 0.03298410873082442
0.13443790014256884 0.03777553265608461 0.04848790079389773
0.13545547613335865 0.05841098512440531 0.06399169285697105
0.13647305212414845 0.079046437592726 0.07949548492004438
0.13703009903674115 -0.12135359016872567 -0.04113603107766191
0.13804767502753096 -0.10071813770040498 -0.025632239014588578
0.13906525101832076 -0.0800826852320843 -0.010128446951515265
0.14008282700911057 -0.05944723276376361 0.005375345111558048
0.14110040299990037 -0.03881178029544292 0.020879137174631367
0.14211797899069017 -0.018176327827122227 0.036382929237704684
0.14313555498147998 0.0024591246411984576 0.05188672130077799
0.14415313097226978 0.023094577109519145 0.06739051336385131
0.1451707069630596 0.04373002957783984 0.08289430542692462
0.1461882829538494 0.06436548204616054 0.09839809748999795
0.1467453298664421 -0.13603454571529114 -0.02223341850770833
0.1477629058572319 -0.11539909324697045 -0.006729626444635006
0.1487804818480217 -0.09476364077864977 0.008774165618438308
0.1497980578388115 -0.07412818831032908 0.02427795768151162
0.1508156338296013 -0.053492735842008386 0.03978174974458494
0.1518332098203911 -0.0328572833736877 0.05528554180765825
0.15285078581118092 -0.012221830905367012 0.07078933387073157
0.15386836180197072 0.008413621562953675 0.08629312593380488
0.15488593779276053 0.029049074031274377 0.10179691799687819
0.15590351378355033 0.04968452649959506 0.11730071005995152
-0.15590351378355033 -0.04968452649959506 -0.11730071005995152
-0.13199109531880765 -0.044598017532551375 -0.1256402902352114
-0.108078676854065 -0.039511508565507704 -0.13397987041047127
-0.08416625838932232 -0.03442499959846402 -0.14231945058573114
-0.06025383992457965 -0.029338490631420352 -0.15065903076099105
-0.03634142145983698 -0.024251981664376667 -0.15899861093625092
-0.012429002995094323 -0.019165472697332996 -0.1673381911115108
0.011483415469648343 -0.01407896373028931 -0.17567777128677067
0.035395833934391004 -0.008992454763245639 -0.18401735146203055
0.05930825239913368 -0.0039059457962019547 -0.19235693163729045
-0.1461882829538494 -0.06436548204616054 -0.09839809748999795
-0.12227586448910671 -0.059278973079116844 -0.10673767766525782
-0.09836344602436406 -0.05419246411207317 -0.1150772578405177
-0.07445102755962138 -0.04910595514502949 -0.12341683801577759
-0.050538609094878714 -0.04401944617798582 -0.13175641819103748
-0.026626190630136045 -0.03893293721094213 -0.14009599836629735
-0.002713772165393387 -0.03384642824389846 -0.14843557854155723
0.02119864629934928 -0.02875991927685478 -0.1567751587168171
0.045111064764091935 -0.02367341030981111 -0.16511473889207698
0.06902348322883461 -0.018586901342767425 -0.17345431906733688
-0.13647305212414845 -0.07904643759272599 -0.07949548492004438
-0.11256063365940577 -0.0739599286256823 -0.08783506509530427
-0.08864821519466312 -0.06887341965863863 -0.09617464527056414
-0.06473579672992046 -0.06378691069159495 -0.10451422544582402
-0.04082337826517778 -0.05870040172455128 -0.11285380562108391
-0.016910959800435114 -0.053613892757507595 -0.12119338579634378
0.007001458664307544 -0.048527383790463924 -0.12953296597160366
0.03091387712905021 -0.04344087482342024 -0.13787254614686353
0.054826295593792866 -0.03835436585637657 -0.1462121263221234
0.07873871405853555 -0.033267856889332884 -0.1545517064973833
-0.12675782129444751 -0.09372739313929146 -0.060592872350090816
-0.10284540282970485 -0.08864088417224777 -0.0689324525253507
-0.0789329843649622 -0.0835543752052041 -0.07727203270061057
-0.05502056590021952 -0.07846786623816042 -0.08561161287587045
-0.031108147435476848 -0.07338135727111675 -0.09395119305113034
-0.007195728970734182 -0.06829484830407306 -0.10229077322639021
0.01671668949400848 -0.06320833933702939 -0.11063035340165009
0.040629107958751146 -0.05812183036998571 -0.11896993357690996
0.0645415264234938 -0.05303532140294204 -0.12730951375216984
0.08845394488823648 -0.04794881243589835 -0.13564909392742974
-0.11704259046474659 -0.10840834868585693 -0.04169025978013725
-0.09313017200000391 -0.10332183971881324 -0.05002983995539713
-0.06921775353526126 -0.09823533075176957 -0.058369420130657004
-0.045305335070518586 -0.09314882178472589 -0.0667090003059169
-0.021392916605775917 -0.08806231281768222 -0.07504858048117677
0.002519501858966753 -0.08297580385063853 -0.08338816065643664
0.02643192032370941 -0.07788929488359486 -0.09172774083169652
0.05034433878845208 -0.07280278591655118 -0.1000673210069564
0.07425675725319474 -0.0677162769495075 -0.10840690118221628
0.09816917571793742 -0.06262976798246382 -0.11674648135747617
-0.10732735963504565 -0.12308930423242238 -0.022787647210183677
-0.08341494117030297 -0.1180027952653787 -0.03112722738544356
-0.05950252270556032 -0.11291628629833503 -0.039466807560703435
-0.03559010424081765 -0.10782977733129134 -0.04780638773596332
-0.01167768577607498 -0.10274326836424767 -0.0561459679112232
0.012234732688667689 -0.09765675939720399 -0.06448554808648307
0.03614715115341035 -0.09257025043016032 -0.07282512826174295
0.060059569618153015 -0.08748374146311663 -0.08116470843700282
0.08397198808289567 -0.08239723249607296 -0.08950428861226271
0.10788440654763835 -0.07731072352902928 -0.0978438687875226
-0.09761212880534473 -0.13777025977898785 -0.0038850346402301184
-0.07369971034060205 -0.13268375081194417 -0.01222461481549
-0.049787291875859396 -0.12759724184490048 -0.020564194990749875
-0.02587487341111672 -0.12251073287785681 -0.028903775166009758
-0.001962454946374051 -0.11742422391081314 -0.03724335534126964
0.02194996351836862 -0.11233771494376946 -0.04558293551652952
0.045862381983111274 -0.10725120597672579 -0.053922515691789394
0.06977480044785395 -0.1021646970096821 -0.06226209586704927
0.0936872189125966 -0.09707818804263843 -0.07060167604230916
0.11759963737733928 -0.09199167907559475 -0.07894125621756905
-0.08789689797564379 -0.1524512153255533 0.015017577929723448
-0.06398447951090111 -0.14736470635850962 0.006677997754463567
-0.04007206104615846 -0.14227819739146597 -0.0016615824207963086
-0.016159642581415785 -0.13719168842442228 -0.010001162596056191
0.007752775883326883 -0.1321051794573786 -0.018340742771316074
0.03166519434806955 -0.1270186704903349 -0.02668032294657595
0.05557761281281221 -0.12193216152329124 -0.035019903121835824
0.07949003127755487 -0.11684565255624756 -0.0433594832970957
0.10340244974229754 -0.11175914358920389 -0.05169906347235559
0.12731486820704022 -0.1066726346221602 -0.06003864364761548
-0.07818166714594285 -0.1671321708721188 0.03392019049967702
-0.05426924868120017 -0.1620456619050751 0.02558061032441714
-0.030356830216457523 -0.15695915293803142 0.017241030149157264
-0.00644441175171485 -0.15187264397098774 0.008901449973897382
0.01746800671302782 -0.14678613500394408 0.0005618697986374993
0.041380425177770484 -0.1416996260369004 -0.007777710376622376
0.06529284364251314 -0.1366131170698567 -0.01611729055188225
0.08920526210725581 -0.13152660810281303 -0.024456870727142126
0.11311768057199847 -0.12644009913576937 -0.03279645090240202
0.13703009903674115 -0.12135359016872567 -0.04113603107766191
-0.06846643631624191 -0.18181312641868425 0.052822803069630594
-0.04455401785149924 -0.17672661745164056 0.04448322289437071
-0.020641599386756585 -0.1716401084845969 0.03614364271911084
0.0032708190779860862 -0.16655359951755322 0.027804062543850955
0.027183237542728757 -0.16146709055050953 0.019464482368591073
0.05109565600747142 -0.15638058158346585 0.011124902193331197
0.07500807447221408 -0.1512940726164222 0.002785322018071321
0.09892049293695675 -0.1462075636493785 -0.005554258157188554
0.12283291140169941 -0.14112105468233482 -0.013893838332448442
0.1467453298664421 -0.13603454571529114 -0.02223341850770833
-0.1467453298664421 0.13603454571529114 0.02223341850770833
-0.12283291140169941 0.14112105468233482 0.013893838332448442
-0.09892049293695676 0.1462075636493785 0.005554258157188568
-0.0750080744722141 0.1512940726164222 -0.0027853220180713073
-0.05109565600747142 0.15638058158346585 -0.011124902193331197
-0.027183237542728757 0.16146709055050953 -0.019464482368591073
-0.0032708190779861 0.16655359951755322 -0.027804062543850948
0.02064159938675657 0.1716401084845969 -0.03614364271911083
0.04455401785149924 0.17672661745164056 -0.04448322289437071
0.06846643631624191 0.18181312641868425 -0.052822803069630594
-0.13703009903674115 0.12135359016872567 0.04113603107766191
-0.11311768057199847 0.12644009913576937 0.03279645090240202
-0.08920526210725582 0.13152660810281303 0.02445687072714214
-0.06529284364251316 0.1366131170698567 0.016117290551882265
-0.041380425177770484 0.1416996260369004 0.007777710376622376
-0.01746800671302782 0.14678613500394408 -0.0005618697986374993
0.006444411751714836 0.15187264397098774 -0.008901449973897375
0.03035683021645751 0.15695915293803142 -0.017241030149157257
0.05426924868120017 0.1620456619050751 -0.02558061032441714
0.07818166714594285 0.1671321708721188 -0.03392019049967702
-0.12731486820704022 0.10667263462216021 0.060038643647615464
-0.10340244974229754 0.1117591435892039 0.051699063472355575
-0.0794900312775549 0.11684565255624757 0.0433594832970957
-0.05557761281281223 0.12193216152329125 0.035019903121835824
-0.03166519434806955 0.1270186704903349 0.02668032294657594
-0.007752775883326888 0.1321051794573786 0.018340742771316063
0.016159642581415768 0.13719168842442228 0.010001162596056188
0.04007206104615844 0.14227819739146597 0.0016615824207963053
0.06398447951090111 0.14736470635850962 -0.0066779977544635764
0.08789689797564379 0.1524512153255533 -0.015017577929723459
-0.11759963737733929 0.09199167907559475 0.07894125621756903
-0.09368721891259661 0.09707818804263843 0.07060167604230914
-0.06977480044785396 0.1021646970096821 0.06226209586704927
-0.045862381983111294 0.10725120597672579 0.053922515691789394
-0.021949963518368622 0.11233771494376946 0.045582935516529505
0.0019624549463740457 0.11742422391081314 0.03724335534126963
0.025874873411116703 0.12251073287785681 0.028903775166009754
0.049787291875859375 0.1275972418449005 0.020564194990749872
0.07369971034060203 0.13268375081194417 0.01222461481548999
0.09761212880534471 0.13777025977898785 0.0038850346402301084
-0.10788440654763835 0.07731072352902928 0.0978438687875226
-0.08397198808289567 0.08239723249607296 0.08950428861226271
-0.06005956961815303 0.08748374146311663 0.08116470843700284
-0.03614715115341036 0.09257025043016032 0.07282512826174296
-0.012234732688667689 0.09765675939720399 0.06448554808648307
0.01167768577607498 0.10274326836424767 0.0561459679112232
0.035590104240817634 0.10782977733129134 0.047806387735963324
0.05950252270556031 0.11291628629833503 0.03946680756070344
0.08341494117030297 0.1180027952653787 0.03112722738544356
0.10732735963504565 0.12308930423242238 0.022787647210183677
-0.09816917571793742 0.06262976798246382 0.11674648135747617
-0.07425675725319474 0.0677162769495075 0.10840690118221628
-0.05034433878845209 0.07280278591655118 0.10006732100695641
-0.026431920323709425 0.07788929488359486 0.09172774083169653
-0.002519501858966753 0.08297580385063853 0.08338816065643664
0.021392916605775917 0.08806231281768222 0.07504858048117677
0.04530533507051857 0.09314882178472589 0.0667090003059169
0.06921775353526124 0.09823533075176957 0.05836942013065701
0.09313017200000391 0.10332183971881324 0.05002983995539713
0.11704259046474659 0.10840834868585693 0.04169025978013725
-0.08845394488823649 0.04794881243589836 0.13564909392742974
-0.06454152642349381 0.053035321402942044 0.12730951375216984
-0.040629107958751166 0.058121830369985715 0.11896993357690996
-0.016716689494008497 0.06320833933702939 0.11063035340165009
0.007195728970734176 0.06829484830407306 0.1022907732263902
0.031108147435476845 0.07338135727111675 0.09395119305113032
0.0550205659002195 0.07846786623816042 0.08561161287587045
0.07893298436496217 0.0835543752052041 0.07727203270061057
0.10284540282970484 0.08864088417224777 0.06893245252535068
0.12675782129444751 0.09372739313929146 0.0605928723500908
-0.07873871405853555 0.03326785688933289 0.1545517064973833
-0.05482629559379287 0.038354365856376575 0.1462121263221234
-0.030913877129050228 0.043440874823420246 0.13787254614686353
-0.007001458664307563 0.04852738379046393 0.12953296597160366
0.01691095980043511 0.0536138927575076 0.12119338579634377
0.040823378265177776 0.058700401724551286 0.1128538056210839
0.06473579672992043 0.06378691069159496 0.10451422544582402
0.08864821519466311 0.06887341965863865 0.09617464527056414
0.11256063365940577 0.07395992862568232 0.08783506509530425
0.13647305212414845 0.079046437592726 0.07949548492004438
-0.06902348322883461 0.018586901342767425 0.17345431906733688
-0.045111064764091935 0.02367341030981111 0.16511473889207698
-0.021198646299349293 0.02875991927685478 0.1567751587168171
0.002713772165393373 0.03384642824389846 0.14843557854155723
0.026626190630136045 0.03893293721094213 0.14009599836629735
0.050538609094878714 0.04401944617798582 0.13175641819103748
0.07445102755962137 0.04910595514502949 0.12341683801577759
0.09836344602436405 0.05419246411207317 0.11507725784051771
0.12227586448910671 0.059278973079116844 0.10673767766525782
0.1461882829538494 0.06436548204616054 0.09839809748999795
-0.05930825239913368 0.0039059457962019547 0.19235693163729045
-0.035395833934391004 0.008992454763245639 0.18401735146203055
-0.011483415469648357 0.01407896373028931 0.17567777128677067
0.012429002995094309 0.019165472697332996 0.1673381911115108
0.03634142145983698 0.024251981664376667 0.15899861093625092
0.06025383992457965 0.029338490631420352 0.15065903076099105
0.0841662583893223 0.03442499959846402 0.14231945058573117
0.10807867685406498 0.039511508565507704 0.13397987041047127
0.13199109531880765 0.044598017532551375 0.1256402902352114
0.15590351378355033 0.04968452649959506 0.11730071005995152
-0.15590351378355033 -0.04968452649959506 -0.11730071005995152
-0.13199109531880765 -0.044598017532551375 -0.1256402902352114
-0.108078676854065 -0.039511508565507704 -0.13397987041047127
-0.08416625838932232 -0.03442499959846402 -0.14231945058573114
-0.06025383992457965 -0.029338490631420352 -0.15065903076099105
-0.03634142145983698 -0.024251981664376667 -0.15899861093625092
-0.012429002995094323 -0.019165472697332996 -0.1673381911115108
0.011483415469648343 -0.01407896373028931 -0.17567777128677067
0.035395833934391004 -0.008992454763245639 -0.18401735146203055
0.05930825239913368 -0.0039059457962019547 -0.19235693163729045
-0.15488593779276053 -0.029049074031274377 -0.10179691799687819
-0.13097351932801785 -0.023962565064230692 -0.11013649817213808
-0.1070611008632752 -0.01887605609718702 -0.11847607834739796
-0.08314868239853253 -0.013789547130143335 -0.12681565852265783
-0.05923626393378985 -0.008703038163099664 -0.1351552386979177
-0.03532384546904718 -0.0036165291960559794 -0.14349481887317758
-0.011411427004304526 0.0014699797709876914 -0.15183439904843749
0.01250099146043814 0.00655648873803137 -0.16017397922369736
0.03641340992518081 0.011642997705075047 -0.16851355939895724
0.06032582838992349 0.01672950667211873 -0.1768531395742171
-0.15386836180197072 -0.008413621562953688 -0.08629312593380488
-0.12995594333722804 -0.003327112595910004 -0.09463270610906477
-0.10604352487248539 0.0017593963711336666 -0.10297228628432464
-0.08213110640774272 0.006845905338177345 -0.11131186645958452
-0.058218687943000044 0.011932414305221023 -0.11965144663484441
-0.03430626947825738 0.017018923272264706 -0.12799102681010427
-0.010393851013514721 0.022105432239308376 -0.13633060698536417
0.013518567451227944 0.027191941206352054 -0.14467018716062405
0.03743098591597061 0.032278450173395735 -0.15300976733588392
0.06134340438071329 0.03736495914043942 -0.1613493475111438
-0.15285078581118092 0.012221830905367005 -0.07078933387073157
-0.12893836734643824 0.01730833987241068 -0.07912891404599146
-0.10502594888169559 0.02239484883945436 -0.08746849422125133
-0.08111353041695292 0.027481357806498036 -0.0958080743965112
-0.05720111195221024 0.03256786677354172 -0.1041476545717711
-0.033288693487467574 0.037654375740585395 -0.11248723474703097
-0.009376275022724917 0.04274088470762907 -0.12082681492229085
0.014536143442017748 0.04782739367467275 -0.12916639509755073
0.038448561906760416 0.05291390264171643 -0.1375059752728106
0.062360980371503096 0.058000411608760113 -0.14584555544807049
-0.1518332098203911 0.0328572833736877 -0.05528554180765825
-0.12792079135564843 0.03794379234073138 -0.06362512198291814
-0.10400837289090578 0.043030301307775055 -0.07196470215817802
-0.08009595442616312 0.04811681027481873 -0.08030428233343789
-0.05618353596142044 0.05320331924186241 -0.08864386250869777
-0.03227111749667777 0.05828982820890609 -0.09698344268395766
-0.008358699031935113 0.06337633717594976 -0.10532302285921753
0.015553719432807553 0.06846284614299344 -0.11366260303447741
0.03946613789755022 0.07354935511003712 -0.12200218320973728
0.06337855636229289 0.0786358640770808 -0.13034176338499717
-0.1508156338296013 0.053492735842008386 -0.03978174974458494
-0.12690321536485863 0.05857924480905207 -0.04812132991984482
-0.10299079690011598 0.06366575377609575 -0.05646091009510469
-0.07907837843537331 0.06875226274313942 -0.06480049027036458
-0.05516595997063064 0.0738387717101831 -0.07314007044562446
-0.031253541505887966 0.07892528067722678 -0.08147965062088433
-0.00734112304114531 0.08401178964427046 -0.08981923079614422
0.016571295423597355 0.08909829861131413 -0.0981588109714041
0.040483713888340024 0.09418480757835782 -0.10649839114666397
0.0643961323530827 0.09927131654540149 -0.11483797132192386
-0.1497980578388115 0.07412818831032907 -0.024277957681511635
-0.12588563937406883 0.07921469727737275 -0.03261753785677151
-0.10197322090932617 0.08430120624441642 -0.040957118032031385
-0.07806080244458351 0.0893877152114601 -0.04929669820729127
-0.054148383979840835 0.09447422417850378 -0.05763627838255115
-0.030235965515098166 0.09956073314554746 -0.06597585855781103
-0.006323547050355506 0.10464724211259113 -0.07431543873307091
0.01758887141438716 0.10973375107963482 -0.08265501890833078
0.04150128987912983 0.11482026004667849 -0.09099459908359067
0.0654137083438725 0.11990676901372217 -0.09933417925885055
-0.1487804818480217 0.09476364077864975 -0.008774165618438322
-0.12486806338327902 0.09985014974569344 -0.017113745793698197
-0.10095564491853637 0.10493665871273711 -0.025453325968958072
-0.0770432264537937 0.11002316767978079 -0.033792906144217955
-0.05313080798905103 0.11510967664682446 -0.04213248631947784
-0.02921838952430836 0.12019618561386815 -0.05047206649473771
-0.005305971059565702 0.12528269458091182 -0.05881164666999759
0.018606447405176963 0.1303692035479555 -0.06715122684525747
0.04251886586991963 0.1354557125149992 -0.07549080702051734
0.0664312843346623 0.14054222148204287 -0.08383038719577723
-0.1477629058572319 0.11539909324697045 0.006729626444635006
-0.12385048739248922 0.12048560221401414 -0.0016099537306248836
-0.09993806892774657 0.12557211118105782 -0.00994953390588476
-0.0760256504630039 0.1306586201481015 -0.018289114081144635
-0.05211323199826123 0.13574512911514516 -0.026628694256404517
-0.028200813533518557 0.14083163808218885 -0.03496827443166439
-0.004288395068775898 0.14591814704923253 -0.043307854606924275
0.019624023395966767 0.15100465601627622 -0.05164743478218415
0.043536441860709436 0.15609116498331987 -0.05998701495744403
0.06744886032545211 0.16117767395036356 -0.06832659513270391
-0.1467453298664421 0.13603454571529114 0.02223341850770833
-0.12283291140169941 0.14112105468233482 0.013893838332448442
-0.09892049293695676 0.1462075636493785 0.005554258157188568
-0.0750080744722141 0.1512940726164222 -0.0027853220180713073
-0.05109565600747142 0.15638058158346585 -0.011124902193331197
-0.027183237542728757 0.16146709055050953 -0.019464482368591073
-0.0032708190779861 0.16655359951755322 -0.027804062543850948
0.02064159938675657 0.1716401084845969 -0.03614364271911083
0.04455401785149924 0.17672661745164056 -0.04448322289437071
0.06846643631624191 0.18181312641868425 -0.052822803069630594
-0.06846643631624191 -0.18181312641868425 0.052822803069630594
-0.04455401785149924 -0.17672661745164056 0.04448322289437071
-0.020641599386756585 -0.1716401084845969 0.03614364271911084
0.0032708190779860862 -0.16655359951755322 0.027804062543850955
0.027183237542728757 -0.16146709055050953 0.019464482368591073
0.05109565600747142 -0.15638058158346585 0.011124902193331197
0.07500807447221408 -0.1512940726164222 0.002785322018071321
0.09892049293695675 -0.1462075636493785 -0.005554258157188554
0.12283291140169941 -0.14112105468233482 -0.013893838332448442
0.1467453298664421 -0.13603454571529114 -0.02223341850770833
-0.06744886032545211 -0.16117767395036356 0.06832659513270391
-0.043536441860709436 -0.15609116498331987 0.05998701495744403
-0.01962402339596678 -0.15100465601627622 0.05164743478218416
0.004288395068775884 -0.14591814704923253 0.043307854606924275
0.028200813533518557 -0.14083163808218885 0.03496827443166439
0.05211323199826123 -0.13574512911514516 0.026628694256404517
0.07602565046300389 -0.1306586201481015 0.018289114081144635
0.09993806892774655 -0.12557211118105782 0.00994953390588476
0.12385048739248922 -0.12048560221401414 0.0016099537306248836
0.1477629058572319 -0.11539909324697045 -0.006729626444635006
-0.0664312843346623 -0.14054222148204287 0.08383038719577722
-0.04251886586991963 -0.1354557125149992 0.07549080702051734
-0.018606447405176977 -0.13036920354795553 0.06715122684525747
0.005305971059565688 -0.12528269458091185 0.05881164666999759
0.02921838952430836 -0.12019618561386816 0.050472066494737705
0.05313080798905103 -0.11510967664682448 0.04213248631947783
0.07704322645379369 -0.1100231676797808 0.03379290614421795
0.10095564491853636 -0.10493665871273714 0.025453325968958072
0.12486806338327902 -0.09985014974569345 0.017113745793698197
0.1487804818480217 -0.09476364077864977 0.008774165618438308
-0.0654137083438725 -0.11990676901372219 0.09933417925885053
-0.04150128987912983 -0.1148202600466785 0.09099459908359066
-0.017588871414387173 -0.10973375107963483 0.08265501890833078
0.006323547050355492 -0.10464724211259115 0.07431543873307091
0.030235965515098166 -0.09956073314554748 0.06597585855781102
0.054148383979840835 -0.09447422417850379 0.057636278382551136
0.0780608024445835 -0.08938771521146012 0.04929669820729126
0.10197322090932616 -0.08430120624441644 0.040957118032031385
0.12588563937406883 -0.07921469727737276 0.0326175378567715
0.1497980578388115 -0.07412818831032908 0.02427795768151162
-0.0643961323530827 -0.09927131654540149 0.11483797132192386
-0.040483713888340024 -0.09418480757835782 0.10649839114666397
-0.01657129542359737 -0.08909829861131413 0.0981588109714041
0.007341123041145296 -0.08401178964427046 0.08981923079614422
0.031253541505887966 -0.07892528067722678 0.08147965062088433
0.05516595997063064 -0.0738387717101831 0.07314007044562446
0.0790783784353733 -0.06875226274313942 0.06480049027036458
0.10299079690011596 -0.06366575377609575 0.0564609100951047
0.12690321536485863 -0.05857924480905207 0.04812132991984482
0.1508156338296013 -0.053492735842008386 0.03978174974458494
-0.06337855636229289 -0.0786358640770808 0.13034176338499717
-0.03946613789755022 -0.07354935511003712 0.12200218320973728
-0.015553719432807566 -0.06846284614299344 0.11366260303447742
0.0083586990319351 -0.06337633717594976 0.10532302285921753
0.03227111749667777 -0.05828982820890609 0.09698344268395766
0.05618353596142044 -0.05320331924186241 0.08864386250869777
0.0800959544261631 -0.04811681027481873 0.08030428233343789
0.10400837289090577 -0.043030301307775055 0.07196470215817802
0.12792079135564843 -0.03794379234073138 0.06362512198291814
0.1518332098203911 -0.0328572833736877 0.05528554180765825
-0.062360980371503096 -0.05800041160876012 0.14584555544807049
-0.038448561906760416 -0.05291390264171644 0.1375059752728106
-0.014536143442017762 -0.047827393674672765 0.12916639509755073
0.009376275022724903 -0.04274088470762909 0.12082681492229085
0.033288693487467574 -0.03765437574058541 0.11248723474703096
0.05720111195221024 -0.03256786677354173 0.10414765457177108
0.0811135304169529 -0.02748135780649805 0.0958080743965112
0.10502594888169557 -0.022394848839454373 0.08746849422125133
0.12893836734643824 -0.017308339872410695 0.07912891404599144
0.15285078581118092 -0.012221830905367012 0.07078933387073157
-0.06134340438071329 -0.037364959140439434 0.1613493475111438
-0.03743098591597061 -0.03227845017339575 0.15300976733588392
-0.013518567451227958 -0.027191941206352075 0.14467018716062405
0.010393851013514708 -0.022105432239308397 0.13633060698536414
0.03430626947825738 -0.01701892327226472 0.12799102681010427
0.058218687943000044 -0.011932414305221037 0.1196514466348444
0.08213110640774271 -0.006845905338177366 0.11131186645958452
0.10604352487248538 -0.0017593963711336805 0.10297228628432464
0.12995594333722804 0.0033271125959099903 0.09463270610906475
0.15386836180197072 0.008413621562953675 0.08629312593380488
-0.06032582838992349 -0.01672950667211873 0.1768531395742171
-0.03641340992518081 -0.011642997705075047 0.16851355939895724
-0.012500991460438154 -0.0065564887380313765 0.16017397922369736
0.011411427004304512 -0.0014699797709876914 0.15183439904843749
0.03532384546904718 0.0036165291960559794 0.14349481887317758
0.05923626393378985 0.008703038163099664 0.1351552386979177
0.08314868239853251 0.013789547130143335 0.12681565852265783
0.10706110086327518 0.01887605609718702 0.11847607834739796
0.13097351932801785 0.023962565064230692 0.11013649817213808
0.15488593779276053 0.029049074031274377 0.10179691799687819
-0.05930825239913368 0.0039059457962019547 0.19235693163729045
-0.035395833934391004 0.008992454763245639 0.18401735146203055
-0.011483415469648357 0.01407896373028931 0.17567777128677067
0.012429002995094309 0.019165472697332996 0.1673381911115108
0.03634142145983698 0.024251981664376667 0.15899861093625092
0.06025383992457965 0.029338490631420352 0.15065903076099105
0.0841662583893223 0.03442499959846402 0.14231945058573117
0.10807867685406498 0.039511508565507704 0.13397987041047127
0.13199109531880765 0.044598017532551375 0.1256402902352114
0.15590351378355033 0.04968452649959506 0.11730071005995152
