# .PCD v0.7 - Point Cloud Data file format
VERSION 0.7
FIELDS x y z
SIZE 4 4 4
TYPE F F F
COUNT 1 1 1
WIDTH 600
HEIGHT 1
VIEWPOINT 0 0 0 1 0 0 0
POINTS 600
DATA ascii
0.0077619019621179165 -0.0038817964873264594 -0.2108630821152371
-0.010654548423804934 0.00943035957707016 -0.19614011393106084
-0.029070998809727782 0.022742515641466763 -0.18141714574688458
-0.047487449195650636 0.03605467170586338 -0.1666941775627083
-0.06590389958157349 0.04936682777025999 -0.15197120937853204
-0.08432034996749634 0.0626789838346566 -0.13724824119435577
-0.10273680035341917 0.0759911398990532 -0.12252527301017949
-0.12115325073934202 0.08930329596344982 -0.10780230482600323
-0.1395697011252649 0.10261545202784644 -0.09307933664182695
-0.15798615151118772 0.11592760809224305 -0.07835636845765066
0.004823305827149345 -0.025573237339063033 -0.19492598756875726
-0.013593144558773505 -0.012261081274666415 -0.180203019384581
-0.03200959494469636 0.001051074789730191 -0.1654800512004047
-0.05042604533061921 0.014363230854126802 -0.15075708301622845
-0.06884249571654205 0.027675386918523413 -0.13603411483205216
-0.0872589461024649 0.04098754298292003 -0.1213111466478759
-0.10567539648838774 0.05429969904731664 -0.10658817846369963
-0.12409184687431059 0.06761185511171325 -0.09186521027952337
-0.14250829726023348 0.08092401117610987 -0.07714224209534709
-0.1609247476461563 0.09423616724050649 -0.06241927391117081
0.0018847096921807752 -0.047264678190799596 -0.1789888930222774
-0.016531740693742074 -0.03395252212640298 -0.16426592483810115
-0.034948191079664924 -0.020640366062006373 -0.14954295665392486
-0.053364641465587774 -0.007328209997609759 -0.1348199884697486
-0.07178109185151063 0.0059839460667868525 -0.12009702028557231
-0.09019754223743348 0.01929610213118347 -0.10537405210139605
-0.10861399262335632 0.032608258195580074 -0.09065108391721978
-0.12703044300927915 0.045920414259976686 -0.07592811573304352
-0.14544689339520203 0.059232570324373304 -0.06120514754886724
-0.16386334378112485 0.07254472638876992 -0.046482179364690956
-0.0010538864427877956 -0.06895611904253617 -0.16305179847579754
-0.019470336828710647 -0.05564396297813955 -0.14832883029162128
-0.0378867872146335 -0.04233180691374294 -0.13360586210744502
-0.05630323760055635 -0.029019650849346327 -0.11888289392326874
-0.0747196879864792 -0.015707494784949715 -0.10415992573909247
-0.09313613837240205 -0.0023953387205530967 -0.08943695755491621
-0.11155258875832488 0.010916817343843508 -0.07471398937073993
-0.12996903914424773 0.02422897340824012 -0.059991021186563666
-0.1483854895301706 0.037541129472636735 -0.04526805300238739
-0.16680193991609343 0.050853285537033346 -0.030545084818211107
-0.0039924825777563665 -0.09064755989427273 -0.1471147039293177
-0.022408932963679216 -0.07733540382987611 -0.13239173574514143
-0.04082538334960207 -0.0640232477654795 -0.11766876756096516
-0.05924183373552492 -0.05071109170108289 -0.10294579937678888
-0.07765828412144776 -0.03739893563668628 -0.08822283119261261
-0.09607473450737061 -0.024086779572289666 -0.07349986300843635
-0.11449118489329345 -0.010774623507893061 -0.05877689482426008
-0.1329076352792163 0.0025375325565035506 -0.04405392664008381
-0.1513240856651392 0.01584968862090017 -0.029330958455907535
-0.169740536051062 0.02916184468529678 -0.014607990271731253
-0.0069310787127249375 -0.1123390007460093 -0.13117760938283785
-0.02534752909864779 -0.09902684468161269 -0.11645464119866158
-0.043763979484570635 -0.08571468861721608 -0.10173167301448531
-0.062180429870493485 -0.07240253255281946 -0.08700870483030904
-0.08059688025641634 -0.05909037648842286 -0.07228573664613276
-0.09901333064233919 -0.04577822042402624 -0.057562768461956494
-0.11742978102826203 -0.032466064359629634 -0.04283980027778022
-0.13584623141418486 -0.01915390829523302 -0.028116832093603956
-0.15426268180010774 -0.005841752230836401 -0.013393863909427681
-0.17267913218603057 0.007470403833560211 0.0013291042747486004
-0.009869674847693508 -0.13403044159774585 -0.115240514836358
-0.028286125233616358 -0.12071828553334923 -0.10051754665218174
-0.04670257561953921 -0.10740612946895263 -0.08579457846800546
-0.06511902600546206 -0.09409397340455602 -0.07107161028382919
-0.08353547639138491 -0.0807818173401594 -0.056348642099652915
-0.10195192677730776 -0.06746966127576279 -0.041625673915476655
-0.1203683771632306 -0.05415750521136619 -0.026902705731300377
-0.13878482754915344 -0.04084534914696958 -0.012179737547124111
-0.15720127793507632 -0.02753319308257296 0.002543230637052164
-0.17561772832099914 -0.014221037018176348 0.017266198821228446
-0.012808270982662077 -0.15572188244948243 -0.09930342028987814
-0.031224721368584927 -0.1424097263850858 -0.08458045210570188
-0.04964117175450778 -0.1290975703206892 -0.0698574839215256
-0.06805762214043062 -0.11578541425629259 -0.055134515737349336
-0.08647407252635347 -0.10247325819189598 -0.04041154755317306
-0.10489052291227632 -0.08916110212749936 -0.0256885793689968
-0.12330697329819916 -0.07584894606310276 -0.010965611184820525
-0.14172342368412202 -0.06253678999870614 0.0037573569993557417
-0.1601398740700449 -0.04922463393430953 0.018480325183532015
-0.17855632445596772 -0.03591247786991292 0.033203293367708296
-0.01574686711763065 -0.177413323301219 -0.08336632574339829
-0.034163317503553496 -0.1641011672368224 -0.06864335755922203
-0.052579767889476346 -0.15078901117242577 -0.05392038937504575
-0.0709962182753992 -0.13747685510802918 -0.039197421190869476
-0.08941266866132205 -0.12416469904363256 -0.024474453006693205
-0.1078291190472449 -0.11085254297923594 -0.009751484822516945
-0.12624556943316773 -0.09754038691483934 0.004971483361659331
-0.14466201981909058 -0.08422823085044272 0.019694451545835597
-0.16307847020501345 -0.0709160747860461 0.034417419730011875
-0.18149492059093628 -0.05760391872164949 0.049140387914188156
-0.018685463252599222 -0.19910476415295558 -0.06742923119691843
-0.03710191363852207 -0.18579260808855896 -0.05270626301274217
-0.05551836402444492 -0.17248045202416235 -0.0379832948285659
-0.07393481441036777 -0.15916829595976573 -0.023260326644389623
-0.09235126479629062 -0.14585613989536914 -0.008537358460213348
-0.11076771518221347 -0.13254398383097252 0.006185609723962912
-0.1291841655681363 -0.1192318277665759 0.020908577908139186
-0.14760061595405916 -0.1059196717021793 0.035631546092315454
-0.16601706633998203 -0.09260751563778268 0.05035451427649173
-0.18443351672590486 -0.07929535957338606 0.06507748246066801
0.18443351672590486 0.07929535957338606 -0.06507748246066801
0.16601706633998203 0.09260751563778268 -0.05035451427649173
0.14760061595405916 0.10591967170217928 -0.03563154609231546
0.12918416556813633 0.1192318277665759 -0.020908577908139186
0.11076771518221347 0.13254398383097252 -0.006185609723962912
0.09235126479629062 0.14585613989536914 0.008537358460213348
0.07393481441036778 0.15916829595976573 0.023260326644389623
0.055518364024444926 0.17248045202416235 0.03798329482856588
0.03710191363852207 0.18579260808855896 0.05270626301274217
0.018685463252599222 0.19910476415295558 0.06742923119691843
0.18149492059093628 0.05760391872164949 -0.049140387914188156
0.16307847020501345 0.0709160747860461 -0.034417419730011875
0.14466201981909058 0.08422823085044272 -0.019694451545835604
0.12624556943316775 0.09754038691483932 -0.004971483361659331
0.1078291190472449 0.11085254297923594 0.009751484822516945
0.08941266866132205 0.12416469904363256 0.024474453006693205
0.0709962182753992 0.13747685510802915 0.039197421190869476
0.05257976788947635 0.15078901117242577 0.05392038937504574
0.034163317503553496 0.1641011672368224 0.06864335755922203
0.01574686711763065 0.177413323301219 0.08336632574339829
0.17855632445596772 0.035912477869912925 -0.0332032933677083
0.1601398740700449 0.049224633934309536 -0.018480325183532025
0.14172342368412202 0.06253678999870615 -0.003757356999355757
0.12330697329819917 0.07584894606310276 0.010965611184820518
0.10489052291227632 0.08916110212749938 0.02568857936899679
0.08647407252635347 0.102473258191896 0.040411547553173055
0.06805762214043064 0.1157854142562926 0.05513451573734933
0.04964117175450779 0.1290975703206892 0.06985748392152559
0.03122472136858493 0.1424097263850858 0.08458045210570188
0.012808270982662079 0.15572188244948243 0.09930342028987814
0.17561772832099914 0.014221037018176359 -0.017266198821228453
0.15720127793507632 0.02753319308257297 -0.0025432306370521724
0.13878482754915344 0.04084534914696958 0.012179737547124096
0.12036837716323061 0.05415750521136619 0.02690270573130037
0.10195192677730776 0.0674696612757628 0.04162567391547664
0.08353547639138491 0.08078181734015942 0.0563486420996529
0.06511902600546207 0.09409397340455602 0.07107161028382918
0.046702575619539215 0.10740612946895263 0.08579457846800544
0.028286125233616358 0.12071828553334925 0.10051754665218172
0.009869674847693508 0.13403044159774588 0.11524051483635799
0.17267913218603057 -0.007470403833560211 -0.0013291042747486004
0.15426268180010774 0.005841752230836401 0.013393863909427681
0.13584623141418486 0.019153908295233012 0.02811683209360395
0.11742978102826204 0.03246606435962963 0.04283980027778022
0.09901333064233919 0.04577822042402624 0.057562768461956494
0.08059688025641634 0.05909037648842286 0.07228573664613276
0.06218042987049349 0.07240253255281946 0.08700870483030904
0.04376397948457064 0.08571468861721607 0.1017316730144853
0.02534752909864779 0.09902684468161269 0.11645464119866158
0.0069310787127249375 0.1123390007460093 0.13117760938283785
0.169740536051062 -0.02916184468529678 0.014607990271731253
0.1513240856651392 -0.01584968862090017 0.029330958455907535
0.1329076352792163 -0.0025375325565035575 0.044053926640083806
0.11449118489329346 0.010774623507893055 0.05877689482426008
0.09607473450737061 0.024086779572289666 0.07349986300843635
0.07765828412144776 0.03739893563668628 0.08822283119261261
0.059241833735524926 0.050711091701082886 0.10294579937678888
0.040825383349602076 0.06402324776547949 0.11766876756096514
0.022408932963679216 0.07733540382987611 0.13239173574514143
0.0039924825777563665 0.09064755989427273 0.1471147039293177
0.16680193991609343 -0.05085328553703334 0.0305450848182111
0.1483854895301706 -0.03754112947263673 0.04526805300238738
0.12996903914424773 -0.024228973408240116 0.059991021186563645
0.1115525887583249 -0.010916817343843505 0.07471398937073992
0.09313613837240205 0.002395338720553108 0.0894369575549162
0.0747196879864792 0.015707494784949726 0.10415992573909245
0.056303237600556354 0.02901965084934633 0.11888289392326873
0.037886787214633504 0.042331806913742935 0.133605862107445
0.019470336828710647 0.055643962978139554 0.14832883029162128
0.001053886442787797 0.06895611904253618 0.16305179847579754
0.16386334378112485 -0.07254472638876991 0.04648217936469095
0.14544689339520203 -0.0592325703243733 0.06120514754886723
0.12703044300927915 -0.045920414259976686 0.0759281157330435
0.10861399262335633 -0.032608258195580074 0.09065108391721978
0.09019754223743348 -0.01929610213118346 0.10537405210139605
0.07178109185151063 -0.005983946066786841 0.12009702028557231
0.05336464146558778 0.0073282099976097635 0.13481998846974858
0.03494819107966493 0.02064036606200637 0.14954295665392484
0.016531740693742077 0.033952522126402984 0.16426592483810112
-0.0018847096921807737 0.0472646781907996 0.17898889302227738
0.1609247476461563 -0.09423616724050649 0.06241927391117081
0.14250829726023348 -0.08092401117610987 0.07714224209534709
0.12409184687431059 -0.06761185511171326 0.09186521027952335
0.10567539648838775 -0.054299699047316644 0.10658817846369963
0.0872589461024649 -0.04098754298292003 0.1213111466478759
0.06884249571654205 -0.027675386918523413 0.13603411483205216
0.050426045330619215 -0.014363230854126809 0.15075708301622845
0.032009594944696365 -0.0010510747897302048 0.1654800512004047
0.013593144558773505 0.012261081274666415 0.180203019384581
-0.004823305827149345 0.025573237339063033 0.19492598756875726
0.15798615151118772 -0.11592760809224305 0.07835636845765066
0.1395697011252649 -0.10261545202784644 0.09307933664182695
0.12115325073934202 -0.08930329596344982 0.10780230482600321
0.10273680035341919 -0.07599113989905322 0.12252527301017949
0.08432034996749634 -0.0626789838346566 0.13724824119435577
0.06590389958157349 -0.04936682777025999 0.15197120937853204
0.04748744919565064 -0.036054671705863385 0.1666941775627083
0.02907099880972779 -0.022742515641466777 0.18141714574688456
0.010654548423804934 -0.00943035957707016 0.19614011393106084
-0.0077619019621179165 0.0038817964873264594 0.2108630821152371
0.0077619019621179165 -0.0038817964873264594 -0.2108630821152371
0.027392081380316475 0.0053601097416416015 -0.19466468215361832
0.047022260798515014 0.014602015970609663 -0.17846628219199953
0.06665244021671357 0.02384392219957771 -0.16226788223038074
0.08628261963491211 0.03308582842854577 -0.14606948226876196
0.10591279905311067 0.042327734657513834 -0.12987108230714317
0.1255429784713092 0.05156964088648189 -0.11367268234552438
0.14517315788950777 0.06081154711544994 -0.0974742823839056
0.1648033373077063 0.070053453344418 -0.08127588242228681
0.18443351672590486 0.07929535957338606 -0.06507748246066801
0.004823305827149345 -0.025573237339063033 -0.19492598756875726
0.024453485245347902 -0.016331331110094972 -0.17872758760713847
0.04408366466354644 -0.007089424881126911 -0.16252918764551968
0.06371384408174499 0.0021524813478411365 -0.1463307876839009
0.08334402349994355 0.011394387576809197 -0.1301323877222821
0.1029742029181421 0.020636293805777257 -0.11393398776066331
0.12260438233634065 0.02987820003474531 -0.09773558779904452
0.1422345617545392 0.039120106263713365 -0.08153718783742574
0.16186474117273772 0.048362012492681426 -0.06533878787580695
0.18149492059093628 0.05760391872164949 -0.049140387914188156
0.0018847096921807752 -0.047264678190799596 -0.1789888930222774
0.021514889110379333 -0.038022771961831535 -0.16279049306065863
0.041145068528577876 -0.028780865732863474 -0.14659209309903984
0.060775247946776426 -0.019538959503895427 -0.13039369313742105
0.08040542736497497 -0.010297053274927364 -0.11419529317580225
0.10003560678317353 -0.0010551470459593038 -0.09799689321418346
0.11966578620137207 0.00818675918300875 -0.08179849325256468
0.13929596561957064 0.017428665411976803 -0.06560009329094589
0.15892614503776917 0.026670571640944864 -0.0494016933293271
0.17855632445596772 0.035912477869912925 -0.0332032933677083
-0.0010538864427877956 -0.06895611904253617 -0.16305179847579754
0.01857629297541076 -0.059714212813568104 -0.14685339851417875
0.0382064723936093 -0.050472306584600043 -0.13065499855255996
0.05783665181180785 -0.041230400355631996 -0.11445659859094119
0.0774668312300064 -0.031988494126663936 -0.0982581986293224
0.09709701064820496 -0.02274658789769587 -0.08205979866770362
0.1167271900664035 -0.013504681668727817 -0.06586139870608483
0.13635736948460206 -0.004262775439759763 -0.049662998744466044
0.1559875489028006 0.004979130789208298 -0.03346459878284725
0.17561772832099914 0.014221037018176359 -0.017266198821228453
-0.0039924825777563665 -0.09064755989427273 -0.1471147039293177
0.01563769684044219 -0.08140565366530467 -0.1309163039676989
0.03526787625864073 -0.0721637474363366 -0.11471790400608012
0.05489805567683928 -0.06292184120736856 -0.09851950404446133
0.07452823509503784 -0.0536799349784005 -0.08232110408284254
0.0941584145132364 -0.04443802874943244 -0.06612270412122376
0.11378859393143494 -0.03519612252046438 -0.04992430415960498
0.13341877334963348 -0.025954216291496333 -0.03372590419798619
0.153048952767832 -0.016712310062528272 -0.017527504236367394
0.17267913218603057 -0.007470403833560211 -0.0013291042747486004
-0.0069310787127249375 -0.1123390007460093 -0.13117760938283785
0.012699100705473618 -0.10309709451704124 -0.11497920942121906
0.032329280123672165 -0.09385518828807318 -0.09878080945960027
0.051959459541870714 -0.08461328205910514 -0.08258240949798148
0.07158963896006926 -0.07537137583013707 -0.0663840095363627
0.09121981837826781 -0.06612946960116901 -0.050185609574743904
0.11084999779646636 -0.05688756337220096 -0.03398720961312512
0.13048017721466493 -0.047645657143232906 -0.017788809651506334
0.15011035663286346 -0.038403750914264845 -0.00159040968988754
0.169740536051062 -0.02916184468529678 0.014607990271731253
-0.009869674847693508 -0.13403044159774585 -0.115240514836358
0.00976050457050505 -0.12478853536877779 -0.09904211487473921
0.029390683988703592 -0.11554662913980973 -0.08284371491312043
0.04902086340690214 -0.10630472291084168 -0.06664531495150164
0.06865104282510069 -0.09706281668187362 -0.05044691498988285
0.08828122224329925 -0.08782091045290556 -0.034248515028264065
0.10791140166149779 -0.07857900422393752 -0.018050115066645275
0.12754158107969635 -0.06933709799496945 -0.0018517151050264887
0.14717176049789488 -0.0600951917660014 0.014346684856592304
0.16680193991609343 -0.05085328553703334 0.0305450848182111
-0.012808270982662077 -0.15572188244948243 -0.09930342028987814
0.006821908435536479 -0.14647997622051437 -0.08310502032825935
0.026452087853735023 -0.1372380699915463 -0.06690662036664057
0.04608226727193357 -0.12799616376257825 -0.050708220405021785
0.06571244669013213 -0.1187542575336102 -0.034509820443403
0.08534262610833068 -0.10951235130464214 -0.01831142048178421
0.10497280552652923 -0.10027044507567408 -0.0021130205201654235
0.12460298494472778 -0.09102853884670603 0.014085379441453364
0.1442331643629263 -0.08178663261773797 0.030283779403072156
0.16386334378112485 -0.07254472638876991 0.04648217936469095
-0.01574686711763065 -0.177413323301219 -0.08336632574339829
0.0038833123005679077 -0.16817141707225094 -0.0671679257817795
0.02351349171876645 -0.15892951084328288 -0.05096952582016071
0.043143671136965 -0.14968760461431482 -0.034771125858541925
0.06277385055516355 -0.14044569838534676 -0.01857272589692314
0.0824040299733621 -0.1312037921563787 -0.002374325935304354
0.10203420939156065 -0.12196188592741065 0.013824074026314432
0.1216643888097592 -0.11271997969844261 0.03002247398793322
0.14129456822795775 -0.10347807346947455 0.046220873949552016
0.1609247476461563 -0.09423616724050649 0.06241927391117081
-0.018685463252599222 -0.19910476415295558 -0.06742923119691843
0.0009447161655993363 -0.18986285792398752 -0.051230831235299645
0.020574895583797877 -0.18062095169501946 -0.03503243127368086
0.04020507500199643 -0.1713790454660514 -0.01883403131206207
0.05983525442019498 -0.16213713923708334 -0.0026356313504432845
0.07946543383839354 -0.15289523300811528 0.013562768611175502
0.09909561325659208 -0.14365332677914722 0.02976116857279429
0.11872579267479064 -0.13441142055017918 0.045959568534413076
0.13835597209298917 -0.12516951432121112 0.06215796849603187
0.15798615151118772 -0.11592760809224305 0.07835636845765066
-0.15798615151118772 0.11592760809224305 -0.07835636845765066
-0.13835597209298917 0.12516951432121112 -0.06215796849603187
-0.11872579267479064 0.13441142055017916 -0.04595956853441308
-0.09909561325659208 0.14365332677914722 -0.029761168572794296
-0.07946543383839354 0.15289523300811528 -0.013562768611175502
-0.05983525442019498 0.16213713923708334 0.0026356313504432845
-0.04020507500199644 0.1713790454660514 0.01883403131206207
-0.020574895583797884 0.18062095169501946 0.03503243127368086
-0.0009447161655993363 0.18986285792398752 0.051230831235299645
0.018685463252599222 0.19910476415295558 0.06742923119691843
-0.1609247476461563 0.09423616724050649 -0.06241927391117081
-0.14129456822795775 0.10347807346947455 -0.046220873949552016
-0.1216643888097592 0.1127199796984426 -0.030022473987933226
-0.10203420939156065 0.12196188592741065 -0.013824074026314439
-0.0824040299733621 0.1312037921563787 0.002374325935304354
-0.06277385055516355 0.14044569838534676 0.01857272589692314
-0.04314367113696501 0.14968760461431482 0.034771125858541925
-0.023513491718766457 0.15892951084328288 0.05096952582016071
-0.0038833123005679077 0.16817141707225094 0.0671679257817795
0.01574686711763065 0.177413323301219 0.08336632574339829
-0.16386334378112485 0.07254472638876992 -0.046482179364690956
-0.1442331643629263 0.08178663261773798 -0.030283779403072166
-0.12460298494472778 0.09102853884670603 -0.014085379441453378
-0.10497280552652923 0.10027044507567409 0.0021130205201654083
-0.08534262610833068 0.10951235130464215 0.0183114204817842
-0.06571244669013213 0.11875425753361021 0.03450982044340299
-0.046082267271933576 0.12799616376257825 0.05070822040502178
-0.026452087853735026 0.1372380699915463 0.06690662036664057
-0.006821908435536477 0.14647997622051437 0.08310502032825935
0.012808270982662079 0.15572188244948243 0.09930342028987814
-0.16680193991609343 0.050853285537033346 -0.030545084818211107
-0.14717176049789488 0.06009519176600141 -0.014346684856592313
-0.12754158107969635 0.06933709799496947 0.0018517151050264737
-0.10791140166149779 0.07857900422393752 0.01805011506664526
-0.08828122224329925 0.08782091045290558 0.03424851502826405
-0.06865104282510069 0.09706281668187364 0.05044691498988284
-0.04902086340690215 0.10630472291084168 0.06664531495150162
-0.0293906839887036 0.11554662913980975 0.08284371491312041
-0.00976050457050505 0.1247885353687778 0.0990421148747392
0.009869674847693508 0.13403044159774588 0.11524051483635799
-0.169740536051062 0.02916184468529678 -0.014607990271731253
-0.15011035663286346 0.038403750914264845 0.00159040968988754
-0.13048017721466493 0.0476456571432329 0.017788809651506327
-0.11084999779646636 0.05688756337220095 0.03398720961312511
-0.09121981837826781 0.06612946960116901 0.050185609574743904
-0.07158963896006926 0.07537137583013707 0.0663840095363627
-0.05195945954187072 0.08461328205910512 0.08258240949798148
-0.03232928012367217 0.09385518828807318 0.09878080945960027
-0.012699100705473618 0.10309709451704124 0.11497920942121906
0.0069310787127249375 0.1123390007460093 0.13117760938283785
-0.17267913218603057 0.007470403833560211 0.0013291042747486004
-0.153048952767832 0.016712310062528272 0.017527504236367394
-0.13341877334963348 0.025954216291496326 0.033725904197986184
-0.11378859393143494 0.035196122520464376 0.04992430415960497
-0.0941584145132364 0.04443802874943244 0.06612270412122376
-0.07452823509503784 0.0536799349784005 0.08232110408284254
-0.05489805567683929 0.06292184120736855 0.09851950404446133
-0.03526787625864074 0.0721637474363366 0.11471790400608012
-0.01563769684044219 0.08140565366530467 0.1309163039676989
0.0039924825777563665 0.09064755989427273 0.1471147039293177
-0.17561772832099914 -0.014221037018176348 0.017266198821228446
-0.1559875489028006 -0.004979130789208286 0.03346459878284724
-0.13635736948460206 0.0042627754397597676 0.04966299874446602
-0.1167271900664035 0.01350468166872782 0.06586139870608482
-0.09709701064820496 0.02274658789769588 0.0820597986677036
-0.0774668312300064 0.03198849412666394 0.09825819862932239
-0.05783665181180786 0.04123040035563199 0.11445659859094118
-0.03820647239360931 0.05047230658460005 0.13065499855255996
-0.01857629297541076 0.05971421281356811 0.14685339851417875
0.001053886442787797 0.06895611904253618 0.16305179847579754
-0.17855632445596772 -0.03591247786991292 0.033203293367708296
-0.15892614503776917 -0.026670571640944853 0.04940169332932709
-0.13929596561957064 -0.0174286654119768 0.06560009329094588
-0.11966578620137207 -0.008186759183008745 0.08179849325256466
-0.10003560678317353 0.001055147045959315 0.09799689321418346
-0.08040542736497497 0.010297053274927376 0.11419529317580225
-0.06077524794677643 0.019538959503895423 0.13039369313742102
-0.04114506852857788 0.028780865732863484 0.1465920930990398
-0.02151488911037933 0.03802277196183154 0.1627904930606586
-0.0018847096921807737 0.0472646781907996 0.17898889302227738
-0.18149492059093628 -0.05760391872164949 0.049140387914188156
-0.16186474117273772 -0.048362012492681426 0.06533878787580695
-0.1422345617545392 -0.03912010626371337 0.08153718783742574
-0.12260438233634065 -0.02987820003474532 0.09773558779904452
-0.1029742029181421 -0.020636293805777257 0.11393398776066331
-0.08334402349994355 -0.011394387576809197 0.1301323877222821
-0.063713844081745 -0.0021524813478411503 0.1463307876839009
-0.04408366466354645 0.007089424881126911 0.16252918764551968
-0.024453485245347902 0.016331331110094972 0.17872758760713847
-0.004823305827149345 0.025573237339063033 0.19492598756875726
-0.18443351672590486 -0.07929535957338606 0.06507748246066801
-0.1648033373077063 -0.070053453344418 0.08127588242228681
-0.14517315788950777 -0.06081154711544995 0.0974742823839056
-0.1255429784713092 -0.051569640886481895 0.11367268234552438
-0.10591279905311067 -0.042327734657513834 0.12987108230714317
-0.08628261963491211 -0.03308582842854577 0.14606948226876196
-0.06665244021671357 -0.023843922199577722 0.16226788223038074
-0.04702226079851502 -0.014602015970609663 0.17846628219199953
-0.027392081380316475 -0.0053601097416416015 0.19466468215361832
-0.0077619019621179165 0.0038817964873264594 0.2108630821152371
0.0077619019621179165 -0.0038817964873264594 -0.2108630821152371
0.027392081380316475 0.0053601097416416015 -0.19466468215361832
0.047022260798515014 0.014602015970609663 -0.17846628219199953
0.06665244021671357 0.02384392219957771 -0.16226788223038074
0.08628261963491211 0.03308582842854577 -0.14606948226876196
0.10591279905311067 0.042327734657513834 -0.12987108230714317
0.1255429784713092 0.05156964088648189 -0.11367268234552438
0.14517315788950777 0.06081154711544994 -0.0974742823839056
0.1648033373077063 0.070053453344418 -0.08127588242228681
0.18443351672590486 0.07929535957338606 -0.06507748246066801
-0.010654548423804934 0.00943035957707016 -0.19614011393106084
0.008975630994393623 0.01867226580603822 -0.17994171396944206
0.028605810412592168 0.027914172035006266 -0.16374331400782327
0.048235989830790714 0.03715607826397433 -0.14754491404620448
0.06786616924898926 0.046397984492942385 -0.1313465140845857
0.08749634866718782 0.055639890721910445 -0.11514811412296688
0.10712652808538636 0.06488179695087849 -0.09894971416134811
0.12675670750358492 0.07412370317984655 -0.08275131419972932
0.14638688692178348 0.08336560940881461 -0.06655291423811052
0.16601706633998203 0.09260751563778268 -0.05035451427649173
-0.029070998809727782 0.022742515641466763 -0.18141714574688458
-0.009440819391529227 0.03198442187043483 -0.16521874578526577
0.010189360026669316 0.04122632809940288 -0.14902034582364698
0.029819539444867867 0.050468234328370935 -0.1328219458620282
0.049449718863066414 0.059710140557338996 -0.11662354590040941
0.06907989828126497 0.06895204678630705 -0.10042514593879062
0.08871007769946351 0.07819395301527511 -0.08422674597717184
0.10834025711766207 0.08743585924424317 -0.06802834601555305
0.12797043653586063 0.09667776547321122 -0.051829946053934255
0.14760061595405916 0.10591967170217928 -0.03563154609231546
-0.047487449195650636 0.03605467170586338 -0.1666941775627083
-0.027857269777452075 0.04529657793483144 -0.1504957776010895
-0.008227090359253534 0.05453848416379949 -0.13429737763947072
0.011403089058945015 0.06378039039276755 -0.11809897767785194
0.031033268477143567 0.07302229662173561 -0.10190057771623315
0.05066344789534212 0.08226420285070367 -0.08570217775461435
0.07029362731354066 0.09150610907967172 -0.06950377779299556
0.08992380673173922 0.10074801530863978 -0.05330537783137678
0.10955398614993776 0.10998992153760784 -0.03710697786975799
0.12918416556813633 0.1192318277665759 -0.020908577908139186
-0.06590389958157349 0.04936682777025999 -0.15197120937853204
-0.04627372016337493 0.05860873399922805 -0.13577280941691325
-0.026643540745176383 0.0678506402281961 -0.11957440945529445
-0.007013361326977835 0.07709254645716417 -0.10337600949367566
0.012616818091220717 0.08633445268613223 -0.08717760953205687
0.03224699750941927 0.09557635891510027 -0.07097920957043807
0.05187717692761781 0.10481826514406833 -0.05478080960881929
0.07150735634581637 0.1140601713730364 -0.03858240964720051
0.09113753576401491 0.12330207760200446 -0.022384009685581713
0.11076771518221347 0.13254398383097252 -0.006185609723962912
-0.08432034996749634 0.0626789838346566 -0.13724824119435577
-0.06469017054929778 0.07192089006362466 -0.12104984123273696
-0.045059991131099236 0.08116279629259272 -0.10485144127111817
-0.025429811712900683 0.09040470252156077 -0.08865304130949939
-0.005799632294702135 0.09964660875052883 -0.0724546413478806
0.01383054712349642 0.10888851497949689 -0.056256241386261806
0.03346072654169496 0.11813042120846495 -0.04005784142464302
0.05309090595989351 0.12737232743743301 -0.023859441463024232
0.07272108537809206 0.13661423366640107 -0.007661041501405438
0.09235126479629062 0.14585613989536914 0.008537358460213348
-0.10273680035341917 0.0759911398990532 -0.12252527301017949
-0.08310662093522062 0.08523304612802127 -0.1063268730485607
-0.06347644151702209 0.09447495235698933 -0.09012847308694191
-0.04384626209882353 0.10371685858595739 -0.07393007312532313
-0.024216082680624976 0.11295876481492544 -0.05773167316370433
-0.004585903262426421 0.1222006710438935 -0.04153327320208554
0.015044276155772118 0.13144257727286154 -0.02533487324046675
0.03467445557397067 0.1406844835018296 -0.009136473278847965
0.05430463499216922 0.14992638973079767 0.007061926682770822
0.07393481441036778 0.15916829595976573 0.023260326644389623
-0.12115325073934202 0.08930329596344982 -0.10780230482600323
-0.10152307132114347 0.09854520219241789 -0.09160390486438443
-0.08189289190294494 0.10778710842138593 -0.07540550490276564
-0.06226271248474638 0.117029014650354 -0.05920710494114685
-0.04263253306654783 0.12627092087932204 -0.043008704979528065
-0.02300235364834927 0.1355128271082901 -0.026810305017909264
-0.003372174230150732 0.14475473333725816 -0.010611905056290484
0.016258005188047823 0.15399663956622622 0.00558649490532831
0.03588818460624637 0.16323854579519428 0.021784894866947097
0.055518364024444926 0.17248045202416235 0.03798329482856588
-0.1395697011252649 0.10261545202784644 -0.09307933664182695
-0.11993952170706634 0.1118573582568145 -0.07688093668020815
-0.10030934228886779 0.12109926448578255 -0.060682536718589364
-0.08067916287066923 0.13034117071475063 -0.04448413675697058
-0.06104898345247069 0.13958307694371866 -0.02828573679535179
-0.04141880403427213 0.14882498317268672 -0.01208733683373299
-0.021788624616073584 0.15806688940165478 0.004111063127885783
-0.002158445197875036 0.16730879563062284 0.02030946308950457
0.017471734220323516 0.1765507018595909 0.03650786305112337
0.03710191363852207 0.18579260808855896 0.05270626301274217
-0.15798615151118772 0.11592760809224305 -0.07835636845765066
-0.13835597209298917 0.12516951432121112 -0.06215796849603187
-0.11872579267479064 0.13441142055017916 -0.04595956853441308
-0.09909561325659208 0.14365332677914722 -0.029761168572794296
-0.07946543383839354 0.15289523300811528 -0.013562768611175502
-0.05983525442019498 0.16213713923708334 0.0026356313504432845
-0.04020507500199644 0.1713790454660514 0.01883403131206207
-0.020574895583797884 0.18062095169501946 0.03503243127368086
-0.0009447161655993363 0.18986285792398752 0.051230831235299645
0.018685463252599222 0.19910476415295558 0.06742923119691843
-0.018685463252599222 -0.19910476415295558 -0.06742923119691843
0.0009447161655993363 -0.18986285792398752 -0.051230831235299645
0.020574895583797877 -0.18062095169501946 -0.03503243127368086
0.04020507500199643 -0.1713790454660514 -0.01883403131206207
0.05983525442019498 -0.16213713923708334 -0.0026356313504432845
0.07946543383839354 -0.15289523300811528 0.013562768611175502
0.09909561325659208 -0.14365332677914722 0.02976116857279429
0.11872579267479064 -0.13441142055017918 0.045959568534413076
0.13835597209298917 -0.12516951432121112 0.06215796849603187
0.15798615151118772 -0.11592760809224305 0.07835636845765066
-0.03710191363852207 -0.18579260808855896 -0.05270626301274217
-0.017471734220323516 -0.1765507018595909 -0.03650786305112337
0.002158445197875029 -0.16730879563062284 -0.020309463089504584
0.021788624616073577 -0.15806688940165478 -0.004111063127885797
0.04141880403427213 -0.14882498317268672 0.01208733683373299
0.06104898345247069 -0.13958307694371866 0.02828573679535179
0.08067916287066923 -0.13034117071475063 0.04448413675697057
0.10030934228886779 -0.12109926448578257 0.06068253671858936
0.11993952170706634 -0.1118573582568145 0.07688093668020815
0.1395697011252649 -0.10261545202784644 0.09307933664182695
-0.05551836402444492 -0.17248045202416235 -0.0379832948285659
-0.03588818460624636 -0.16323854579519428 -0.021784894866947097
-0.016258005188047823 -0.15399663956622622 -0.00558649490532831
0.0033721742301507287 -0.1447547333372582 0.01061190505629047
0.023002353648349277 -0.13551282710829013 0.026810305017909264
0.04263253306654784 -0.12627092087932207 0.04300870497952806
0.06226271248474638 -0.11702901465035401 0.05920710494114684
0.08189289190294494 -0.10778710842138595 0.07540550490276562
0.10152307132114348 -0.09854520219241789 0.09160390486438443
0.12115325073934202 -0.08930329596344982 0.10780230482600321
-0.07393481441036777 -0.15916829595976573 -0.023260326644389623
-0.05430463499216921 -0.14992638973079767 -0.007061926682770836
-0.03467445557397067 -0.14068448350182963 0.00913647327884795
-0.015044276155772121 -0.13144257727286157 0.025334873240466738
0.004585903262426428 -0.12220067104389351 0.04153327320208553
0.024216082680624983 -0.11295876481492545 0.057731673163704325
0.04384626209882353 -0.10371685858595739 0.07393007312532311
0.06347644151702209 -0.09447495235698934 0.0901284730869419
0.08310662093522063 -0.08523304612802128 0.10632687304856069
0.10273680035341919 -0.07599113989905322 0.12252527301017949
-0.09235126479629062 -0.14585613989536914 -0.008537358460213348
-0.07272108537809206 -0.13661423366640107 0.007661041501405438
-0.05309090595989352 -0.12737232743743301 0.023859441463024225
-0.03346072654169497 -0.11813042120846495 0.04005784142464301
-0.01383054712349642 -0.10888851497949689 0.056256241386261806
0.005799632294702135 -0.09964660875052883 0.0724546413478806
0.025429811712900676 -0.09040470252156078 0.08865304130949939
0.04505999113109923 -0.08116279629259272 0.10485144127111817
0.06469017054929778 -0.07192089006362466 0.12104984123273696
0.08432034996749634 -0.0626789838346566 0.13724824119435577
-0.11076771518221347 -0.13254398383097252 0.006185609723962912
-0.09113753576401491 -0.12330207760200446 0.022384009685581713
-0.07150735634581637 -0.1140601713730364 0.0385824096472005
-0.05187717692761782 -0.10481826514406833 0.054780809608819286
-0.03224699750941927 -0.09557635891510027 0.07097920957043807
-0.012616818091220717 -0.08633445268613223 0.08717760953205687
0.007013361326977824 -0.07709254645716417 0.10337600949367566
0.026643540745176376 -0.0678506402281961 0.11957440945529445
0.04627372016337493 -0.05860873399922805 0.13577280941691325
0.06590389958157349 -0.04936682777025999 0.15197120937853204
-0.1291841655681363 -0.1192318277665759 0.020908577908139186
-0.10955398614993775 -0.10998992153760784 0.03710697786975797
-0.08992380673173922 -0.10074801530863979 0.05330537783137677
-0.07029362731354066 -0.09150610907967173 0.06950377779299555
-0.05066344789534211 -0.08226420285070367 0.08570217775461435
-0.03103326847714356 -0.07302229662173561 0.10190057771623313
-0.011403089058945019 -0.06378039039276756 0.11809897767785192
0.008227090359253534 -0.05453848416379951 0.13429737763947072
0.027857269777452082 -0.045296577934831446 0.1504957776010895
0.04748744919565064 -0.036054671705863385 0.1666941775627083
-0.14760061595405916 -0.1059196717021793 0.035631546092315454
-0.1279704365358606 -0.09667776547321123 0.05182994605393425
-0.10834025711766207 -0.08743585924424317 0.06802834601555303
-0.08871007769946351 -0.07819395301527512 0.08422674597717182
-0.06907989828126497 -0.06895204678630706 0.10042514593879061
-0.04944971886306641 -0.059710140557339 0.11662354590040941
-0.02981953944486787 -0.05046823432837095 0.1328219458620282
-0.010189360026669316 -0.04122632809940289 0.14902034582364698
0.009440819391529234 -0.03198442187043484 0.16521874578526577
0.02907099880972779 -0.022742515641466777 0.18141714574688456
-0.16601706633998203 -0.09260751563778268 0.05035451427649173
-0.14638688692178348 -0.08336560940881461 0.06655291423811052
-0.12675670750358492 -0.07412370317984655 0.08275131419972931
-0.10712652808538636 -0.06488179695087849 0.0989497141613481
-0.08749634866718782 -0.055639890721910445 0.11514811412296688
-0.06786616924898926 -0.046397984492942385 0.1313465140845857
-0.04823598983079072 -0.03715607826397433 0.14754491404620446
-0.028605810412592175 -0.027914172035006266 0.16374331400782324
-0.008975630994393623 -0.01867226580603822 0.17994171396944206
0.010654548423804934 -0.00943035957707016 0.19614011393106084
-0.18443351672590486 -0.07929535957338606 0.06507748246066801
-0.1648033373077063 -0.070053453344418 0.08127588242228681
-0.14517315788950777 -0.06081154711544995 0.0974742823839056
-0.1255429784713092 -0.051569640886481895 0.11367268234552438
-0.10591279905311067 -0.042327734657513834 0.12987108230714317
-0.08628261963491211 -0.03308582842854577 0.14606948226876196
-0.06665244021671357 -0.023843922199577722 0.16226788223038074
-0.04702226079851502 -0.014602015970609663 0.17846628219199953
-0.027392081380316475 -0.0053601097416416015 0.19466468215361832
-0.0077619019621179165 0.0038817964873264594 0.2108630821152371
