# .PCD v0.7 - Point Cloud Data file format
VERSION 0.7
FIELDS x y z
SIZE 4 4 4
TYPE F F F
COUNT 1 1 1
WIDTH 600
HEIGHT 1
VIEWPOINT 0 0 0 1 0 0 0
POINTS 600
DATA ascii
-0.07031393149371042 -0.0285937111918085 -0.06823645282469817
-0.06164141105202809 -0.018926360182032163 -0.06991489458536283
-0.052968890610345785 -0.00925900917225583 -0.07159333634602749
-0.04429637016866349 0.00040834183752050076 -0.07327177810669215
-0.03562384972698118 0.010075692847296834 -0.07495021986735681
-0.026951329285298878 0.01974304385707317 -0.07662866162802147
-0.018278808843616576 0.0294103948668495 -0.07830710338868613
-0.009606288401934273 0.03907774587662583 -0.07998554514935079
-0.0009337679602519678 0.04874509688640217 -0.08166398691001545
0.007738752481430341 0.058412447896178506 -0.0833424286706801
-0.0728418704493215 -0.024227801812517102 -0.05615192498824203
-0.06416935000763918 -0.014560450802740764 -0.05783036674890669
-0.05549682956595687 -0.004893099792964431 -0.05950880850957135
-0.04682430912427457 0.004774251216811899 -0.061187250270236006
-0.038151788682592266 0.014441602226588234 -0.06286569203090066
-0.029479268240909965 0.02410895323636457 -0.06454413379156532
-0.020806747799227664 0.0337763042461409 -0.06622257555222998
-0.012134227357545357 0.04344365525591723 -0.06790101731289463
-0.0034617069158630522 0.05311100626569357 -0.0695794590735593
0.005210813525819256 0.0627783572754699 -0.07125790083422395
-0.07536980940493258 -0.019861892433225704 -0.044067397151785884
-0.06669728896325026 -0.010194541423449367 -0.04574583891245055
-0.05802476852156795 -0.0005271904136730337 -0.0474242806731152
-0.049352248079885655 0.009140160596103297 -0.04910272243377986
-0.04067972763820335 0.01880751160587963 -0.05078116419444452
-0.032007207196521045 0.028474862615655967 -0.05245960595510918
-0.023334686754838744 0.0381422136254323 -0.05413804771577384
-0.01466216631315644 0.04780956463520863 -0.0558164894764385
-0.005989645871474136 0.057476915644984965 -0.057494931237103156
0.002682874570208173 0.0671442666547613 -0.059173372997767815
-0.07789774836054367 -0.015495983053934308 -0.031982869315329746
-0.06922522791886135 -0.005828632044157972 -0.03366131107599441
-0.06055270747717904 0.003838718965618362 -0.035339752836659064
-0.05188018703549674 0.013506069975394693 -0.03701819459732372
-0.043207666593814434 0.023173420985171025 -0.03869663635798838
-0.03453514615213213 0.032840771994947365 -0.04037507811865304
-0.025862625710449828 0.042508123004723695 -0.0420535198793177
-0.017190105268767523 0.052175474014500026 -0.04373196163998236
-0.008517584827085218 0.06184282502427636 -0.04541040340064702
0.00015493561459709024 0.0715101760340527 -0.047088845161311677
-0.08042568731615474 -0.011130073674642912 -0.019898341478873607
-0.07175316687447242 -0.0014627226648665746 -0.021576783239538266
-0.06308064643279011 0.008204628344909759 -0.023255225000202925
-0.05440812599110782 0.01787197935468609 -0.024933666760867584
-0.04573560554942552 0.027539330364462423 -0.026612108521532243
-0.03706308510774321 0.03720668137423876 -0.028290550282196902
-0.02839056466606091 0.046874032384015094 -0.02996899204286156
-0.019718044224378607 0.056541383393791424 -0.03164743380352622
-0.011045523782696302 0.06620873440356775 -0.03332587556419087
-0.0023730033410139934 0.07587608541334409 -0.03500431732485554
-0.08295362627176583 -0.006764164295351514 -0.007813813642417462
-0.07428110583008352 0.0029031867144248234 -0.009492255403082123
-0.06560858538840121 0.012570537724201157 -0.01117069716374678
-0.056936064946718906 0.022237888733977487 -0.01284913892441144
-0.0482635445050366 0.03190523974375382 -0.014527580685076098
-0.039591024063354296 0.041572590753530154 -0.016206022445740757
-0.030918503621671995 0.051239941763306485 -0.017884464206405416
-0.02224598317998969 0.060907292773082815 -0.019562905967070075
-0.013573462738307385 0.07057464378285916 -0.02124134772773473
-0.004900942296625077 0.0802419947926355 -0.022919789488399393
-0.0854815652273769 -0.0023982549160601187 0.004270714194038673
-0.07680904478569459 0.007269096093716218 0.002592272433374012
-0.06813652434401228 0.01693644710349255 0.0009138306727093548
-0.05946400390232999 0.026603798113268882 -0.0007646110879553042
-0.050791483460647685 0.036271149123045215 -0.002443052848619963
-0.04211896301896538 0.04593850013282155 -0.004121494609284622
-0.033446442577283075 0.05560585114259788 -0.005799936369949281
-0.024773922135600774 0.06527320215237421 -0.00747837813061394
-0.01610140169391847 0.07494055316215055 -0.009156819891278596
-0.007428881252236159 0.08460790417192689 -0.010835261651943259
-0.08800950418298799 0.001967654463231279 0.016355242030494817
-0.07933698374130567 0.011635005473007616 0.014676800269830157
-0.07066446329962336 0.02130235648278395 0.0129983585091655
-0.061991942857941074 0.03096970749256028 0.01131991674850084
-0.05331942241625877 0.040637058502336613 0.009641474987836181
-0.044646901974576464 0.05030440951211295 0.007963033227171522
-0.03597438153289416 0.05997176052188928 0.006284591466506863
-0.027301861091211858 0.06963911153166562 0.004606149705842204
-0.018629340649529553 0.07930646254144195 0.002927707945177548
-0.009956820207847243 0.08897381355121829 0.0012492661845128856
-0.09053744313859907 0.006333563842522676 0.028439769866950956
-0.08186492269691675 0.016000914852299014 0.026761328106286297
-0.07319240225523445 0.025668265862075348 0.025082886345621638
-0.06451988181355216 0.035335616871851674 0.02340444458495698
-0.05584736137186985 0.04500296788162801 0.02172600282429232
-0.04717484093018755 0.05467031889140435 0.02004756106362766
-0.03850232048850524 0.06433766990118067 0.018369119302963
-0.029829800046822938 0.07400502091095701 0.016690677542298343
-0.021157279605140633 0.08367237192073335 0.015012235781633689
-0.012484759163458327 0.09333972293050968 0.013333794020969026
-0.09306538209421016 0.010699473221814075 0.040524297703407104
-0.08439286165252784 0.020366824231590412 0.038845855942742445
-0.07572034121084553 0.030034175241366746 0.037167414182077786
-0.06704782076916324 0.03970152625114307 0.03548897242141313
-0.058375300327480936 0.04936887726091941 0.03381053066074847
-0.04970277988579863 0.05903622827069575 0.03213208890008381
-0.041030259444116327 0.06870357928047208 0.03045364713941915
-0.03235773900243402 0.0783709302902484 0.02877520537875449
-0.02368521856075172 0.08803828130002474 0.027096763618089836
-0.01501269811906941 0.09770563230980107 0.025418321857425173
0.01501269811906941 -0.09770563230980107 -0.025418321857425173
0.02368521856075172 -0.08803828130002474 -0.027096763618089836
0.03235773900243402 -0.0783709302902484 -0.02877520537875449
0.041030259444116327 -0.06870357928047208 -0.03045364713941915
0.04970277988579863 -0.05903622827069575 -0.03213208890008381
0.058375300327480936 -0.04936887726091941 -0.03381053066074847
0.06704782076916323 -0.03970152625114308 -0.03548897242141313
0.07572034121084553 -0.030034175241366746 -0.037167414182077786
0.08439286165252784 -0.020366824231590412 -0.038845855942742445
0.09306538209421016 -0.010699473221814075 -0.040524297703407104
0.012484759163458327 -0.09333972293050968 -0.013333794020969026
0.021157279605140633 -0.08367237192073335 -0.015012235781633689
0.029829800046822938 -0.07400502091095701 -0.016690677542298343
0.03850232048850524 -0.06433766990118069 -0.018369119302963
0.04717484093018755 -0.05467031889140435 -0.02004756106362766
0.05584736137186985 -0.04500296788162801 -0.02172600282429232
0.06451988181355214 -0.03533561687185168 -0.02340444458495698
0.07319240225523445 -0.025668265862075348 -0.025082886345621638
0.08186492269691675 -0.016000914852299014 -0.026761328106286297
0.09053744313859907 -0.006333563842522676 -0.028439769866950956
0.009956820207847243 -0.08897381355121829 -0.0012492661845128856
0.018629340649529553 -0.07930646254144195 -0.002927707945177548
0.027301861091211858 -0.06963911153166562 -0.004606149705842204
0.03597438153289416 -0.05997176052188929 -0.006284591466506863
0.044646901974576464 -0.05030440951211295 -0.007963033227171522
0.05331942241625877 -0.040637058502336613 -0.009641474987836181
0.06199194285794107 -0.030969707492560283 -0.01131991674850084
0.07066446329962336 -0.02130235648278395 -0.0129983585091655
0.07933698374130567 -0.011635005473007616 -0.014676800269830157
0.08800950418298799 -0.001967654463231279 -0.016355242030494817
0.007428881252236161 -0.08460790417192689 0.010835261651943252
0.01610140169391847 -0.07494055316215055 0.00915681989127859
0.024773922135600774 -0.06527320215237421 0.007478378130613934
0.033446442577283075 -0.05560585114259789 0.005799936369949275
0.04211896301896538 -0.04593850013282155 0.004121494609284616
0.050791483460647685 -0.036271149123045215 0.0024430528486199567
0.05946400390232998 -0.02660379811326889 0.0007646110879552978
0.06813652434401228 -0.016936447103492555 -0.0009138306727093612
0.07680904478569459 -0.007269096093716221 -0.0025922724333740186
0.0854815652273769 0.0023982549160601165 -0.004270714194038679
0.004900942296625077 -0.0802419947926355 0.022919789488399393
0.013573462738307385 -0.07057464378285916 0.02124134772773473
0.02224598317998969 -0.060907292773082815 0.019562905967070075
0.03091850362167199 -0.05123994176330649 0.017884464206405416
0.039591024063354296 -0.041572590753530154 0.016206022445740757
0.0482635445050366 -0.03190523974375382 0.014527580685076098
0.0569360649467189 -0.02223788873397749 0.01284913892441144
0.06560858538840121 -0.012570537724201157 0.01117069716374678
0.07428110583008352 -0.0029031867144248234 0.009492255403082123
0.08295362627176583 0.006764164295351514 0.007813813642417462
0.0023730033410139934 -0.07587608541334409 0.03500431732485554
0.011045523782696302 -0.06620873440356775 0.03332587556419087
0.019718044224378607 -0.056541383393791424 0.03164743380352622
0.028390564666060908 -0.0468740323840151 0.02996899204286156
0.03706308510774321 -0.03720668137423876 0.028290550282196902
0.04573560554942552 -0.027539330364462423 0.026612108521532243
0.054408125991107816 -0.017871979354686093 0.024933666760867584
0.06308064643279011 -0.008204628344909759 0.023255225000202925
0.07175316687447242 0.0014627226648665746 0.021576783239538266
0.08042568731615474 0.011130073674642912 0.019898341478873607
-0.0001549356145970889 -0.0715101760340527 0.047088845161311677
0.00851758482708522 -0.06184282502427636 0.04541040340064701
0.017190105268767523 -0.052175474014500026 0.04373196163998236
0.025862625710449824 -0.0425081230047237 0.0420535198793177
0.03453514615213213 -0.032840771994947365 0.04037507811865304
0.043207666593814434 -0.023173420985171028 0.03869663635798838
0.05188018703549673 -0.013506069975394698 0.03701819459732372
0.06055270747717904 -0.003838718965618364 0.035339752836659064
0.06922522791886135 0.005828632044157969 0.033661311075994405
0.07789774836054367 0.015495983053934306 0.031982869315329746
-0.002682874570208173 -0.0671442666547613 0.059173372997767815
0.005989645871474136 -0.057476915644984965 0.057494931237103156
0.01466216631315644 -0.04780956463520863 0.0558164894764385
0.02333468675483874 -0.038142213625432304 0.05413804771577384
0.032007207196521045 -0.028474862615655967 0.05245960595510918
0.04067972763820335 -0.01880751160587963 0.05078116419444452
0.04935224807988565 -0.0091401605961033 0.04910272243377986
0.05802476852156795 0.0005271904136730337 0.0474242806731152
0.06669728896325026 0.010194541423449367 0.04574583891245055
0.07536980940493258 0.019861892433225704 0.044067397151785884
-0.005210813525819256 -0.0627783572754699 0.07125790083422395
0.0034617069158630522 -0.05311100626569357 0.0695794590735593
0.012134227357545357 -0.04344365525591723 0.06790101731289463
0.02080674779922766 -0.033776304246140906 0.06622257555222998
0.029479268240909965 -0.02410895323636457 0.06454413379156532
0.038151788682592266 -0.014441602226588234 0.06286569203090066
0.046824309124274564 -0.004774251216811903 0.061187250270236006
0.05549682956595687 0.004893099792964431 0.05950880850957135
0.06416935000763918 0.014560450802740764 0.05783036674890669
0.0728418704493215 0.024227801812517102 0.05615192498824203
-0.007738752481430341 -0.058412447896178506 0.0833424286706801
0.0009337679602519678 -0.04874509688640217 0.08166398691001545
0.009606288401934273 -0.03907774587662583 0.07998554514935079
0.018278808843616573 -0.02941039486684951 0.07830710338868613
0.026951329285298878 -0.01974304385707317 0.07662866162802147
0.03562384972698118 -0.010075692847296834 0.07495021986735681
0.04429637016866348 -0.00040834183752050423 0.07327177810669215
0.052968890610345785 0.00925900917225583 0.07159333634602749
0.06164141105202809 0.018926360182032163 0.06991489458536283
0.07031393149371042 0.0285937111918085 0.06823645282469817
-0.07031393149371042 -0.0285937111918085 -0.06823645282469817
-0.0608331948700682 -0.036272813538252124 -0.06347888271722339
-0.05135245824642599 -0.04395191588469574 -0.05872131260974862
-0.0418717216227838 -0.05163101823113936 -0.05396374250227384
-0.032390984999141594 -0.05931012057758298 -0.04920617239479906
-0.022910248375499397 -0.06698922292402659 -0.044448602287324286
-0.013429511751857198 -0.07466832527047021 -0.03969103217984951
-0.003948775128214997 -0.08234742761691383 -0.03493346207237473
0.005531961495427207 -0.09002652996335744 -0.03017589196489995
0.01501269811906941 -0.09770563230980107 -0.025418321857425173
-0.0728418704493215 -0.024227801812517102 -0.05615192498824203
-0.06336113382567929 -0.031906904158960726 -0.05139435488076725
-0.05388039720203707 -0.03958600650540434 -0.04663678477329247
-0.04439966057839488 -0.04726510885184796 -0.0418792146658177
-0.03491892395475268 -0.054944211198291584 -0.037121644558342916
-0.025438187331110484 -0.0626233135447352 -0.03236407445086814
-0.015957450707468283 -0.07030241589117882 -0.027606504343393363
-0.006476714083826081 -0.07798151823762244 -0.02284893423591858
0.0030040225398161226 -0.08566062058406605 -0.018091364128443803
0.012484759163458327 -0.09333972293050968 -0.013333794020969026
-0.07536980940493258 -0.019861892433225704 -0.044067397151785884
-0.06588907278129037 -0.02754099477966933 -0.03930982704431111
-0.056408336157648155 -0.03522009712611295 -0.034552256936836334
-0.046927599534005965 -0.04289919947255656 -0.029794686829361556
-0.03744686291036376 -0.050578301819000186 -0.025037116721886778
-0.027966126286721564 -0.0582574041654438 -0.020279546614412
-0.018485389663079364 -0.06593650651188743 -0.015521976506937223
-0.009004653039437165 -0.07361560885833104 -0.010764406399462443
0.00047608358420503935 -0.08129471120477466 -0.006006836291987664
0.009956820207847243 -0.08897381355121829 -0.0012492661845128856
-0.07789774836054367 -0.015495983053934308 -0.031982869315329746
-0.06841701173690146 -0.023175085400377934 -0.02722529920785497
-0.05893627511325924 -0.030854187746821554 -0.022467729100380193
-0.04945553848961705 -0.038533290093265164 -0.017710158992905418
-0.039974801865974845 -0.04621239243970879 -0.012952588885430638
-0.030494065242332648 -0.053891494786152405 -0.008195018777955861
-0.021013328618690447 -0.06157059713259602 -0.0034374486704810848
-0.011532591995048247 -0.06924969947903964 0.0013201214369936952
-0.002051855371406043 -0.07692880182548326 0.006077691544468473
0.007428881252236161 -0.08460790417192689 0.010835261651943252
-0.08042568731615474 -0.011130073674642912 -0.019898341478873607
-0.07094495069251253 -0.018809176021086536 -0.01514077137139883
-0.06146421406887032 -0.026488278367530156 -0.010383201263924051
-0.05198347744522813 -0.034167380713973766 -0.005625631156449274
-0.04250274082158593 -0.04184648306041739 -0.0008680610489744964
-0.03302200419794373 -0.04952558540686101 0.003889509058500281
-0.02354126757430153 -0.057204687753304624 0.008647079165975057
-0.01406053095065933 -0.06488379009974825 0.013404649273449837
-0.004579794327017127 -0.07256289244619187 0.018162219380924615
0.004900942296625077 -0.0802419947926355 0.022919789488399393
-0.08295362627176583 -0.006764164295351514 -0.007813813642417462
-0.07347288964812362 -0.014443266641795138 -0.003056243534942685
-0.06399215302448141 -0.022122368988238758 0.0017013265725320927
-0.054511416400839216 -0.02980147133468237 0.006458896680006869
-0.04503067977719701 -0.037480573681126 0.011216466787481647
-0.035549943153554815 -0.045159676027569616 0.015974036894956425
-0.026069206529912615 -0.05283877837401323 0.0207316070024312
-0.016588469906270414 -0.06051788072045685 0.025489177109905982
-0.0071077332826282105 -0.06819698306690046 0.03024674721738076
0.0023730033410139934 -0.07587608541334409 0.03500431732485554
-0.0854815652273769 -0.0023982549160601187 0.004270714194038673
-0.0760008286037347 -0.010077357262503743 0.00902828430151345
-0.06652009198009248 -0.017756459608947363 0.013785854408988229
-0.0570393553564503 -0.025435561955390977 0.018543424516463004
-0.047558618732808096 -0.0331146643018346 0.023300994623937782
-0.0380778821091659 -0.04079376664827822 0.02805856473141256
-0.0285971454855237 -0.048472868994721835 0.03281613483888734
-0.019116408861881498 -0.05615197134116545 0.03757370494636212
-0.009635672238239293 -0.06383107368760907 0.042331275053836895
-0.0001549356145970889 -0.0715101760340527 0.047088845161311677
-0.08800950418298799 0.001967654463231279 0.016355242030494817
-0.07852876755934578 -0.005711447883212345 0.021112812137969596
-0.06904803093570357 -0.013390550229655965 0.025870382245444374
-0.059567294312061383 -0.02106965257609958 0.03062795235291915
-0.05008655768841918 -0.028748754922543203 0.03538552246039393
-0.04060582106477698 -0.03642785726898682 0.0401430925678687
-0.031125084441134782 -0.04410695961543044 0.04490066267534348
-0.021644347817492582 -0.051786061961874054 0.04965823278281826
-0.012163611193850376 -0.05946516430831767 0.05441580289029304
-0.002682874570208173 -0.0671442666547613 0.059173372997767815
-0.09053744313859907 0.006333563842522676 0.028439769866950956
-0.08105670651495686 -0.0013455385039209482 0.033197339974425734
-0.07157596989131465 -0.009024640850364569 0.037954910081900516
-0.06209523326767247 -0.01670374319680818 0.04271248018937529
-0.05261449664403026 -0.024382845543251805 0.047470050296850065
-0.043133760020388066 -0.03206194788969542 0.05222762040432485
-0.03365302339674586 -0.03974105023613904 0.05698519051179962
-0.024172286773103662 -0.047420152582582656 0.0617427606192744
-0.01469155014946146 -0.05509925492902627 0.06650033072674918
-0.005210813525819256 -0.0627783572754699 0.07125790083422395
-0.09306538209421016 0.010699473221814075 0.040524297703407104
-0.08358464547056794 0.0030203708753704507 0.045281867810881886
-0.07410390884692573 -0.004658731471073169 0.05003943791835666
-0.06462317222328355 -0.012337833817516783 0.054797008025831435
-0.05514243559964135 -0.020016936163960407 0.05955457813330622
-0.04566169897599915 -0.027696038510404024 0.06431214824078099
-0.036180962352356946 -0.03537514085684764 0.06906971834825577
-0.02670022572871475 -0.04305424320329126 0.07382728845573056
-0.017219489105072545 -0.050733345549734875 0.07858485856320532
-0.007738752481430341 -0.058412447896178506 0.0833424286706801
0.007738752481430341 0.058412447896178506 -0.0833424286706801
0.017219489105072545 0.050733345549734875 -0.07858485856320532
0.02670022572871475 0.04305424320329126 -0.07382728845573056
0.036180962352356946 0.03537514085684765 -0.06906971834825577
0.04566169897599915 0.027696038510404024 -0.06431214824078099
0.05514243559964135 0.020016936163960407 -0.05955457813330622
0.06462317222328354 0.01233783381751679 -0.05479700802583144
0.07410390884692573 0.004658731471073169 -0.05003943791835666
0.08358464547056794 -0.0030203708753704507 -0.045281867810881886
0.09306538209421016 -0.010699473221814075 -0.040524297703407104
0.005210813525819256 0.0627783572754699 -0.07125790083422395
0.01469155014946146 0.05509925492902627 -0.06650033072674918
0.024172286773103662 0.047420152582582656 -0.0617427606192744
0.03365302339674586 0.039741050236139046 -0.05698519051179962
0.043133760020388066 0.03206194788969542 -0.05222762040432485
0.05261449664403026 0.024382845543251805 -0.047470050296850065
0.06209523326767246 0.016703743196808188 -0.04271248018937529
0.07157596989131465 0.009024640850364569 -0.037954910081900516
0.08105670651495686 0.0013455385039209482 -0.033197339974425734
0.09053744313859907 -0.006333563842522676 -0.028439769866950956
0.002682874570208173 0.0671442666547613 -0.059173372997767815
0.012163611193850376 0.05946516430831767 -0.05441580289029304
0.021644347817492582 0.051786061961874054 -0.04965823278281826
0.03112508444113478 0.044106959615430444 -0.04490066267534348
0.04060582106477698 0.03642785726898682 -0.0401430925678687
0.05008655768841918 0.028748754922543203 -0.03538552246039393
0.05956729431206138 0.021069652576099586 -0.030627952352919152
0.06904803093570357 0.013390550229655965 -0.025870382245444374
0.07852876755934578 0.005711447883212345 -0.021112812137969596
0.08800950418298799 -0.001967654463231279 -0.016355242030494817
0.00015493561459709024 0.0715101760340527 -0.047088845161311677
0.009635672238239294 0.06383107368760907 -0.0423312750538369
0.019116408861881498 0.05615197134116545 -0.03757370494636212
0.028597145485523695 0.04847286899472184 -0.032816134838887345
0.0380778821091659 0.04079376664827822 -0.028058564731412567
0.047558618732808096 0.0331146643018346 -0.02330099462393779
0.05703935535645029 0.02543556195539098 -0.018543424516463014
0.06652009198009248 0.01775645960894736 -0.013785854408988234
0.0760008286037347 0.010077357262503741 -0.009028284301513458
0.0854815652273769 0.0023982549160601165 -0.004270714194038679
-0.0023730033410139934 0.07587608541334409 -0.03500431732485554
0.0071077332826282105 0.06819698306690046 -0.03024674721738076
0.016588469906270414 0.06051788072045685 -0.025489177109905982
0.02606920652991261 0.05283877837401324 -0.020731607002431204
0.035549943153554815 0.045159676027569616 -0.015974036894956425
0.04503067977719701 0.037480573681126 -0.011216466787481647
0.05451141640083921 0.02980147133468238 -0.0064588966800068716
0.06399215302448141 0.022122368988238758 -0.0017013265725320927
0.07347288964812362 0.014443266641795138 0.003056243534942685
0.08295362627176583 0.006764164295351514 0.007813813642417462
-0.004900942296625077 0.0802419947926355 -0.022919789488399393
0.004579794327017127 0.07256289244619187 -0.018162219380924615
0.01406053095065933 0.06488379009974825 -0.013404649273449837
0.023541267574301528 0.05720468775330463 -0.008647079165975059
0.03302200419794373 0.04952558540686101 -0.003889509058500281
0.04250274082158593 0.04184648306041739 0.0008680610489744964
0.051983477445228125 0.03416738071397377 0.005625631156449272
0.06146421406887032 0.026488278367530156 0.010383201263924051
0.07094495069251253 0.018809176021086536 0.01514077137139883
0.08042568731615474 0.011130073674642912 0.019898341478873607
-0.007428881252236159 0.08460790417192689 -0.010835261651943259
0.0020518553714060444 0.07692880182548326 -0.0060776915444684795
0.011532591995048249 0.06924969947903964 -0.0013201214369937017
0.021013328618690444 0.06157059713259603 0.0034374486704810765
0.030494065242332648 0.053891494786152405 0.008195018777955854
0.039974801865974845 0.04621239243970879 0.012952588885430633
0.04945553848961704 0.03853329009326517 0.017710158992905407
0.05893627511325924 0.03085418774682155 0.022467729100380186
0.06841701173690146 0.02317508540037793 0.027225299207854964
0.07789774836054367 0.015495983053934306 0.031982869315329746
-0.009956820207847243 0.08897381355121829 0.0012492661845128856
-0.00047608358420503935 0.08129471120477466 0.006006836291987664
0.009004653039437165 0.07361560885833104 0.010764406399462443
0.01848538966307936 0.06593650651188743 0.015521976506937221
0.027966126286721564 0.0582574041654438 0.020279546614412
0.03744686291036376 0.050578301819000186 0.025037116721886778
0.04692759953400596 0.04289919947255657 0.029794686829361552
0.056408336157648155 0.03522009712611295 0.034552256936836334
0.06588907278129037 0.02754099477966933 0.03930982704431111
0.07536980940493258 0.019861892433225704 0.044067397151785884
-0.012484759163458327 0.09333972293050968 0.013333794020969026
-0.0030040225398161226 0.08566062058406605 0.018091364128443803
0.006476714083826081 0.07798151823762244 0.02284893423591858
0.01595745070746828 0.07030241589117882 0.02760650434339336
0.025438187331110484 0.0626233135447352 0.03236407445086814
0.03491892395475268 0.054944211198291584 0.037121644558342916
0.044399660578394874 0.04726510885184797 0.04187921466581769
0.05388039720203707 0.03958600650540434 0.04663678477329247
0.06336113382567929 0.031906904158960726 0.05139435488076725
0.0728418704493215 0.024227801812517102 0.05615192498824203
-0.01501269811906941 0.09770563230980107 0.025418321857425173
-0.005531961495427207 0.09002652996335744 0.03017589196489995
0.003948775128214997 0.08234742761691383 0.03493346207237473
0.013429511751857194 0.07466832527047022 0.03969103217984951
0.022910248375499397 0.06698922292402659 0.044448602287324286
0.032390984999141594 0.05931012057758298 0.04920617239479906
0.04187172162278379 0.051631018231139365 0.05396374250227384
0.05135245824642599 0.04395191588469574 0.05872131260974862
0.0608331948700682 0.036272813538252124 0.06347888271722339
0.07031393149371042 0.0285937111918085 0.06823645282469817
-0.07031393149371042 -0.0285937111918085 -0.06823645282469817
-0.0608331948700682 -0.036272813538252124 -0.06347888271722339
-0.05135245824642599 -0.04395191588469574 -0.05872131260974862
-0.0418717216227838 -0.05163101823113936 -0.05396374250227384
-0.032390984999141594 -0.05931012057758298 -0.04920617239479906
-0.022910248375499397 -0.06698922292402659 -0.044448602287324286
-0.013429511751857198 -0.07466832527047021 -0.03969103217984951
-0.003948775128214997 -0.08234742761691383 -0.03493346207237473
0.005531961495427207 -0.09002652996335744 -0.03017589196489995
0.01501269811906941 -0.09770563230980107 -0.025418321857425173
-0.06164141105202809 -0.018926360182032163 -0.06991489458536283
-0.05216067442838589 -0.026605462528475787 -0.06515732447788805
-0.04267993780474368 -0.034284564874919404 -0.060399754370413276
-0.033199201181101486 -0.04196366722136302 -0.0556421842629385
-0.02371846455745929 -0.049642769567806645 -0.05088461415546373
-0.014237727933817087 -0.05732187191425026 -0.046127044047988945
-0.004756991310174889 -0.06500097426069387 -0.04136947394051417
0.004723745313467312 -0.07268007660713749 -0.036611903833039396
0.014204481937109515 -0.08035917895358112 -0.031854333725564614
0.02368521856075172 -0.08803828130002474 -0.027096763618089836
-0.052968890610345785 -0.00925900917225583 -0.07159333634602749
-0.04348815398670359 -0.016938111518699454 -0.06683576623855271
-0.03400741736306138 -0.024617213865143074 -0.062078196131077935
-0.02452668073941918 -0.03229631621158669 -0.05732062602360316
-0.015045944115776986 -0.03997541855803031 -0.05256305591612838
-0.005565207492134781 -0.04765452090447393 -0.047805485808653604
0.003915529131507416 -0.05533362325091754 -0.04304791570117883
0.013396265755149616 -0.06301272559736117 -0.03829034559370405
0.02287700237879182 -0.07069182794380478 -0.03353277548622927
0.03235773900243402 -0.0783709302902484 -0.02877520537875449
-0.04429637016866349 0.00040834183752050076 -0.07327177810669215
-0.034815633545021284 -0.0072707605089231235 -0.06851420799921737
-0.02533489692137908 -0.014949862855366744 -0.0637566378917426
-0.015854160297736883 -0.022628965201810358 -0.05899906778426782
-0.006373423674094683 -0.030308067548253978 -0.05424149767679304
0.0031073129495475206 -0.0379871698946976 -0.04948392756931826
0.012588049573189717 -0.04566627224114121 -0.04472635746184349
0.02206878619683192 -0.053345374587584836 -0.03996878735436871
0.03154952282047412 -0.06102447693402845 -0.03521121724689393
0.041030259444116327 -0.06870357928047208 -0.03045364713941915
-0.03562384972698118 0.010075692847296834 -0.07495021986735681
-0.02614311310333898 0.0023965905008532106 -0.07019264975988203
-0.016662376479696775 -0.00528251184559041 -0.06543507965240726
-0.007181639856054579 -0.012961614192034024 -0.06067750954493248
0.0022990967675876215 -0.020640716538477644 -0.0559199394374577
0.011779833391229823 -0.028319818884921265 -0.05116236932998292
0.021260570014872023 -0.03599892123136488 -0.04640479922250815
0.030741306638514224 -0.0436780235778085 -0.041647229115033366
0.04022204326215643 -0.05135712592425212 -0.03688965900755859
0.04970277988579863 -0.05903622827069575 -0.03213208890008381
-0.026951329285298878 0.01974304385707317 -0.07662866162802147
-0.017470592661656674 0.012063941510629547 -0.07187109152054669
-0.007989856038014472 0.004384839164185927 -0.06711352141307192
0.0014908805856277258 -0.00329426318225769 -0.06235595130559714
0.010971617209269927 -0.01097336552870131 -0.057598381198122356
0.02045235383291213 -0.01865246787514493 -0.05284081109064758
0.029933090456554328 -0.026331570221588545 -0.048083240983172806
0.03941382708019653 -0.03401067256803216 -0.043325670875698025
0.04889456370383873 -0.041689774914475786 -0.03856810076822325
0.058375300327480936 -0.04936887726091941 -0.03381053066074847
-0.018278808843616576 0.0294103948668495 -0.07830710338868613
-0.008798072219974374 0.021731292520405877 -0.07354953328121135
0.0006826644036678302 0.014052190173962253 -0.06879196317373656
0.010163401027310026 0.00637308782751864 -0.0640343930662618
0.01964413765095223 -0.0013060145189249803 -0.059276822958787015
0.029124874274594433 -0.008985116865368601 -0.05451925285131224
0.03860561089823663 -0.016664219211812215 -0.049761682743837465
0.048086347521878826 -0.024343321558255835 -0.045004112636362684
0.05756708414552104 -0.032022423904699455 -0.0402465425288879
0.06704782076916323 -0.03970152625114308 -0.03548897242141313
-0.009606288401934273 0.03907774587662583 -0.07998554514935079
-0.00012555177829206876 0.031398643530182214 -0.075227975041876
0.009355184845350134 0.02371954118373859 -0.07047040493440124
0.018835921468992333 0.016040438837294974 -0.06571283482692646
0.028316658092634533 0.008361336490851357 -0.060955264719451674
0.03779739471627674 0.0006822341444077329 -0.0561976946119769
0.047278131339918934 -0.006996868202035881 -0.051440124504502124
0.05675886796356113 -0.014675970548479501 -0.04668255439702734
0.06623960458720334 -0.022355072894923122 -0.04192498428955257
0.07572034121084553 -0.030034175241366746 -0.037167414182077786
-0.0009337679602519678 0.04874509688640217 -0.08166398691001545
0.008546968663390235 0.041065994539958545 -0.07690641680254066
0.01802770528703244 0.03338689219351492 -0.07214884669506588
0.027508441910674638 0.02570778984707131 -0.06739127658759111
0.03698917853431684 0.018028687500627687 -0.06263370648011633
0.04646991515795904 0.01034958515418407 -0.05787613637264156
0.05595065178160124 0.002670482807740453 -0.053118566265166776
0.06543138840524343 -0.005008619538703168 -0.048360996157692
0.07491212502888564 -0.012687721885146788 -0.04360342605021722
0.08439286165252784 -0.020366824231590412 -0.038845855942742445
0.007738752481430341 0.058412447896178506 -0.0833424286706801
0.017219489105072545 0.050733345549734875 -0.07858485856320532
0.02670022572871475 0.04305424320329126 -0.07382728845573056
0.036180962352356946 0.03537514085684765 -0.06906971834825577
0.04566169897599915 0.027696038510404024 -0.06431214824078099
0.05514243559964135 0.020016936163960407 -0.05955457813330622
0.06462317222328354 0.01233783381751679 -0.05479700802583144
0.07410390884692573 0.004658731471073169 -0.05003943791835666
0.08358464547056794 -0.0030203708753704507 -0.045281867810881886
0.09306538209421016 -0.010699473221814075 -0.040524297703407104
-0.09306538209421016 0.010699473221814075 0.040524297703407104
-0.08358464547056794 0.0030203708753704507 0.045281867810881886
-0.07410390884692573 -0.004658731471073169 0.05003943791835666
-0.06462317222328355 -0.012337833817516783 0.054797008025831435
-0.05514243559964135 -0.020016936163960407 0.05955457813330622
-0.04566169897599915 -0.027696038510404024 0.06431214824078099
-0.036180962352356946 -0.03537514085684764 0.06906971834825577
-0.02670022572871475 -0.04305424320329126 0.07382728845573056
-0.017219489105072545 -0.050733345549734875 0.07858485856320532
-0.007738752481430341 -0.058412447896178506 0.0833424286706801
-0.08439286165252784 0.020366824231590412 0.038845855942742445
-0.07491212502888564 0.012687721885146788 0.04360342605021722
-0.06543138840524343 0.005008619538703168 0.048360996157692
-0.05595065178160124 -0.002670482807740446 0.053118566265166776
-0.04646991515795904 -0.01034958515418407 0.05787613637264156
-0.03698917853431684 -0.018028687500627687 0.06263370648011633
-0.02750844191067464 -0.025707789847071304 0.06739127658759111
-0.01802770528703244 -0.03338689219351492 0.07214884669506588
-0.008546968663390235 -0.041065994539958545 0.07690641680254066
0.0009337679602519678 -0.04874509688640217 0.08166398691001545
-0.07572034121084553 0.030034175241366746 0.037167414182077786
-0.06623960458720334 0.022355072894923122 0.04192498428955257
-0.05675886796356113 0.014675970548479501 0.04668255439702734
-0.047278131339918934 0.006996868202035886 0.05144012450450212
-0.03779739471627674 -0.0006822341444077329 0.0561976946119769
-0.028316658092634533 -0.008361336490851357 0.060955264719451674
-0.018835921468992337 -0.016040438837294967 0.06571283482692646
-0.009355184845350134 -0.02371954118373859 0.07047040493440124
0.00012555177829206876 -0.031398643530182214 0.075227975041876
0.009606288401934273 -0.03907774587662583 0.07998554514935079
-0.06704782076916324 0.03970152625114307 0.03548897242141313
-0.05756708414552104 0.03202242390469945 0.04024654252888791
-0.04808634752187883 0.02434332155825583 0.045004112636362684
-0.038605610898236636 0.016664219211812215 0.04976168274383746
-0.029124874274594436 0.008985116865368596 0.05451925285131224
-0.019644137650952232 0.0013060145189249734 0.059276822958787015
-0.010163401027310033 -0.00637308782751864 0.0640343930662618
-0.0006826644036678337 -0.01405219017396226 0.06879196317373658
0.00879807221997437 -0.021731292520405877 0.07354953328121135
0.018278808843616573 -0.02941039486684951 0.07830710338868613
-0.058375300327480936 0.04936887726091941 0.03381053066074847
-0.04889456370383873 0.041689774914475786 0.03856810076822325
-0.03941382708019653 0.03401067256803216 0.043325670875698025
-0.02993309045655433 0.02633157022158855 0.0480832409831728
-0.02045235383291213 0.01865246787514493 0.05284081109064758
-0.010971617209269927 0.01097336552870131 0.057598381198122356
-0.0014908805856277292 0.0032942631822576933 0.06235595130559714
0.007989856038014472 -0.004384839164185927 0.06711352141307192
0.017470592661656674 -0.012063941510629547 0.07187109152054669
0.026951329285298878 -0.01974304385707317 0.07662866162802147
-0.04970277988579863 0.05903622827069575 0.03213208890008381
-0.04022204326215643 0.05135712592425212 0.03688965900755859
-0.030741306638514224 0.0436780235778085 0.041647229115033366
-0.021260570014872027 0.03599892123136488 0.04640479922250814
-0.011779833391229823 0.028319818884921265 0.05116236932998292
-0.0022990967675876215 0.020640716538477644 0.0559199394374577
0.007181639856054575 0.012961614192034029 0.06067750954493247
0.016662376479696775 0.00528251184559041 0.06543507965240726
0.02614311310333898 -0.0023965905008532106 0.07019264975988203
0.03562384972698118 -0.010075692847296834 0.07495021986735681
-0.041030259444116327 0.06870357928047208 0.03045364713941915
-0.03154952282047412 0.06102447693402845 0.03521121724689393
-0.022068786196831922 0.05334537458758483 0.03996878735436871
-0.012588049573189724 0.04566627224114121 0.04472635746184349
-0.003107312949547524 0.037987169894697595 0.04948392756931826
0.00637342367409468 0.030308067548253975 0.05424149767679304
0.015854160297736876 0.022628965201810358 0.05899906778426782
0.025334896921379073 0.014949862855366739 0.0637566378917426
0.034815633545021284 0.007270760508923118 0.06851420799921737
0.04429637016866348 -0.00040834183752050423 0.07327177810669215
-0.03235773900243402 0.0783709302902484 0.02877520537875449
-0.02287700237879182 0.07069182794380478 0.03353277548622927
-0.013396265755149616 0.06301272559736117 0.03829034559370405
-0.00391552913150742 0.05533362325091755 0.04304791570117883
0.005565207492134781 0.04765452090447393 0.047805485808653604
0.015045944115776986 0.03997541855803031 0.05256305591612838
0.02452668073941918 0.03229631621158669 0.05732062602360316
0.03400741736306138 0.024617213865143074 0.062078196131077935
0.04348815398670359 0.016938111518699454 0.06683576623855271
0.052968890610345785 0.00925900917225583 0.07159333634602749
-0.02368521856075172 0.08803828130002474 0.027096763618089836
-0.014204481937109515 0.08035917895358112 0.031854333725564614
-0.004723745313467312 0.07268007660713749 0.036611903833039396
0.004756991310174885 0.06500097426069389 0.04136947394051417
0.014237727933817087 0.05732187191425026 0.046127044047988945
0.02371846455745929 0.049642769567806645 0.05088461415546373
0.033199201181101486 0.04196366722136303 0.0556421842629385
0.04267993780474368 0.034284564874919404 0.060399754370413276
0.05216067442838589 0.026605462528475787 0.06515732447788805
0.06164141105202809 0.018926360182032163 0.06991489458536283
-0.01501269811906941 0.09770563230980107 0.025418321857425173
-0.005531961495427207 0.09002652996335744 0.03017589196489995
0.003948775128214997 0.08234742761691383 0.03493346207237473
0.013429511751857194 0.07466832527047022 0.03969103217984951
0.022910248375499397 0.06698922292402659 0.044448602287324286
0.032390984999141594 0.05931012057758298 0.04920617239479906
0.04187172162278379 0.051631018231139365 0.05396374250227384
0.05135245824642599 0.04395191588469574 0.05872131260974862
0.0608331948700682 0.036272813538252124 0.06347888271722339
0.07031393149371042 0.0285937111918085 0.06823645282469817
