# .PCD v0.7 - Point Cloud Data file format
VERSION 0.7
FIELDS x y z
SIZE 4 4 4
TYPE F F F
COUNT 1 1 1
WIDTH 600
HEIGHT 1
VIEWPOINT 0 0 0 1 0 0 0
POINTS 600
DATA ascii
0.007651849794132019 -0.05140075844971979 -0.08392065901873576
0.0038244145656150565 -0.03936060400832974 -0.08304407674794927
-3.0206629019098156e-06 -0.027320449566939704 -0.08216749447716276
-0.003830455891418876 -0.015280295125549664 -0.08129091220637627
-0.0076578911199358425 -0.00324014068415962 -0.08041432993558977
-0.011485326348452802 0.008800013757230427 -0.07953774766480327
-0.015312761576969768 0.020840168198620463 -0.07866116539401678
-0.019140196805486735 0.03288032264001051 -0.07778458312323028
-0.0229676320340037 0.04492047708140055 -0.07690800085244379
-0.026795067262520667 0.05696063152279061 -0.07603141858165728
0.0002456629567787987 -0.05446888302081761 -0.07411668104931354
-0.003581772271738164 -0.04242872857942756 -0.07324009877852705
-0.007409207500255131 -0.030388574138037517 -0.07236351650774055
-0.011236642728772096 -0.018348419696647477 -0.07148693423695406
-0.015064077957289063 -0.0063082652552574345 -0.07061035196616755
-0.018891513185806022 0.0057318891861326115 -0.06973376969538106
-0.02271894841432299 0.01777204362752265 -0.06885718742459457
-0.026546383642839955 0.029812198068912697 -0.06798060515380806
-0.03037381887135692 0.04185235251030274 -0.06710402288302157
-0.03420125409987389 0.05389250695169279 -0.06622744061223507
-0.007160523880574422 -0.05753700759191542 -0.06431270307989134
-0.010987959109091385 -0.045496853150525374 -0.06343612080910484
-0.014815394337608352 -0.033456698709135334 -0.06255953853831835
-0.018642829566125316 -0.021416544267745294 -0.06168295626753184
-0.022470264794642283 -0.009376389826355249 -0.06080637399674534
-0.026297700023159242 0.002663764615034797 -0.05992979172595885
-0.03012513525167621 0.014703919056424835 -0.059053209455172354
-0.03395257048019318 0.02674407349781488 -0.058176627184385855
-0.037780005708710145 0.03878422793920493 -0.05730004491359936
-0.04160744093722711 0.050824382380594973 -0.05642346264281286
-0.01456671071792764 -0.060605132163013234 -0.05450872511046913
-0.0183941459464446 -0.04856497772162319 -0.05363214283968263
-0.022221581174961567 -0.03652482328023315 -0.05275556056889613
-0.026049016403478533 -0.024484668838843104 -0.05187897829810963
-0.0298764516319955 -0.012444514397453062 -0.051002396027323135
-0.03370388686051246 -0.0004043599560630159 -0.050125813756536644
-0.03753132208902943 0.011635794485327021 -0.049249231485750146
-0.041358757317546395 0.02367594892671707 -0.04837264921496365
-0.04518619254606336 0.03571610336810711 -0.04749606694417715
-0.04901362777458033 0.04775625780949716 -0.04661948467339065
-0.021972897555280858 -0.06367325673411105 -0.04470474714104692
-0.02580033278379782 -0.051633102292721 -0.04382816487026042
-0.029627768012314787 -0.03959294785133096 -0.042951582599473924
-0.03345520324083175 -0.02755279340994092 -0.042075000328687426
-0.03728263846934872 -0.015512638968550877 -0.04119841805790093
-0.04111007369786568 -0.0034724845271608307 -0.040321835787114436
-0.044937508926382645 0.008567669914229206 -0.03944525351632794
-0.04876494415489961 0.020607824355619253 -0.03856867124554144
-0.05259237938341658 0.0326479787970093 -0.03769208897475494
-0.056419814611933544 0.04468813323839935 -0.036815506703968444
-0.02937908439263408 -0.06674138130520886 -0.034900769171624706
-0.033206519621151044 -0.054701226863818814 -0.03402418690083821
-0.03703395484966801 -0.042661072422428774 -0.03314760463005171
-0.04086139007818498 -0.030620917981038734 -0.03227102235926521
-0.04468882530670194 -0.01858076353964869 -0.03139444008847871
-0.0485162605352189 -0.006540609098258645 -0.030517857817692222
-0.05234369576373587 0.005499545343131392 -0.029641275546905724
-0.056171130992252835 0.01753969978452144 -0.028764693276119226
-0.0599985662207698 0.029579854225911483 -0.027888111005332727
-0.06382600144928677 0.041620008667301533 -0.02701152873454623
-0.036785271229987294 -0.06980950587630667 -0.0250967912022025
-0.04061270645850426 -0.05776935143491663 -0.024220208931416003
-0.04444014168702123 -0.04572919699352659 -0.023343626660629505
-0.04826757691553819 -0.03368904255213655 -0.022467044389843007
-0.05209501214405516 -0.021648888110746504 -0.02159046211905651
-0.05592244737257212 -0.009608733669356459 -0.020713879848270018
-0.059749882601089085 0.002431420772033579 -0.01983729757748352
-0.06357731782960604 0.014471575213423626 -0.01896071530669702
-0.06740475305812302 0.02651172965481367 -0.018084133035910523
-0.07123218828663998 0.03855188409620372 -0.017207550765124025
-0.04419145806734052 -0.07287763044740449 -0.015292813232780289
-0.04801889329585748 -0.06083747600601444 -0.01441623096199379
-0.051846328524374444 -0.0487973215646244 -0.013539648691207292
-0.05567376375289141 -0.03675716712323436 -0.012663066420420794
-0.059501198981408376 -0.024717012681844317 -0.011786484149634296
-0.06332863420992534 -0.012676858240454272 -0.010909901878847805
-0.06715606943844231 -0.0006367037990642353 -0.010033319608061307
-0.07098350466695927 0.011403450642325811 -0.009156737337274809
-0.07481093989547624 0.023443605083715856 -0.00828015506648831
-0.0786383751239932 0.03548375952510591 -0.0074035727957018115
-0.051597644904693735 -0.0759457550185023 -0.005488835263358076
-0.0554250801332107 -0.06390560057711225 -0.004612252992571578
-0.05925251536172767 -0.051865446135722214 -0.0037356707217850796
-0.06307995059024463 -0.039825291694332174 -0.0028590884509985814
-0.0669073858187616 -0.027785137252942134 -0.0019825061802120833
-0.07073482104727856 -0.015744982811552087 -0.0011059239094255923
-0.07456225627579552 -0.0037048283701620497 -0.0002293416386390941
-0.07838969150431249 0.008335326071227996 0.0006472406321474041
-0.08221712673282945 0.02037548051261804 0.001523822902933902
-0.08604456196134642 0.032415634954008093 0.0024004051737204005
-0.05900383174204696 -0.07901387958960011 0.004315142706064136
-0.06283126697056392 -0.06697372514821007 0.005191724976850634
-0.06665870219908089 -0.054933570706820034 0.006068307247637132
-0.07048613742759785 -0.042893416265429994 0.0069448895184236305
-0.07431357265611482 -0.030853261824039947 0.00782147178921013
-0.07814100788463178 -0.0188131073826499 0.00869805405999662
-0.08196844311314874 -0.006772952941259865 0.009574636330783119
-0.08579587834166572 0.005267201500130182 0.010451218601569617
-0.08962331357018267 0.017307355941520226 0.011327800872356115
-0.09345074879869965 0.029347510382910277 0.012204383143142613
0.09345074879869965 -0.029347510382910277 -0.012204383143142613
0.08962331357018267 -0.017307355941520226 -0.011327800872356115
0.08579587834166572 -0.005267201500130182 -0.010451218601569617
0.08196844311314874 0.006772952941259858 -0.009574636330783119
0.07814100788463178 0.0188131073826499 -0.00869805405999662
0.07431357265611482 0.030853261824039947 -0.00782147178921013
0.07048613742759785 0.04289341626542999 -0.0069448895184236305
0.06665870219908089 0.054933570706820034 -0.006068307247637132
0.06283126697056392 0.06697372514821007 -0.005191724976850634
0.05900383174204696 0.07901387958960011 -0.004315142706064136
0.08604456196134642 -0.032415634954008093 -0.0024004051737204005
0.08221712673282945 -0.02037548051261804 -0.001523822902933902
0.07838969150431249 -0.008335326071227996 -0.0006472406321474041
0.07456225627579552 0.003704828370162043 0.0002293416386390941
0.07073482104727856 0.015744982811552087 0.0011059239094255923
0.0669073858187616 0.027785137252942134 0.0019825061802120833
0.06307995059024463 0.03982529169433217 0.0028590884509985814
0.05925251536172767 0.051865446135722214 0.0037356707217850796
0.0554250801332107 0.06390560057711225 0.004612252992571578
0.051597644904693735 0.0759457550185023 0.005488835263358076
0.0786383751239932 -0.03548375952510591 0.0074035727957018115
0.07481093989547624 -0.023443605083715856 0.00828015506648831
0.07098350466695927 -0.011403450642325811 0.009156737337274809
0.06715606943844231 0.0006367037990642284 0.010033319608061307
0.06332863420992534 0.012676858240454272 0.010909901878847805
0.059501198981408376 0.024717012681844317 0.011786484149634296
0.05567376375289141 0.036757167123234354 0.012663066420420794
0.051846328524374444 0.0487973215646244 0.013539648691207292
0.04801889329585748 0.06083747600601444 0.01441623096199379
0.04419145806734052 0.07287763044740449 0.015292813232780289
0.07123218828663999 -0.03855188409620372 0.017207550765124018
0.06740475305812302 -0.026511729654813666 0.018084133035910516
0.06357731782960606 -0.014471575213423625 0.018960715306697015
0.059749882601089085 -0.0024314207720335847 0.019837297577483513
0.05592244737257212 0.00960873366935646 0.02071387984827001
0.05209501214405516 0.021648888110746507 0.021590462119056502
0.04826757691553819 0.03368904255213654 0.022467044389843
0.04444014168702123 0.04572919699352659 0.0233436266606295
0.04061270645850426 0.05776935143491663 0.024220208931415996
0.0367852712299873 0.06980950587630667 0.025096791202202495
0.06382600144928677 -0.041620008667301533 0.02701152873454623
0.0599985662207698 -0.029579854225911483 0.027888111005332727
0.056171130992252835 -0.01753969978452144 0.028764693276119226
0.05234369576373587 -0.005499545343131399 0.029641275546905724
0.0485162605352189 0.006540609098258645 0.030517857817692222
0.04468882530670194 0.01858076353964869 0.03139444008847871
0.04086139007818498 0.030620917981038727 0.03227102235926521
0.03703395484966801 0.042661072422428774 0.03314760463005171
0.033206519621151044 0.054701226863818814 0.03402418690083821
0.02937908439263408 0.06674138130520886 0.034900769171624706
0.056419814611933544 -0.04468813323839935 0.036815506703968444
0.05259237938341658 -0.0326479787970093 0.03769208897475494
0.04876494415489961 -0.020607824355619253 0.03856867124554144
0.044937508926382645 -0.008567669914229213 0.03944525351632794
0.04111007369786568 0.0034724845271608307 0.040321835787114436
0.03728263846934872 0.015512638968550877 0.04119841805790093
0.03345520324083175 0.027552793409940914 0.042075000328687426
0.029627768012314787 0.03959294785133096 0.042951582599473924
0.02580033278379782 0.051633102292721 0.04382816487026042
0.021972897555280858 0.06367325673411105 0.04470474714104692
0.04901362777458033 -0.04775625780949716 0.04661948467339065
0.04518619254606336 -0.03571610336810711 0.04749606694417715
0.041358757317546395 -0.023675948926717066 0.04837264921496365
0.03753132208902943 -0.011635794485327026 0.049249231485750146
0.03370388686051246 0.00040435995606301757 0.050125813756536644
0.029876451631995503 0.012444514397453064 0.051002396027323135
0.026049016403478537 0.0244846688388431 0.05187897829810963
0.02222158117496157 0.03652482328023315 0.05275556056889613
0.018394145946444604 0.04856497772162319 0.05363214283968263
0.014566710717927643 0.060605132163013234 0.05450872511046913
0.04160744093722711 -0.050824382380594973 0.05642346264281286
0.037780005708710145 -0.03878422793920493 0.05730004491359936
0.03395257048019318 -0.02674407349781488 0.058176627184385855
0.03012513525167621 -0.014703919056424842 0.059053209455172354
0.026297700023159242 -0.002663764615034797 0.05992979172595885
0.022470264794642283 0.009376389826355249 0.06080637399674534
0.018642829566125316 0.021416544267745287 0.06168295626753184
0.014815394337608352 0.033456698709135334 0.06255953853831835
0.010987959109091385 0.045496853150525374 0.06343612080910484
0.007160523880574422 0.05753700759191542 0.06431270307989134
0.03420125409987389 -0.05389250695169279 0.06622744061223507
0.03037381887135692 -0.04185235251030274 0.06710402288302157
0.026546383642839955 -0.029812198068912697 0.06798060515380806
0.02271894841432299 -0.017772043627522657 0.06885718742459457
0.018891513185806022 -0.0057318891861326115 0.06973376969538106
0.015064077957289063 0.0063082652552574345 0.07061035196616755
0.011236642728772096 0.01834841969664747 0.07148693423695406
0.007409207500255131 0.030388574138037517 0.07236351650774055
0.003581772271738164 0.04242872857942756 0.07324009877852705
-0.0002456629567787987 0.05446888302081761 0.07411668104931354
0.026795067262520667 -0.05696063152279061 0.07603141858165728
0.0229676320340037 -0.04492047708140055 0.07690800085244379
0.019140196805486735 -0.03288032264001051 0.07778458312323028
0.015312761576969768 -0.02084016819862047 0.07866116539401678
0.011485326348452802 -0.008800013757230427 0.07953774766480327
0.0076578911199358425 0.00324014068415962 0.08041432993558977
0.003830455891418876 0.015280295125549657 0.08129091220637627
3.0206629019098156e-06 0.027320449566939704 0.08216749447716276
-0.0038244145656150565 0.03936060400832974 0.08304407674794927
-0.007651849794132019 0.05140075844971979 0.08392065901873576
0.007651849794132019 -0.05140075844971979 -0.08392065901873576
0.01718506079463953 -0.048950397553407625 -0.07595218392144762
0.026718271795147047 -0.04650003665709545 -0.0679837088241595
0.03625148279565456 -0.04404967576078329 -0.06001523372687138
0.045784693796162075 -0.04159931486447112 -0.052046758629583245
0.05531790479666959 -0.03914895396815894 -0.04407828353229512
0.0648511157971771 -0.03669859307184678 -0.036109808435006996
0.07438432679768461 -0.03424823217553461 -0.028141333337718868
0.08391753779819214 -0.031797871279222435 -0.02017285824043074
0.09345074879869965 -0.029347510382910277 -0.012204383143142613
0.0002456629567787987 -0.05446888302081761 -0.07411668104931354
0.00977887395728631 -0.052018522124505445 -0.0661482059520254
0.019312084957793827 -0.04956816122819327 -0.05817973085473729
0.028845295958301338 -0.04711780033188111 -0.05021125575744916
0.03837850695880885 -0.04466743943556894 -0.04224278066016104
0.04791171795931637 -0.04221707853925676 -0.034274305562872906
0.05744492895982388 -0.0397667176429446 -0.026305830465584785
0.06697813996033139 -0.03731635674663243 -0.018337355368296657
0.07651135096083891 -0.034865995850320256 -0.010368880271008529
0.08604456196134642 -0.032415634954008093 -0.0024004051737204005
-0.007160523880574422 -0.05753700759191542 -0.06431270307989134
0.0023726871199330887 -0.05508664669560326 -0.0563442279826032
0.011905898120440605 -0.05263628579929108 -0.04837575288531507
0.021439109120948117 -0.05018592490297892 -0.04040727778802695
0.03097232012145563 -0.04773556400666675 -0.03243880269073882
0.040505531121963145 -0.045285203110354576 -0.024470327593450695
0.050038742122470656 -0.042834842214042414 -0.016501852496162574
0.059571953122978166 -0.040384481317730245 -0.008533377398874444
0.06910516412348569 -0.03793412042141807 -0.0005649023015863164
0.0786383751239932 -0.03548375952510591 0.0074035727957018115
-0.01456671071792764 -0.060605132163013234 -0.05450872511046913
-0.005033499717420128 -0.05815477126670107 -0.04654025001318099
0.0044997112830873895 -0.055704410370388896 -0.038571774915892865
0.014032922283594899 -0.053254049474076734 -0.030603299818604743
0.023566133284102415 -0.050803688577764565 -0.022634824721316615
0.03309934428460993 -0.04835332768145239 -0.014666349624028489
0.04263255528511744 -0.04590296678514023 -0.006697874526740366
0.05216576628562495 -0.04345260588882806 0.0012706005705477622
0.061698977286132474 -0.04100224499251588 0.00923907566783589
0.07123218828663999 -0.03855188409620372 0.017207550765124018
-0.021972897555280858 -0.06367325673411105 -0.04470474714104692
-0.012439686554773349 -0.061222895837798885 -0.03673627204375878
-0.002906475554265831 -0.05877253494148671 -0.028767796946470657
0.006626735446241679 -0.05632217404517455 -0.020799321849182532
0.016159946446749195 -0.05387181314886238 -0.012830846751894404
0.025693157447256712 -0.0514214522525502 -0.004862371654606277
0.03522636844776422 -0.04897109135623804 0.0031061034426818463
0.04475957944827173 -0.04652073045992587 0.011074578539969975
0.05429279044877926 -0.044070369563613696 0.0190430536372581
0.06382600144928677 -0.041620008667301533 0.02701152873454623
-0.02937908439263408 -0.06674138130520886 -0.034900769171624706
-0.01984587339212657 -0.0642910204088967 -0.026932294074336567
-0.010312662391619052 -0.06184065951258452 -0.018963818977048442
-0.0007794513911115414 -0.05939029861627236 -0.01099534387976032
0.008753759609395973 -0.05693993771996019 -0.0030268687824721928
0.01828697060990349 -0.054489576823648016 0.004941606314815936
0.027820181610411 -0.052039215927335854 0.012910081412104058
0.03735339261091851 -0.049588855031023685 0.020878556509392188
0.046886603611426034 -0.04713849413471151 0.028847031606680316
0.056419814611933544 -0.04468813323839935 0.036815506703968444
-0.036785271229987294 -0.06980950587630667 -0.0250967912022025
-0.027252060229479787 -0.06735914497999451 -0.017128316104914363
-0.01771884922897227 -0.06490878408368234 -0.009159841007626237
-0.008185638228464758 -0.062458423187370174 -0.0011913659103381124
0.001347572772042756 -0.060008062291058005 0.006777109186950014
0.010880783772550274 -0.05755770139474583 0.014745584284238143
0.020413994773057782 -0.05510734049843367 0.022714059381526264
0.029947205773565293 -0.0526569796021215 0.030682534478814392
0.03948041677407282 -0.05020661870580932 0.03865100957610252
0.04901362777458033 -0.04775625780949716 0.04661948467339065
-0.04419145806734052 -0.07287763044740449 -0.015292813232780289
-0.03465824706683301 -0.07042726955109233 -0.007324338135492149
-0.02512503606632549 -0.06797690865478015 0.0006441369617959751
-0.015591825065817978 -0.06552654775846799 0.008612612059084099
-0.006058614065310465 -0.06307618686215583 0.016581087156372225
0.0034745969351970525 -0.06062582596584364 0.024549562253660354
0.013007807935704564 -0.05817546506953148 0.03251803735094848
0.022541018936212073 -0.05572510417321931 0.0404865124482366
0.0320742299367196 -0.053274743276907136 0.048454987545524734
0.04160744093722711 -0.050824382380594973 0.05642346264281286
-0.051597644904693735 -0.0759457550185023 -0.005488835263358076
-0.042064433904186224 -0.07349539412219014 0.0024796398339300627
-0.03253122290367871 -0.07104503322587796 0.010448114931218187
-0.0229980119031712 -0.0685946723295658 0.018416590028506312
-0.013464800902663686 -0.06614431143325364 0.026385065125794437
-0.003931589902156168 -0.06369395053694146 0.03435354022308257
0.005601621098351343 -0.061243589640629294 0.042322015320370686
0.015134832098858853 -0.058793228744317125 0.05029049041765882
0.024668043099366377 -0.05634286784800495 0.05825896551494694
0.03420125409987389 -0.05389250695169279 0.06622744061223507
-0.05900383174204696 -0.07901387958960011 0.004315142706064136
-0.04947062074153945 -0.07656351869328795 0.012283617803352275
-0.03993740974103193 -0.07411315779697578 0.0202520929006404
-0.03040419874052442 -0.07166279690066361 0.028220567997928523
-0.020870987740016906 -0.06921243600435145 0.03618904309521665
-0.011337776739509389 -0.06676207510803928 0.044157518192504776
-0.001804565739001878 -0.06431171421172711 0.0521259932897929
0.007728645261505632 -0.061861353315414945 0.06009446838708103
0.017261856262013157 -0.05941099241910277 0.06806294348436916
0.026795067262520667 -0.05696063152279061 0.07603141858165728
-0.026795067262520667 0.05696063152279061 -0.07603141858165728
-0.017261856262013157 0.05941099241910277 -0.06806294348436916
-0.007728645261505632 0.061861353315414945 -0.06009446838708103
0.001804565739001878 0.0643117142117271 -0.05212599328979291
0.011337776739509389 0.06676207510803928 -0.044157518192504776
0.020870987740016906 0.06921243600435145 -0.03618904309521665
0.030404198740524416 0.07166279690066361 -0.028220567997928526
0.03993740974103193 0.07411315779697578 -0.0202520929006404
0.04947062074153945 0.07656351869328795 -0.012283617803352275
0.05900383174204696 0.07901387958960011 -0.004315142706064136
-0.03420125409987389 0.05389250695169279 -0.06622744061223507
-0.024668043099366377 0.05634286784800495 -0.05825896551494694
-0.015134832098858853 0.058793228744317125 -0.05029049041765882
-0.005601621098351343 0.06124358964062929 -0.04232201532037069
0.003931589902156168 0.06369395053694146 -0.03435354022308257
0.013464800902663686 0.06614431143325364 -0.026385065125794437
0.022998011903171193 0.0685946723295658 -0.018416590028506315
0.03253122290367871 0.07104503322587796 -0.010448114931218187
0.042064433904186224 0.07349539412219014 -0.0024796398339300627
0.051597644904693735 0.0759457550185023 0.005488835263358076
-0.04160744093722711 0.050824382380594973 -0.05642346264281286
-0.0320742299367196 0.053274743276907136 -0.048454987545524734
-0.022541018936212073 0.05572510417321931 -0.0404865124482366
-0.013007807935704564 0.05817546506953147 -0.032518037350948485
-0.0034745969351970525 0.06062582596584364 -0.024549562253660354
0.006058614065310465 0.06307618686215583 -0.016581087156372225
0.015591825065817973 0.06552654775846799 -0.008612612059084103
0.02512503606632549 0.06797690865478015 -0.0006441369617959751
0.03465824706683301 0.07042726955109233 0.007324338135492149
0.04419145806734052 0.07287763044740449 0.015292813232780289
-0.04901362777458033 0.04775625780949716 -0.04661948467339065
-0.03948041677407282 0.05020661870580932 -0.03865100957610253
-0.02994720577356529 0.0526569796021215 -0.0306825344788144
-0.02041399477305778 0.05510734049843366 -0.022714059381526274
-0.01088078377255027 0.05755770139474583 -0.014745584284238148
-0.0013475727720427518 0.060008062291058005 -0.00677710918695002
0.008185638228464756 0.06245842318737017 0.0011913659103381035
0.017718849228972273 0.06490878408368234 0.009159841007626231
0.02725206022947979 0.06735914497999451 0.017128316104914356
0.0367852712299873 0.06980950587630667 0.025096791202202495
-0.056419814611933544 0.04468813323839935 -0.036815506703968444
-0.046886603611426034 0.04713849413471151 -0.028847031606680316
-0.03735339261091851 0.049588855031023685 -0.020878556509392188
-0.027820181610411 0.05203921592733585 -0.012910081412104063
-0.01828697060990349 0.054489576823648016 -0.004941606314815936
-0.008753759609395973 0.05693993771996019 0.0030268687824721928
0.0007794513911115362 0.059390298616272354 0.010995343879760316
0.010312662391619052 0.06184065951258452 0.018963818977048442
0.01984587339212657 0.0642910204088967 0.026932294074336567
0.02937908439263408 0.06674138130520886 0.034900769171624706
-0.06382600144928677 0.041620008667301533 -0.02701152873454623
-0.05429279044877926 0.044070369563613696 -0.0190430536372581
-0.04475957944827173 0.04652073045992587 -0.011074578539969975
-0.03522636844776422 0.04897109135623803 -0.0031061034426818515
-0.025693157447256712 0.0514214522525502 0.004862371654606277
-0.016159946446749195 0.05387181314886238 0.012830846751894404
-0.006626735446241684 0.05632217404517454 0.02079932184918253
0.002906475554265831 0.05877253494148671 0.028767796946470657
0.012439686554773349 0.061222895837798885 0.03673627204375878
0.021972897555280858 0.06367325673411105 0.04470474714104692
-0.07123218828663998 0.03855188409620372 -0.017207550765124025
-0.061698977286132474 0.04100224499251588 -0.009239075667835895
-0.05216576628562495 0.04345260588882806 -0.0012706005705477677
-0.04263255528511744 0.04590296678514022 0.006697874526740356
-0.03309934428460993 0.04835332768145239 0.014666349624028484
-0.02356613328410241 0.050803688577764565 0.022634824721316612
-0.0140329222835949 0.05325404947407673 0.030603299818604733
-0.004499711283087385 0.055704410370388896 0.038571774915892865
0.005033499717420132 0.05815477126670107 0.04654025001318099
0.014566710717927643 0.060605132163013234 0.05450872511046913
-0.0786383751239932 0.03548375952510591 -0.0074035727957018115
-0.06910516412348569 0.03793412042141807 0.0005649023015863164
-0.059571953122978166 0.040384481317730245 0.008533377398874444
-0.050038742122470656 0.04283484221404241 0.016501852496162567
-0.040505531121963145 0.045285203110354576 0.024470327593450695
-0.03097232012145563 0.04773556400666675 0.03243880269073882
-0.02143910912094812 0.050185924902978914 0.04040727778802695
-0.011905898120440605 0.05263628579929108 0.04837575288531507
-0.0023726871199330887 0.05508664669560326 0.0563442279826032
0.007160523880574422 0.05753700759191542 0.06431270307989134
-0.08604456196134642 0.032415634954008093 0.0024004051737204005
-0.07651135096083891 0.034865995850320256 0.010368880271008529
-0.06697813996033139 0.03731635674663243 0.018337355368296657
-0.05744492895982388 0.03976671764294459 0.026305830465584778
-0.04791171795931637 0.04221707853925676 0.034274305562872906
-0.03837850695880885 0.04466743943556894 0.04224278066016104
-0.02884529595830134 0.0471178003318811 0.050211255757449155
-0.019312084957793827 0.04956816122819327 0.05817973085473729
-0.00977887395728631 0.052018522124505445 0.0661482059520254
-0.0002456629567787987 0.05446888302081761 0.07411668104931354
-0.09345074879869965 0.029347510382910277 0.012204383143142613
-0.08391753779819214 0.031797871279222435 0.02017285824043074
-0.07438432679768461 0.03424823217553461 0.028141333337718868
-0.0648511157971771 0.03669859307184677 0.03610980843500699
-0.05531790479666959 0.03914895396815894 0.04407828353229512
-0.045784693796162075 0.04159931486447112 0.052046758629583245
-0.036251482795654565 0.04404967576078328 0.06001523372687137
-0.026718271795147047 0.04650003665709545 0.0679837088241595
-0.01718506079463953 0.048950397553407625 0.07595218392144762
-0.007651849794132019 0.05140075844971979 0.08392065901873576
0.007651849794132019 -0.05140075844971979 -0.08392065901873576
0.01718506079463953 -0.048950397553407625 -0.07595218392144762
0.026718271795147047 -0.04650003665709545 -0.0679837088241595
0.03625148279565456 -0.04404967576078329 -0.06001523372687138
0.045784693796162075 -0.04159931486447112 -0.052046758629583245
0.05531790479666959 -0.03914895396815894 -0.04407828353229512
0.0648511157971771 -0.03669859307184678 -0.036109808435006996
0.07438432679768461 -0.03424823217553461 -0.028141333337718868
0.08391753779819214 -0.031797871279222435 -0.02017285824043074
0.09345074879869965 -0.029347510382910277 -0.012204383143142613
0.0038244145656150565 -0.03936060400832974 -0.08304407674794927
0.013357625566122567 -0.03691024311201758 -0.07507560165066113
0.022890836566630084 -0.0344598822157054 -0.067107126553373
0.03242404756713759 -0.03200952131939324 -0.05913865145608488
0.04195725856764511 -0.029559160423081075 -0.051170176358796754
0.051490469568152626 -0.0271087995267689 -0.04320170126150862
0.06102368056866014 -0.024658438630456737 -0.0352332261642205
0.07055689156916765 -0.022208077734144568 -0.02726475106693237
0.08009010256967516 -0.019757716837832392 -0.019296275969644245
0.08962331357018267 -0.017307355941520226 -0.011327800872356115
-3.0206629019098156e-06 -0.027320449566939704 -0.08216749447716276
0.0095301903376056 -0.024870088670627535 -0.07419901937987464
0.019063401338113118 -0.022419727774315366 -0.06623054428258651
0.02859661233862063 -0.019969366878003197 -0.05826206918529838
0.03812982333912814 -0.017519005981691028 -0.050293594088010256
0.04766303433963566 -0.015068645085378859 -0.042325118990722124
0.05719624534014317 -0.01261828418906669 -0.03435664389343401
0.06672945634065068 -0.01016792329275452 -0.026388168796145875
0.0762626673411582 -0.007717562396442351 -0.018419693698857747
0.08579587834166572 -0.005267201500130182 -0.010451218601569617
-0.003830455891418876 -0.015280295125549664 -0.08129091220637627
0.005702755109088634 -0.012829934229237495 -0.07332243710908813
0.015235966109596152 -0.010379573332925326 -0.06535396201180001
0.024769177110103666 -0.007929212436613157 -0.05738548691451189
0.034302388110611176 -0.005478851540300987 -0.04941701181722376
0.043835599111118694 -0.0030284906439888184 -0.04144853671993563
0.053368810111626204 -0.0005781297476766494 -0.03348006162264751
0.06290202111213372 0.0018722311486355197 -0.025511586525359377
0.07243523211264123 0.004322592044947689 -0.01754311142807125
0.08196844311314874 0.006772952941259858 -0.009574636330783119
-0.0076578911199358425 -0.00324014068415962 -0.08041432993558977
0.001875319880571668 -0.0007897797878474508 -0.07244585483830164
0.011408530881079189 0.0016605811084647183 -0.06447737974101352
0.0209417418815867 0.0041109420047768875 -0.05650890464372539
0.030474952882094213 0.006561302901089057 -0.04854042954643726
0.04000816388260173 0.009011663797401226 -0.040571954449149135
0.04954137488310924 0.011462024693713393 -0.03260347935186101
0.059074585883616755 0.013912385590025564 -0.024635004254572882
0.06860779688412427 0.01636274648633773 -0.016666529157284754
0.07814100788463178 0.0188131073826499 -0.00869805405999662
-0.011485326348452802 0.008800013757230427 -0.07953774766480327
-0.0019521153479452914 0.011250374653542596 -0.07156927256751515
0.0075810956525622225 0.013700735549854764 -0.06360079747022701
0.017114306653069733 0.016151096446166933 -0.05563232237293889
0.02664751765357725 0.018601457342479102 -0.04766384727565077
0.03618072865408476 0.02105181823879127 -0.03969537217836264
0.04571393965459227 0.02350217913510344 -0.03172689708107451
0.05524715065509979 0.02595254003141561 -0.023758421983786384
0.06478036165560731 0.02840290092772778 -0.015789946886498256
0.07431357265611482 0.030853261824039947 -0.00782147178921013
-0.015312761576969768 0.020840168198620463 -0.07866116539401678
-0.005779550576462258 0.023290529094932632 -0.07069269029672864
0.0037536604240452597 0.0257408899912448 -0.06272421519944052
0.01328687142455277 0.02819125088755697 -0.054755740102152395
0.022820082425060284 0.03064161178386914 -0.04678726500486427
0.0323532934255678 0.03309197268018131 -0.03881878990757614
0.04188650442607531 0.03554233357649348 -0.030850314810288017
0.05141971542658283 0.03799269447280565 -0.02288183971299989
0.06095292642709035 0.04044305536911782 -0.014913364615711763
0.07048613742759785 0.04289341626542999 -0.0069448895184236305
-0.019140196805486735 0.03288032264001051 -0.07778458312323028
-0.009606985804979224 0.03533068353632268 -0.06981610802594215
-7.377480447170663e-05 0.03778104443263485 -0.06184763292865402
0.009459436196035804 0.04023140532894702 -0.0538791578313659
0.01899264719654332 0.04268176622525919 -0.04591068273407777
0.028525858197050835 0.04513212712157136 -0.03794220763678964
0.038059069197558346 0.04758248801788353 -0.02997373253950152
0.04759228019806586 0.050032848914195696 -0.02200525744221339
0.05712549119857338 0.052483209810507865 -0.014036782344925265
0.06665870219908089 0.054933570706820034 -0.006068307247637132
-0.0229676320340037 0.04492047708140055 -0.07690800085244379
-0.01343442103349619 0.04737083797771272 -0.06893952575515565
-0.003901210032988673 0.0498211988740249 -0.06097105065786753
0.0056320009675188375 0.05227155977033706 -0.053002575560579406
0.015165211968026355 0.05472192066664923 -0.045034100463291274
0.02469842296853387 0.057172281562961405 -0.03706562536600315
0.03423163396904138 0.05962264245927357 -0.029097150268715025
0.0437648449695489 0.062073003355585736 -0.021128675171426897
0.053298055970056414 0.0645233642518979 -0.013160200074138767
0.06283126697056392 0.06697372514821007 -0.005191724976850634
-0.026795067262520667 0.05696063152279061 -0.07603141858165728
-0.017261856262013157 0.05941099241910277 -0.06806294348436916
-0.007728645261505632 0.061861353315414945 -0.06009446838708103
0.001804565739001878 0.0643117142117271 -0.05212599328979291
0.011337776739509389 0.06676207510803928 -0.044157518192504776
0.020870987740016906 0.06921243600435145 -0.03618904309521665
0.030404198740524416 0.07166279690066361 -0.028220567997928526
0.03993740974103193 0.07411315779697578 -0.0202520929006404
0.04947062074153945 0.07656351869328795 -0.012283617803352275
0.05900383174204696 0.07901387958960011 -0.004315142706064136
-0.05900383174204696 -0.07901387958960011 0.004315142706064136
-0.04947062074153945 -0.07656351869328795 0.012283617803352275
-0.03993740974103193 -0.07411315779697578 0.0202520929006404
-0.03040419874052442 -0.07166279690066361 0.028220567997928523
-0.020870987740016906 -0.06921243600435145 0.03618904309521665
-0.011337776739509389 -0.06676207510803928 0.044157518192504776
-0.001804565739001878 -0.06431171421172711 0.0521259932897929
0.007728645261505632 -0.061861353315414945 0.06009446838708103
0.017261856262013157 -0.05941099241910277 0.06806294348436916
0.026795067262520667 -0.05696063152279061 0.07603141858165728
-0.06283126697056392 -0.06697372514821007 0.005191724976850634
-0.053298055970056414 -0.0645233642518979 0.013160200074138767
-0.0437648449695489 -0.062073003355585736 0.021128675171426897
-0.034231633969041386 -0.059622642459273574 0.029097150268715018
-0.02469842296853387 -0.057172281562961405 0.03706562536600315
-0.015165211968026355 -0.05472192066664923 0.045034100463291274
-0.005632000967518844 -0.05227155977033707 0.0530025755605794
0.003901210032988673 -0.0498211988740249 0.06097105065786753
0.01343442103349619 -0.04737083797771272 0.06893952575515565
0.0229676320340037 -0.04492047708140055 0.07690800085244379
-0.06665870219908089 -0.054933570706820034 0.006068307247637132
-0.05712549119857338 -0.052483209810507865 0.014036782344925265
-0.04759228019806586 -0.050032848914195696 0.02200525744221339
-0.03805906919755835 -0.04758248801788353 0.029973732539501516
-0.028525858197050835 -0.04513212712157136 0.03794220763678964
-0.01899264719654332 -0.04268176622525919 0.04591068273407777
-0.00945943619603581 -0.04023140532894702 0.0538791578313659
7.377480447170663e-05 -0.03778104443263485 0.06184763292865402
0.009606985804979224 -0.03533068353632268 0.06981610802594215
0.019140196805486735 -0.03288032264001051 0.07778458312323028
-0.07048613742759785 -0.042893416265429994 0.0069448895184236305
-0.06095292642709035 -0.040443055369117825 0.014913364615711763
-0.05141971542658283 -0.037992694472805656 0.02288183971299989
-0.04188650442607531 -0.03554233357649349 0.03085031481028801
-0.0323532934255678 -0.03309197268018132 0.03881878990757614
-0.022820082425060284 -0.030641611783869146 0.04678726500486427
-0.013286871424552774 -0.028191250887556977 0.05475574010215239
-0.0037536604240452597 -0.025740889991244808 0.06272421519944052
0.005779550576462258 -0.02329052909493264 0.07069269029672864
0.015312761576969768 -0.02084016819862047 0.07866116539401678
-0.07431357265611482 -0.030853261824039947 0.00782147178921013
-0.06478036165560731 -0.02840290092772778 0.015789946886498256
-0.05524715065509979 -0.02595254003141561 0.023758421983786384
-0.04571393965459228 -0.02350217913510344 0.031726897081074505
-0.03618072865408476 -0.02105181823879127 0.03969537217836264
-0.02664751765357725 -0.018601457342479102 0.04766384727565077
-0.01711430665306974 -0.016151096446166933 0.055632322372938886
-0.0075810956525622225 -0.013700735549854764 0.06360079747022701
0.0019521153479452914 -0.011250374653542596 0.07156927256751515
0.011485326348452802 -0.008800013757230427 0.07953774766480327
-0.07814100788463178 -0.0188131073826499 0.00869805405999662
-0.06860779688412427 -0.01636274648633773 0.016666529157284754
-0.059074585883616755 -0.013912385590025564 0.024635004254572882
-0.049541374883109245 -0.011462024693713395 0.032603479351861
-0.04000816388260173 -0.009011663797401226 0.040571954449149135
-0.030474952882094213 -0.006561302901089057 0.04854042954643726
-0.020941741881586706 -0.004110942004776889 0.056508904643725384
-0.011408530881079189 -0.0016605811084647183 0.06447737974101352
-0.001875319880571668 0.0007897797878474508 0.07244585483830164
0.0076578911199358425 0.00324014068415962 0.08041432993558977
-0.08196844311314874 -0.006772952941259865 0.009574636330783119
-0.07243523211264123 -0.004322592044947696 0.01754311142807125
-0.06290202111213372 -0.0018722311486355267 0.025511586525359377
-0.05336881011162621 0.0005781297476766424 0.0334800616226475
-0.043835599111118694 0.0030284906439888115 0.04144853671993563
-0.034302388110611176 0.00547885154030098 0.04941701181722376
-0.02476917711010367 0.00792921243661315 0.05738548691451188
-0.015235966109596152 0.010379573332925319 0.06535396201180001
-0.005702755109088634 0.012829934229237488 0.07332243710908813
0.003830455891418876 0.015280295125549657 0.08129091220637627
-0.08579587834166572 0.005267201500130182 0.010451218601569617
-0.0762626673411582 0.007717562396442351 0.018419693698857747
-0.06672945634065068 0.01016792329275452 0.026388168796145875
-0.05719624534014318 0.01261828418906669 0.034356643893434
-0.04766303433963566 0.015068645085378859 0.042325118990722124
-0.03812982333912814 0.017519005981691028 0.050293594088010256
-0.028596612338620632 0.019969366878003197 0.05826206918529838
-0.019063401338113118 0.022419727774315366 0.06623054428258651
-0.0095301903376056 0.024870088670627535 0.07419901937987464
3.0206629019098156e-06 0.027320449566939704 0.08216749447716276
-0.08962331357018267 0.017307355941520226 0.011327800872356115
-0.08009010256967516 0.019757716837832392 0.019296275969644245
-0.07055689156916765 0.022208077734144568 0.02726475106693237
-0.061023680568660144 0.02465843863045673 0.0352332261642205
-0.051490469568152626 0.0271087995267689 0.04320170126150862
-0.04195725856764511 0.029559160423081075 0.051170176358796754
-0.0324240475671376 0.03200952131939323 0.05913865145608487
-0.022890836566630084 0.0344598822157054 0.067107126553373
-0.013357625566122567 0.03691024311201758 0.07507560165066113
-0.0038244145656150565 0.03936060400832974 0.08304407674794927
-0.09345074879869965 0.029347510382910277 0.012204383143142613
-0.08391753779819214 0.031797871279222435 0.02017285824043074
-0.07438432679768461 0.03424823217553461 0.028141333337718868
-0.0648511157971771 0.03669859307184677 0.03610980843500699
-0.05531790479666959 0.03914895396815894 0.04407828353229512
-0.045784693796162075 0.04159931486447112 0.052046758629583245
-0.036251482795654565 0.04404967576078328 0.06001523372687137
-0.026718271795147047 0.04650003665709545 0.0679837088241595
-0.01718506079463953 0.048950397553407625 0.07595218392144762
-0.007651849794132019 0.05140075844971979 0.08392065901873576
