# .PCD v0.7 - Point Cloud Data file format
VERSION 0.7
FIELDS x y z
SIZE 4 4 4
TYPE F F F
COUNT 1 1 1
WIDTH 600
HEIGHT 1
VIEWPOINT 0 0 0 1 0 0 0
POINTS 600
DATA ascii
-0.02098962767403713 -0.047128344064042656 -0.1977907962784858
-0.01592178857973324 -0.02317669106438102 -0.18838767062653944
-0.010853949485429353 0.0007749619352806067 -0.17898454497459307
-0.005786110391125478 0.02472661493494223 -0.16958141932264673
-0.0007182712968215889 0.04867826793460385 -0.16017829367070036
0.004349567797482299 0.07262992093426549 -0.15077516801875399
0.009417406891786188 0.09658157393392709 -0.14137204236680762
0.014485245986090063 0.12053322693358873 -0.13196891671486125
0.019553085080393953 0.14448487993325035 -0.12256579106291488
0.024620924174697842 0.16843653293291197 -0.1131626654109685
-0.0393850336244729 -0.05045709742063731 -0.179397539700656
-0.03431719453016901 -0.026505444420975674 -0.16999441404870963
-0.02924935543586512 -0.0025537914213140454 -0.16059128839676326
-0.024181516341561245 0.021397861578347575 -0.15118816274481692
-0.019113677247257356 0.0453495145780092 -0.14178503709287055
-0.014045838152953466 0.06930116757767084 -0.13238191144092418
-0.008977999058649577 0.09325282057733245 -0.1229787857889778
-0.003910159964345702 0.11720447357699408 -0.11357566013703144
0.0011576791299581861 0.14115612657665572 -0.10417253448508507
0.006225518224262075 0.16510777957631734 -0.0947694088331387
-0.05778043957490865 -0.05378585077723196 -0.16100428312282622
-0.05271260048060476 -0.029834197777570324 -0.15160115747087985
-0.047644761386300874 -0.005882544777908696 -0.14219803181893348
-0.042576922291997 0.018069108221752925 -0.1327949061669871
-0.03750908319769311 0.04202076122141454 -0.12339178051504075
-0.03244124410338922 0.06597241422107618 -0.11398865486309438
-0.027373405009085333 0.08992406722073779 -0.10458552921114801
-0.02230556591478146 0.11387572022039942 -0.09518240355920164
-0.01723772682047757 0.13782737322006106 -0.08577927790725527
-0.012169887726173681 0.16177902621972268 -0.0763761522553089
-0.0761758455253444 -0.05711460413382661 -0.14261102654499644
-0.07110800643104051 -0.033162951134164974 -0.13320790089305007
-0.06604016733673662 -0.009211298134503346 -0.12380477524110368
-0.06097232824243275 0.014740354865158276 -0.11440164958915733
-0.05590448914812886 0.0386920078648199 -0.10499852393721096
-0.05083665005382497 0.06264366086448153 -0.09559539828526459
-0.04576881095952108 0.08659531386414314 -0.08619227263331823
-0.040700971865217206 0.11054696686380477 -0.07678914698137186
-0.03563313277091332 0.1344986198634664 -0.06738602132942549
-0.030565293676609432 0.15845027286312802 -0.057982895677479114
-0.09457125147578016 -0.06044335749042126 -0.12421776996716663
-0.08950341238147627 -0.03649170449075963 -0.11481464431522026
-0.08443557328717238 -0.012540051491097997 -0.10541151866327389
-0.07936773419286851 0.011411601508563624 -0.09600839301132753
-0.07429989509856462 0.03536325450822524 -0.08660526735938116
-0.06923205600426073 0.05931490750788688 -0.0772021417074348
-0.06416421690995684 0.08326656050754849 -0.06779901605548842
-0.05909637781565297 0.10721821350721013 -0.05839589040354205
-0.05402853872134908 0.13116986650687176 -0.04899276475159568
-0.04896069962704519 0.15512151950653338 -0.03958963909964931
-0.11296665742621592 -0.06377211084701591 -0.10582451338933682
-0.10789881833191203 -0.039820457847354274 -0.09642138773739045
-0.10283097923760814 -0.01586880484769265 -0.08701826208544408
-0.09776314014330427 0.008082848151968974 -0.07761513643349773
-0.09269530104900038 0.0320345011516306 -0.06821201078155135
-0.08762746195469649 0.05598615415129223 -0.05880888512960499
-0.0825596228603926 0.07993780715095383 -0.04940575947765863
-0.07749178376608873 0.10388946015061547 -0.04000263382571226
-0.07242394467178484 0.1278411131502771 -0.030599508173765885
-0.06735610557748095 0.15179276614993872 -0.021196382521819514
-0.13136206337665168 -0.06710086420361056 -0.08743125681150704
-0.1262942242823478 -0.04314921120394893 -0.07802813115956067
-0.12122638518804389 -0.019197558204287295 -0.0686250055076143
-0.11615854609374002 0.004754094795374324 -0.05922187985566794
-0.11109070699943613 0.028705747795035947 -0.04981875420372157
-0.10602286790513224 0.05265740079469758 -0.0404156285517752
-0.10095502881082835 0.07660905379435919 -0.031012502899828837
-0.09588718971652448 0.10056070679402082 -0.021609377247882467
-0.09081935062222059 0.12451235979368246 -0.012206251595936095
-0.0857515115279167 0.1484640127933441 -0.002803125943989726
-0.14975746932708744 -0.07042961756020522 -0.06903800023367723
-0.14468963023278356 -0.04647796456054357 -0.05963487458173086
-0.13962179113847967 -0.02252631156088195 -0.05023174892978449
-0.13455395204417578 0.0014253414387796726 -0.040828623277838136
-0.1294861129498719 0.025376994438441294 -0.031425497625891766
-0.124418273855568 0.04932864743810293 -0.0220223719739454
-0.11935043476126411 0.07328030043776454 -0.012619246321999036
-0.11428259566696024 0.09723195343742617 -0.003216120670052665
-0.10921475657265635 0.12118360643708781 0.0061870049818937055
-0.10414691747835246 0.14513525943674943 0.015590130633840075
-0.16815287527752318 -0.07375837091679986 -0.05064474365584744
-0.1630850361832193 -0.04980671791713823 -0.04124161800390107
-0.1580171970889154 -0.0258550649174766 -0.0318384923519547
-0.15294935799461154 -0.0019034119178149777 -0.02243536670000834
-0.14788151890030765 0.022048241081846644 -0.013032241048061973
-0.14281367980600376 0.04599989408150828 -0.003629115396115602
-0.13774584071169987 0.06995154708116988 0.005774010255830761
-0.13267800161739599 0.09390320008083151 0.01517713590777713
-0.1276101625230921 0.11785485308049315 0.024580261559723503
-0.12254232342878822 0.14180650608015477 0.03398338721166987
-0.18654828122795894 -0.07708712427339451 -0.032251487078017636
-0.18148044213365505 -0.05313547127373288 -0.022848361426071263
-0.17641260303935116 -0.029183818274071252 -0.013445235774124892
-0.1713447639450473 -0.00523216527440963 -0.004042110122178537
-0.1662769248507434 0.01871948772525199 0.005361015529767833
-0.16120908575643952 0.042671140724913625 0.014764141181714204
-0.15614124666213564 0.06662279372457523 0.024167266833660567
-0.15107340756783175 0.09057444672423687 0.033570392485606934
-0.14600556847352786 0.1145260997238985 0.042973518137553304
-0.14093772937922397 0.13847775272356014 0.052376643789499674
0.14093772937922397 -0.13847775272356014 -0.052376643789499674
0.14600556847352786 -0.1145260997238985 -0.042973518137553304
0.15107340756783175 -0.09057444672423687 -0.033570392485606934
0.15614124666213564 -0.06662279372457525 -0.024167266833660574
0.16120908575643952 -0.042671140724913625 -0.014764141181714204
0.1662769248507434 -0.01871948772525199 -0.005361015529767833
0.1713447639450473 0.005232165274409623 0.004042110122178537
0.17641260303935116 0.029183818274071252 0.013445235774124892
0.18148044213365505 0.05313547127373288 0.022848361426071263
0.18654828122795894 0.07708712427339451 0.032251487078017636
0.12254232342878822 -0.14180650608015477 -0.03398338721166987
0.1276101625230921 -0.11785485308049315 -0.024580261559723503
0.13267800161739599 -0.09390320008083151 -0.01517713590777713
0.13774584071169987 -0.06995154708116989 -0.005774010255830768
0.14281367980600376 -0.04599989408150828 0.003629115396115602
0.14788151890030765 -0.022048241081846644 0.013032241048061973
0.15294935799461154 0.0019034119178149708 0.02243536670000834
0.1580171970889154 0.0258550649174766 0.0318384923519547
0.1630850361832193 0.04980671791713823 0.04124161800390107
0.16815287527752318 0.07375837091679986 0.05064474365584744
0.10414691747835246 -0.14513525943674943 -0.015590130633840075
0.10921475657265635 -0.12118360643708781 -0.0061870049818937055
0.11428259566696024 -0.09723195343742617 0.003216120670052665
0.11935043476126411 -0.07328030043776455 0.012619246321999029
0.124418273855568 -0.04932864743810293 0.0220223719739454
0.1294861129498719 -0.025376994438441294 0.031425497625891766
0.13455395204417578 -0.0014253414387796796 0.040828623277838136
0.13962179113847967 0.02252631156088195 0.05023174892978449
0.14468963023278356 0.04647796456054357 0.05963487458173086
0.14975746932708744 0.07042961756020522 0.06903800023367723
0.08575151152791671 -0.1484640127933441 0.002803125943989716
0.0908193506222206 -0.12451235979368246 0.012206251595936086
0.09588718971652449 -0.10056070679402082 0.021609377247882457
0.10095502881082836 -0.0766090537943592 0.03101250289982882
0.10602286790513225 -0.05265740079469758 0.04041562855177519
0.11109070699943614 -0.028705747795035944 0.04981875420372156
0.11615854609374003 -0.004754094795374329 0.05922187985566793
0.1212263851880439 0.0191975582042873 0.06862500550761429
0.1262942242823478 0.04314921120394893 0.07802813115956066
0.13136206337665168 0.06710086420361056 0.08743125681150703
0.06735610557748095 -0.15179276614993872 0.021196382521819514
0.07242394467178484 -0.1278411131502771 0.030599508173765885
0.07749178376608873 -0.10388946015061547 0.04000263382571226
0.0825596228603926 -0.07993780715095385 0.04940575947765862
0.08762746195469649 -0.05598615415129223 0.05880888512960499
0.09269530104900038 -0.0320345011516306 0.06821201078155135
0.09776314014330427 -0.008082848151968981 0.07761513643349773
0.10283097923760814 0.01586880484769265 0.08701826208544408
0.10789881833191203 0.039820457847354274 0.09642138773739045
0.11296665742621592 0.06377211084701591 0.10582451338933682
0.04896069962704519 -0.15512151950653338 0.03958963909964931
0.05402853872134908 -0.13116986650687176 0.04899276475159568
0.05909637781565297 -0.10721821350721013 0.05839589040354205
0.06416421690995684 -0.0832665605075485 0.06779901605548842
0.06923205600426073 -0.05931490750788688 0.0772021417074348
0.07429989509856462 -0.03536325450822524 0.08660526735938116
0.07936773419286851 -0.01141160150856363 0.09600839301132753
0.08443557328717238 0.012540051491097997 0.10541151866327389
0.08950341238147627 0.03649170449075963 0.11481464431522026
0.09457125147578016 0.06044335749042126 0.12421776996716663
0.030565293676609442 -0.15845027286312802 0.05798289567747911
0.03563313277091333 -0.1344986198634664 0.06738602132942548
0.04070097186521722 -0.11054696686380477 0.07678914698137185
0.045768810959521095 -0.08659531386414315 0.0861922726333182
0.05083665005382498 -0.06264366086448153 0.09559539828526457
0.05590448914812887 -0.0386920078648199 0.10499852393721094
0.06097232824243276 -0.01474035486515828 0.11440164958915731
0.06604016733673664 0.009211298134503347 0.12380477524110367
0.07110800643104052 0.033162951134164974 0.13320790089305004
0.07617584552534441 0.05711460413382661 0.1426110265449964
0.012169887726173681 -0.16177902621972268 0.0763761522553089
0.01723772682047757 -0.13782737322006106 0.08577927790725527
0.02230556591478146 -0.11387572022039942 0.09518240355920164
0.027373405009085333 -0.0899240672207378 0.10458552921114801
0.03244124410338922 -0.06597241422107618 0.11398865486309438
0.03750908319769311 -0.04202076122141454 0.12339178051504075
0.042576922291997 -0.018069108221752932 0.1327949061669871
0.047644761386300874 0.005882544777908696 0.14219803181893348
0.05271260048060476 0.029834197777570324 0.15160115747087985
0.05778043957490865 0.05378585077723196 0.16100428312282622
-0.006225518224262075 -0.16510777957631734 0.0947694088331387
-0.0011576791299581861 -0.14115612657665572 0.10417253448508507
0.003910159964345702 -0.11720447357699408 0.11357566013703144
0.008977999058649577 -0.09325282057733246 0.1229787857889778
0.014045838152953466 -0.06930116757767084 0.13238191144092418
0.019113677247257356 -0.0453495145780092 0.14178503709287055
0.024181516341561245 -0.021397861578347582 0.15118816274481692
0.02924935543586512 0.0025537914213140454 0.16059128839676326
0.03431719453016901 0.026505444420975674 0.16999441404870963
0.0393850336244729 0.05045709742063731 0.179397539700656
-0.024620924174697842 -0.16843653293291197 0.1131626654109685
-0.019553085080393953 -0.14448487993325035 0.12256579106291488
-0.014485245986090063 -0.12053322693358873 0.13196891671486125
-0.009417406891786188 -0.0965815739339271 0.14137204236680762
-0.004349567797482299 -0.07262992093426549 0.15077516801875399
0.0007182712968215889 -0.04867826793460385 0.16017829367070036
0.005786110391125478 -0.024726614934942236 0.16958141932264673
0.010853949485429353 -0.0007749619352806067 0.17898454497459307
0.01592178857973324 0.02317669106438102 0.18838767062653944
0.02098962767403713 0.047128344064042656 0.1977907962784858
-0.02098962767403713 -0.047128344064042656 -0.1977907962784858
-0.0029976991125636606 -0.05727827835954459 -0.18163366822415403
0.01499422944890978 -0.06742821265504655 -0.16547654016982222
0.03298615801038324 -0.07757814695054847 -0.14931941211549044
0.0509780865718567 -0.08772808124605042 -0.13316228406115865
0.06897001513333016 -0.09787801554155237 -0.11700515600682686
0.0869619436948036 -0.1080279498370543 -0.10084802795249506
0.10495387225627706 -0.11817788413255624 -0.08469089989816327
0.12294580081775051 -0.1283278184280582 -0.06853377184383147
0.14093772937922397 -0.13847775272356014 -0.052376643789499674
-0.0393850336244729 -0.05045709742063731 -0.179397539700656
-0.021393105062999428 -0.060607031716139244 -0.16324041164632422
-0.003401176501525985 -0.07075696601164119 -0.1470832835919924
0.01459075205994747 -0.08090690030714312 -0.13092615553766063
0.03258268062142093 -0.09105683460264506 -0.11476902748332884
0.05057460918289439 -0.10120676889814702 -0.09861189942899705
0.06856653774436784 -0.11135670319364895 -0.08245477137466525
0.0865584663058413 -0.12150663748915089 -0.06629764332033346
0.10455039486731475 -0.13165657178465284 -0.05014051526600167
0.12254232342878822 -0.14180650608015477 -0.03398338721166987
-0.05778043957490865 -0.05378585077723196 -0.16100428312282622
-0.03978851101343518 -0.0639357850727339 -0.14484715506849444
-0.02179658245196174 -0.07408571936823585 -0.12869002701416263
-0.0038046538904882854 -0.08423565366373778 -0.11253289895983085
0.014187274670985177 -0.09438558795923972 -0.09637577090549905
0.03217920323245863 -0.10453552225474168 -0.08021864285116725
0.05017113179393208 -0.1146854565502436 -0.06406151479683546
0.06816306035540555 -0.12483539084574555 -0.04790438674250367
0.08615498891687899 -0.1349853251412475 -0.031747258688171874
0.10414691747835246 -0.14513525943674943 -0.015590130633840075
-0.0761758455253444 -0.05711460413382661 -0.14261102654499644
-0.05818391696387093 -0.06726453842932854 -0.12645389849066466
-0.04019198840239749 -0.0774144727248305 -0.11029677043633283
-0.022200059840924036 -0.08756440702033243 -0.09413964238200105
-0.004208131279450574 -0.09771434131583437 -0.07798251432766926
0.013783797282022883 -0.10786427561133632 -0.06182538627333746
0.03177572584349633 -0.11801420990683825 -0.04566825821900567
0.049767654404969795 -0.1281641442023402 -0.029511130164673875
0.06775958296644324 -0.13831407849784216 -0.01335400211034208
0.08575151152791671 -0.1484640127933441 0.002803125943989716
-0.09457125147578016 -0.06044335749042126 -0.12421776996716663
-0.07657932291430669 -0.07059329178592319 -0.10806064191283485
-0.05858739435283325 -0.08074322608142515 -0.09190351385850304
-0.040595465791359794 -0.09089316037692707 -0.07574638580417126
-0.022603537229886332 -0.10104309467242902 -0.059589257749839454
-0.004611608668412875 -0.11119302896793097 -0.04343212969550766
0.013380319893060572 -0.1213429632634329 -0.027275001641175873
0.031372248454534034 -0.13149289755893484 -0.011117873586844077
0.04936417701600748 -0.1416428318544368 0.005039254467487719
0.06735610557748095 -0.15179276614993872 0.021196382521819514
-0.11296665742621592 -0.06377211084701591 -0.10582451338933682
-0.09497472886474245 -0.07392204514251785 -0.08966738533500504
-0.07698280030326901 -0.0840719794380198 -0.07351025728067323
-0.058990871741795556 -0.09422191373352173 -0.057353129226341455
-0.040998943180322094 -0.10437184802902368 -0.04119600117200966
-0.023007014618848635 -0.11452178232452563 -0.02503887311767786
-0.00501508605737519 -0.12467171662002756 -0.008881745063346071
0.012976842504098272 -0.1348216509155295 0.007275382990985724
0.03096877106557172 -0.14497158521103146 0.02343251104531752
0.04896069962704519 -0.15512151950653338 0.03958963909964931
-0.13136206337665168 -0.06710086420361056 -0.08743125681150704
-0.1133701348151782 -0.0772507984991125 -0.07127412875717526
-0.09537820625370476 -0.08740073279461445 -0.05511700070284344
-0.0773862776922313 -0.09755066709011638 -0.03895987264851166
-0.05939434913075784 -0.10770060138561832 -0.02280274459417987
-0.041402420569284386 -0.11785053568112028 -0.006645616539848072
-0.023410492007810937 -0.1280004699766222 0.009511511514483718
-0.005418563446337476 -0.13815040427212413 0.025668639568815512
0.012573365115135973 -0.1483003385676261 0.04182576762314731
0.030565293676609442 -0.15845027286312802 0.05798289567747911
-0.14975746932708744 -0.07042961756020522 -0.06903800023367723
-0.13176554076561398 -0.08057955185570714 -0.05288087217934545
-0.11377361220414052 -0.0907294861512091 -0.03672374412501364
-0.09578168364266706 -0.10087942044671103 -0.020566616070681863
-0.07778975508119361 -0.11102935474221297 -0.004409488016350066
-0.05979782651972015 -0.12117928903771492 0.011747640037981729
-0.0418058979582467 -0.13132922333321687 0.027904768092313518
-0.023813969396773237 -0.1414791576287188 0.04406189614664532
-0.005822040835299788 -0.15162909192422075 0.06021902420097711
0.012169887726173681 -0.16177902621972268 0.0763761522553089
-0.16815287527752318 -0.07375837091679986 -0.05064474365584744
-0.1501609467160497 -0.0839083052123018 -0.034487615601515656
-0.13216901815457627 -0.09405823950780376 -0.018330487547183846
-0.11417708959310283 -0.10420817380330569 -0.0021733594928520657
-0.09618516103162936 -0.11435810809880763 0.01398376856147973
-0.0781932324701559 -0.12450804239430958 0.030140896615811527
-0.06020130390868245 -0.1346579766898115 0.046298024670143316
-0.04220937534720899 -0.14480791098531345 0.06245515272447511
-0.024217446785735543 -0.1549578452808154 0.0786122807788069
-0.006225518224262075 -0.16510777957631734 0.0947694088331387
-0.18654828122795894 -0.07708712427339451 -0.032251487078017636
-0.16855635266648547 -0.08723705856889645 -0.01609435902368585
-0.15056442410501203 -0.0973869928643984 6.276903064595822e-05
-0.1325724955435386 -0.10753692715990033 0.01621989708497774
-0.11458056698206512 -0.11768686145540228 0.03237702513930953
-0.09658863842059166 -0.12783679575090423 0.04853415319364133
-0.07859670985911822 -0.13798673004640616 0.06469128124797312
-0.06060478129764476 -0.1481366643419081 0.08084840930230491
-0.04261285273617131 -0.15828659863741004 0.09700553735663671
-0.024620924174697842 -0.16843653293291197 0.1131626654109685
0.024620924174697842 0.16843653293291197 -0.1131626654109685
0.04261285273617131 0.15828659863741004 -0.09700553735663671
0.06060478129764476 0.1481366643419081 -0.08084840930230491
0.07859670985911821 0.13798673004640616 -0.06469128124797313
0.09658863842059166 0.12783679575090423 -0.04853415319364133
0.11458056698206512 0.11768686145540228 -0.03237702513930953
0.13257249554353856 0.10753692715990035 -0.01621989708497774
0.15056442410501203 0.0973869928643984 -6.276903064595822e-05
0.16855635266648547 0.08723705856889645 0.01609435902368585
0.18654828122795894 0.07708712427339451 0.032251487078017636
0.006225518224262075 0.16510777957631734 -0.0947694088331387
0.024217446785735543 0.1549578452808154 -0.0786122807788069
0.04220937534720899 0.14480791098531345 -0.06245515272447511
0.060201303908682446 0.13465797668981153 -0.04629802467014332
0.0781932324701559 0.12450804239430958 -0.030140896615811527
0.09618516103162936 0.11435810809880763 -0.01398376856147973
0.11417708959310281 0.1042081738033057 0.0021733594928520657
0.13216901815457627 0.09405823950780376 0.018330487547183846
0.1501609467160497 0.0839083052123018 0.034487615601515656
0.16815287527752318 0.07375837091679986 0.05064474365584744
-0.012169887726173681 0.16177902621972268 -0.0763761522553089
0.005822040835299788 0.15162909192422075 -0.06021902420097711
0.023813969396773237 0.1414791576287188 -0.04406189614664532
0.04180589795824669 0.13132922333321687 -0.027904768092313525
0.05979782651972015 0.12117928903771492 -0.011747640037981729
0.07778975508119361 0.11102935474221297 0.004409488016350066
0.09578168364266705 0.10087942044671104 0.020566616070681863
0.11377361220414052 0.0907294861512091 0.03672374412501364
0.13176554076561398 0.08057955185570714 0.05288087217934545
0.14975746932708744 0.07042961756020522 0.06903800023367723
-0.030565293676609432 0.15845027286312802 -0.057982895677479114
-0.012573365115135963 0.1483003385676261 -0.04182576762314732
0.005418563446337486 0.13815040427212413 -0.025668639568815523
0.023410492007810937 0.1280004699766222 -0.009511511514483734
0.04140242056928439 0.11785053568112028 0.006645616539848062
0.059394349130757855 0.10770060138561832 0.022802744594179858
0.0773862776922313 0.0975506670901164 0.038959872648511654
0.09537820625370477 0.08740073279461445 0.055117000702843436
0.11337013481517821 0.0772507984991125 0.07127412875717525
0.13136206337665168 0.06710086420361056 0.08743125681150703
-0.04896069962704519 0.15512151950653338 -0.03958963909964931
-0.03096877106557172 0.14497158521103146 -0.02343251104531752
-0.012976842504098272 0.1348216509155295 -0.007275382990985724
0.0050150860573751795 0.12467171662002757 0.008881745063346064
0.023007014618848635 0.11452178232452563 0.02503887311767786
0.040998943180322094 0.10437184802902368 0.04119600117200966
0.05899087174179554 0.09422191373352175 0.057353129226341455
0.07698280030326901 0.0840719794380198 0.07351025728067323
0.09497472886474245 0.07392204514251785 0.08966738533500504
0.11296665742621592 0.06377211084701591 0.10582451338933682
-0.06735610557748095 0.15179276614993872 -0.021196382521819514
-0.04936417701600748 0.1416428318544368 -0.005039254467487719
-0.031372248454534034 0.13149289755893484 0.011117873586844077
-0.013380319893060582 0.12134296326343291 0.027275001641175866
0.004611608668412875 0.11119302896793097 0.04343212969550766
0.022603537229886332 0.10104309467242902 0.059589257749839454
0.04059546579135978 0.09089316037692709 0.07574638580417126
0.05858739435283325 0.08074322608142515 0.09190351385850304
0.07657932291430669 0.07059329178592319 0.10806064191283485
0.09457125147578016 0.06044335749042126 0.12421776996716663
-0.0857515115279167 0.1484640127933441 -0.002803125943989726
-0.06775958296644323 0.13831407849784216 0.01335400211034207
-0.04976765440496978 0.1281641442023402 0.029511130164673865
-0.03177572584349633 0.11801420990683827 0.04566825821900566
-0.013783797282022872 0.10786427561133632 0.06182538627333745
0.004208131279450584 0.09771434131583437 0.07798251432766924
0.022200059840924033 0.08756440702033244 0.09413964238200104
0.0401919884023975 0.0774144727248305 0.11029677043633282
0.058183916963870944 0.06726453842932854 0.12645389849066463
0.07617584552534441 0.05711460413382661 0.1426110265449964
-0.10414691747835246 0.14513525943674943 0.015590130633840075
-0.08615498891687899 0.1349853251412475 0.031747258688171874
-0.06816306035540555 0.12483539084574555 0.04790438674250367
-0.050171131793932094 0.11468545655024362 0.06406151479683546
-0.03217920323245863 0.10453552225474168 0.08021864285116725
-0.014187274670985177 0.09438558795923972 0.09637577090549905
0.0038046538904882715 0.0842356536637378 0.11253289895983085
0.02179658245196174 0.07408571936823585 0.12869002701416263
0.03978851101343518 0.0639357850727339 0.14484715506849444
0.05778043957490865 0.05378585077723196 0.16100428312282622
-0.12254232342878822 0.14180650608015477 0.03398338721166987
-0.10455039486731475 0.13165657178465284 0.05014051526600167
-0.0865584663058413 0.12150663748915089 0.06629764332033346
-0.06856653774436784 0.11135670319364896 0.08245477137466525
-0.05057460918289439 0.10120676889814702 0.09861189942899705
-0.03258268062142093 0.09105683460264506 0.11476902748332884
-0.014590752059947485 0.08090690030714313 0.13092615553766063
0.003401176501525985 0.07075696601164119 0.1470832835919924
0.021393105062999428 0.060607031716139244 0.16324041164632422
0.0393850336244729 0.05045709742063731 0.179397539700656
-0.14093772937922397 0.13847775272356014 0.052376643789499674
-0.12294580081775051 0.1283278184280582 0.06853377184383147
-0.10495387225627706 0.11817788413255624 0.08469089989816327
-0.08696194369480362 0.10802794983705431 0.10084802795249506
-0.06897001513333016 0.09787801554155237 0.11700515600682686
-0.0509780865718567 0.08772808124605042 0.13316228406115865
-0.03298615801038325 0.07757814695054849 0.14931941211549044
-0.01499422944890978 0.06742821265504655 0.16547654016982222
0.0029976991125636606 0.05727827835954459 0.18163366822415403
0.02098962767403713 0.047128344064042656 0.1977907962784858
-0.02098962767403713 -0.047128344064042656 -0.1977907962784858
-0.0029976991125636606 -0.05727827835954459 -0.18163366822415403
0.01499422944890978 -0.06742821265504655 -0.16547654016982222
0.03298615801038324 -0.07757814695054847 -0.14931941211549044
0.0509780865718567 -0.08772808124605042 -0.13316228406115865
0.06897001513333016 -0.09787801554155237 -0.11700515600682686
0.0869619436948036 -0.1080279498370543 -0.10084802795249506
0.10495387225627706 -0.11817788413255624 -0.08469089989816327
0.12294580081775051 -0.1283278184280582 -0.06853377184383147
0.14093772937922397 -0.13847775272356014 -0.052376643789499674
-0.01592178857973324 -0.02317669106438102 -0.18838767062653944
0.002070139981740228 -0.03332662535988296 -0.17223054257220766
0.02006206854321367 -0.043476559655384904 -0.15607341451787585
0.038053997104687126 -0.05362649395088684 -0.13991628646354407
0.05604592566616058 -0.06377642824638878 -0.12375915840921228
0.07403785422763404 -0.07392636254189074 -0.10760203035488049
0.09202978278910749 -0.08407629683739266 -0.09144490230054869
0.11002171135058095 -0.09422623113289462 -0.0752877742462169
0.1280136399120544 -0.10437616542839655 -0.0591306461918851
0.14600556847352786 -0.1145260997238985 -0.042973518137553304
-0.010853949485429353 0.0007749619352806067 -0.17898454497459307
0.007137979076044116 -0.009374972360221336 -0.1628274169202613
0.02512990763751756 -0.019524906655723276 -0.14667028886592948
0.043121836198991015 -0.029674840951225218 -0.1305131608115977
0.06111376476046447 -0.03982477524672716 -0.11435603275726591
0.07910569332193793 -0.0499747095422291 -0.09819890470293412
0.09709762188341138 -0.06012464383773104 -0.08204177664860232
0.11508955044488484 -0.07027457813323298 -0.06588464859427053
0.13308147900635828 -0.08042451242873493 -0.04972752053993873
0.15107340756783175 -0.09057444672423687 -0.033570392485606934
-0.005786110391125478 0.02472661493494223 -0.16958141932264673
0.012205818170347991 0.014576680639440285 -0.15342429126831492
0.030197746731821448 0.0044267463439383445 -0.13726716321398313
0.0481896752932949 -0.005723187951563597 -0.12111003515965134
0.06618160385476834 -0.015873122247065538 -0.10495290710531954
0.08417353241624181 -0.02602305654256748 -0.08879577905098775
0.10216546097771526 -0.03617299083806942 -0.07263865099665597
0.12015738953918872 -0.04632292513357136 -0.05648152294232416
0.13814931810066217 -0.056472859429073305 -0.04032439488799237
0.15614124666213564 -0.06662279372457525 -0.024167266833660574
-0.0007182712968215889 0.04867826793460385 -0.16017829367070036
0.01727365726465188 0.03852833363910191 -0.14402116561636855
0.03526558582612533 0.028378399343599967 -0.12786403756203676
0.05325751438759878 0.01822846504809803 -0.11170690950770497
0.07124944294907223 0.008078530752596085 -0.09554978145337317
0.0892413715105457 -0.0020714035429058595 -0.07939265339904138
0.10723330007201914 -0.012221337838407795 -0.0632355253447096
0.1252252286334926 -0.022371272133909742 -0.04707839729037779
0.14321715719496605 -0.032521206429411684 -0.030921269236046
0.16120908575643952 -0.042671140724913625 -0.014764141181714204
0.004349567797482299 0.07262992093426549 -0.15077516801875399
0.02234149635895577 0.06247998663876354 -0.13461803996442218
0.04033342492042922 0.0523300523432616 -0.1184609119100904
0.05832535348190267 0.04218011804775966 -0.1023037838557586
0.07631728204337612 0.03203018375225772 -0.0861466558014268
0.09430921060484958 0.021880249456755773 -0.069989527747095
0.11230113916632303 0.011730315161253835 -0.05383239969276322
0.1302930677277965 0.0015803808657518905 -0.03767527163843142
0.14828499628926994 -0.00856955342975005 -0.02151814358409963
0.1662769248507434 -0.01871948772525199 -0.005361015529767833
0.009417406891786188 0.09658157393392709 -0.14137204236680762
0.027409335453259652 0.08643163963842516 -0.12521491431247583
0.0454012640147331 0.07628170534292321 -0.10905778625814402
0.06339319257620656 0.06613177104742127 -0.09290065820381224
0.08138512113768001 0.05598183675191933 -0.07674353014948045
0.09937704969915347 0.04583190245641739 -0.06058640209514864
0.11736897826062691 0.03568196816091545 -0.044429274040816855
0.13536090682210036 0.025532033865413507 -0.028272145986485062
0.15335283538357383 0.015382099569911564 -0.01211501793215326
0.1713447639450473 0.005232165274409623 0.004042110122178537
0.014485245986090063 0.12053322693358873 -0.13196891671486125
0.03247717454756354 0.11038329263808679 -0.11581178866052945
0.05046910310903699 0.10023335834258484 -0.09965466060619765
0.06846103167051044 0.0900834240470829 -0.08349753255186587
0.0864529602319839 0.07993348975158096 -0.06734040449753408
0.10444488879345735 0.06978355545607902 -0.05118327644320227
0.1224368173549308 0.05963362116057708 -0.035026148388870484
0.14042874591640425 0.049483686865075135 -0.0188690203345387
0.1584206744778777 0.039333752569573194 -0.002711892280206889
0.17641260303935116 0.029183818274071252 0.013445235774124892
0.019553085080393953 0.14448487993325035 -0.12256579106291488
0.03754501364186742 0.1343349456377484 -0.10640866300858308
0.05553694220334087 0.12418501134224648 -0.09025153495425128
0.07352887076481432 0.11403507704674454 -0.0740944068999195
0.09152079932628779 0.1038851427512426 -0.0579372788455877
0.10951272788776124 0.09373520845574064 -0.0417801507912559
0.12750465644923467 0.08358527416023871 -0.025623022736924118
0.14549658501070814 0.07343533986473676 -0.009465894682592329
0.16348851357218158 0.06328540556923481 0.006691233371739482
0.18148044213365505 0.05313547127373288 0.022848361426071263
0.024620924174697842 0.16843653293291197 -0.1131626654109685
0.04261285273617131 0.15828659863741004 -0.09700553735663671
0.06060478129764476 0.1481366643419081 -0.08084840930230491
0.07859670985911821 0.13798673004640616 -0.06469128124797313
0.09658863842059166 0.12783679575090423 -0.04853415319364133
0.11458056698206512 0.11768686145540228 -0.03237702513930953
0.13257249554353856 0.10753692715990035 -0.01621989708497774
0.15056442410501203 0.0973869928643984 -6.276903064595822e-05
0.16855635266648547 0.08723705856889645 0.01609435902368585
0.18654828122795894 0.07708712427339451 0.032251487078017636
-0.18654828122795894 -0.07708712427339451 -0.032251487078017636
-0.16855635266648547 -0.08723705856889645 -0.01609435902368585
-0.15056442410501203 -0.0973869928643984 6.276903064595822e-05
-0.1325724955435386 -0.10753692715990033 0.01621989708497774
-0.11458056698206512 -0.11768686145540228 0.03237702513930953
-0.09658863842059166 -0.12783679575090423 0.04853415319364133
-0.07859670985911822 -0.13798673004640616 0.06469128124797312
-0.06060478129764476 -0.1481366643419081 0.08084840930230491
-0.04261285273617131 -0.15828659863741004 0.09700553735663671
-0.024620924174697842 -0.16843653293291197 0.1131626654109685
-0.18148044213365505 -0.05313547127373288 -0.022848361426071263
-0.16348851357218158 -0.06328540556923481 -0.006691233371739482
-0.14549658501070814 -0.07343533986473676 0.009465894682592329
-0.1275046564492347 -0.0835852741602387 0.02562302273692411
-0.10951272788776124 -0.09373520845574064 0.0417801507912559
-0.09152079932628779 -0.1038851427512426 0.0579372788455877
-0.07352887076481433 -0.11403507704674452 0.07409440689991949
-0.05553694220334087 -0.12418501134224648 0.09025153495425128
-0.03754501364186742 -0.1343349456377484 0.10640866300858308
-0.019553085080393953 -0.14448487993325035 0.12256579106291488
-0.17641260303935116 -0.029183818274071252 -0.013445235774124892
-0.1584206744778777 -0.039333752569573194 0.002711892280206889
-0.14042874591640425 -0.049483686865075135 0.0188690203345387
-0.12243681735493081 -0.05963362116057708 0.03502614838887048
-0.10444488879345735 -0.06978355545607902 0.05118327644320227
-0.0864529602319839 -0.07993348975158096 0.06734040449753408
-0.06846103167051044 -0.0900834240470829 0.08349753255186586
-0.05046910310903699 -0.10023335834258484 0.09965466060619765
-0.03247717454756354 -0.11038329263808679 0.11581178866052945
-0.014485245986090063 -0.12053322693358873 0.13196891671486125
-0.1713447639450473 -0.00523216527440963 -0.004042110122178537
-0.15335283538357383 -0.01538209956991157 0.01211501793215326
-0.13536090682210036 -0.025532033865413514 0.028272145986485055
-0.11736897826062692 -0.035681968160915456 0.04442927404081684
-0.09937704969915347 -0.0458319024564174 0.060586402095148637
-0.08138512113768001 -0.05598183675191934 0.07674353014948043
-0.06339319257620657 -0.06613177104742128 0.09290065820381223
-0.0454012640147331 -0.07628170534292322 0.10905778625814402
-0.02740933545325966 -0.08643163963842516 0.1252149143124758
-0.009417406891786188 -0.0965815739339271 0.14137204236680762
-0.1662769248507434 0.01871948772525199 0.005361015529767833
-0.14828499628926994 0.00856955342975005 0.02151814358409963
-0.1302930677277965 -0.0015803808657518905 0.03767527163843142
-0.11230113916632305 -0.01173031516125383 0.05383239969276321
-0.09430921060484958 -0.021880249456755773 0.069989527747095
-0.07631728204337612 -0.03203018375225772 0.0861466558014268
-0.05832535348190268 -0.04218011804775965 0.1023037838557586
-0.04033342492042922 -0.0523300523432616 0.1184609119100904
-0.02234149635895577 -0.06247998663876354 0.13461803996442218
-0.004349567797482299 -0.07262992093426549 0.15077516801875399
-0.16120908575643952 0.042671140724913625 0.014764141181714204
-0.14321715719496605 0.032521206429411684 0.030921269236046
-0.1252252286334926 0.022371272133909742 0.04707839729037779
-0.10723330007201916 0.012221337838407802 0.06323552534470958
-0.0892413715105457 0.0020714035429058595 0.07939265339904138
-0.07124944294907223 -0.008078530752596085 0.09554978145337317
-0.05325751438759879 -0.01822846504809802 0.11170690950770497
-0.03526558582612533 -0.028378399343599967 0.12786403756203676
-0.01727365726465188 -0.03852833363910191 0.14402116561636855
0.0007182712968215889 -0.04867826793460385 0.16017829367070036
-0.15614124666213564 0.06662279372457523 0.024167266833660567
-0.13814931810066217 0.056472859429073305 0.04032439488799236
-0.12015738953918872 0.046322925133571356 0.056481522942324155
-0.10216546097771527 0.036172990838069415 0.07263865099665595
-0.08417353241624181 0.026023056542567473 0.08879577905098775
-0.06618160385476836 0.01587312224706553 0.10495290710531954
-0.04818967529329491 0.005723187951563594 0.12111003515965132
-0.030197746731821448 -0.004426746343938351 0.13726716321398313
-0.012205818170347991 -0.014576680639440292 0.15342429126831492
0.005786110391125478 -0.024726614934942236 0.16958141932264673
-0.15107340756783175 0.09057444672423687 0.033570392485606934
-0.13308147900635828 0.08042451242873493 0.04972752053993873
-0.11508955044488484 0.07027457813323298 0.06588464859427053
-0.09709762188341138 0.06012464383773104 0.08204177664860232
-0.07910569332193793 0.0499747095422291 0.09819890470293412
-0.06111376476046447 0.03982477524672716 0.11435603275726591
-0.04312183619899102 0.029674840951225218 0.1305131608115977
-0.02512990763751756 0.019524906655723276 0.14667028886592948
-0.007137979076044116 0.009374972360221336 0.1628274169202613
0.010853949485429353 -0.0007749619352806067 0.17898454497459307
-0.14600556847352786 0.1145260997238985 0.042973518137553304
-0.1280136399120544 0.10437616542839655 0.0591306461918851
-0.11002171135058095 0.09422623113289462 0.0752877742462169
-0.09202978278910749 0.08407629683739268 0.09144490230054869
-0.07403785422763404 0.07392636254189074 0.10760203035488049
-0.05604592566616058 0.06377642824638878 0.12375915840921228
-0.03805399710468714 0.05362649395088685 0.13991628646354407
-0.02006206854321367 0.043476559655384904 0.15607341451787585
-0.002070139981740228 0.03332662535988296 0.17223054257220766
0.01592178857973324 0.02317669106438102 0.18838767062653944
-0.14093772937922397 0.13847775272356014 0.052376643789499674
-0.12294580081775051 0.1283278184280582 0.06853377184383147
-0.10495387225627706 0.11817788413255624 0.08469089989816327
-0.08696194369480362 0.10802794983705431 0.10084802795249506
-0.06897001513333016 0.09787801554155237 0.11700515600682686
-0.0509780865718567 0.08772808124605042 0.13316228406115865
-0.03298615801038325 0.07757814695054849 0.14931941211549044
-0.01499422944890978 0.06742821265504655 0.16547654016982222
0.0029976991125636606 0.05727827835954459 0.18163366822415403
0.02098962767403713 0.047128344064042656 0.1977907962784858
