# .PCD v0.7 - Point Cloud Data file format
VERSION 0.7
FIELDS x y z
SIZE 4 4 4
TYPE F F F
COUNT 1 1 1
WIDTH 600
HEIGHT 1
VIEWPOINT 0 0 0 1 0 0 0
POINTS 600
DATA ascii
-0.0875819601142369 -0.031022496591692348 -0.04728642397727808
-0.0768908309820507 -0.02586063924164477 -0.053448289120764304
-0.0661997018498645 -0.020698781891597195 -0.059610154264250516
-0.05550857271767829 -0.015536924541549613 -0.06577201940773675
-0.044817443585492084 -0.010375067191502033 -0.07193388455122296
-0.034126314453305884 -0.005213209841454454 -0.07809574969470919
-0.02343518532111968 -5.1352491406873606e-05 -0.08425761483819541
-0.012744056188933477 0.005110504858640706 -0.09041947998168162
-0.002052927056747273 0.010272362208688287 -0.09658134512516785
0.008638202075438934 0.01543421955873586 -0.10274321026865407
-0.08681168300288956 -0.0214740604885887 -0.03795113412497502
-0.07612055387070336 -0.016312203138541124 -0.04411299926846124
-0.06542942473851716 -0.011150345788493547 -0.05027486441194746
-0.05473829560633096 -0.005988488438445968 -0.05643672955543368
-0.04404716647414475 -0.000826631088398388 -0.0625985946989199
-0.03335603734195855 0.004335226261649192 -0.06876045984240613
-0.022664908209772353 0.009497083611696773 -0.07492232498589234
-0.01197377907758615 0.014658940961744353 -0.08108419012937856
-0.0012826499453999461 0.019820798311791933 -0.08724605527286478
0.009408479186786261 0.024982655661839506 -0.093407920416351
-0.08604140589154224 -0.01192562438548506 -0.028615844272671963
-0.07535027675935604 -0.006763767035437484 -0.03477770941615819
-0.06465914762716984 -0.0016019096853899073 -0.0409395745596444
-0.05396801849498364 0.0035599476646576726 -0.047101439703130625
-0.04327688936279743 0.008721805014705254 -0.053263304846616844
-0.03258576023061123 0.013883662364752834 -0.05942516999010307
-0.021894631098425026 0.019045519714800414 -0.0655870351335893
-0.011203501966238823 0.024207377064847994 -0.0717489002770755
-0.0005123728340526194 0.029369234414895574 -0.07791076542056173
0.010178756298133588 0.03453109176494314 -0.08407263056404796
-0.08527112878019491 -0.002377188282381415 -0.0192805544203689
-0.07457999964800871 0.0027846690676661618 -0.025442419563855123
-0.06388887051582251 0.00794652641771374 -0.03160428470734134
-0.05319774138363631 0.01310838376776132 -0.03776614985082757
-0.0425066122514501 0.018270241117808898 -0.043928014994313785
-0.0318154831192639 0.023432098467856478 -0.05008988013780001
-0.0211243539870777 0.028593955817904058 -0.05625174528128623
-0.010433224854891496 0.03375581316795164 -0.06241361042477245
0.00025790427729470764 0.03891767051799922 -0.06857547556825866
0.010949033409480915 0.044079527868046794 -0.07473734071174488
-0.08450085166884759 0.007171247820722231 -0.009945264568065841
-0.07380972253666139 0.012333105170769808 -0.01610712971155206
-0.06311859340447519 0.017494962520817385 -0.022268994855038277
-0.05242746427228898 0.022656819870864965 -0.028430859998524502
-0.041736335140102776 0.027818677220912545 -0.03459272514201072
-0.031045206007916572 0.032980534570960125 -0.040754590285496946
-0.020354076875730372 0.038142391921007705 -0.046916455428983164
-0.009662947743544169 0.043304249271055285 -0.05307832057246938
0.0010281813886420348 0.048466106621102865 -0.0592401857159556
0.011719310520828242 0.05362796397115044 -0.06540205085944183
-0.08373057455750026 0.016719683923825876 -0.0006099747157627802
-0.07303944542531406 0.021881541273873453 -0.006771839859249002
-0.062348316293127856 0.02704339862392103 -0.012933705002735217
-0.05165718716094165 0.03220525597396861 -0.019095570146221444
-0.04096605802875544 0.03736711332401619 -0.025257435289707662
-0.030274928896569245 0.04252897067406377 -0.03141930043319389
-0.019583799764383045 0.04769082802411135 -0.037581165576680106
-0.008892670632196842 0.05285268537415893 -0.043743030720166325
0.0017984584999893617 0.05801454272420651 -0.04990489586365254
0.012489587632175569 0.06317640007425408 -0.05606676100713877
-0.08296029744615294 0.026268120026929517 0.008725315136540276
-0.07226916831396674 0.03142997737697709 0.002563449993054054
-0.061578039181780536 0.03659183472702467 -0.003598415150432161
-0.05088691004959433 0.04175369207707225 -0.009760280293918386
-0.04019578091740812 0.04691554942711983 -0.015922145437404604
-0.02950465178522192 0.05207740677716741 -0.02208401058089083
-0.01881352265303572 0.057239264127214994 -0.028245875724377048
-0.008122393520849515 0.062401121477262574 -0.034407740867863267
0.0025687356113366882 0.06756297882731015 -0.040569606011349485
0.013259864743522896 0.07272483617735773 -0.04673147115483571
-0.0821900203348056 0.035816556130033164 0.018060604988843338
-0.0714988912026194 0.04097841348008074 0.011898739845357114
-0.06080776207043321 0.04614027083012832 0.0057368747018709
-0.050116632938247 0.0513021281801759 -0.00042499044161532534
-0.039425503806060795 0.05646398553022348 -0.006586855585101544
-0.02873437467387459 0.06162584288027106 -0.01274872072858777
-0.01804324554168839 0.06678770023031863 -0.018910585872073987
-0.007352116409502188 0.07194955758036621 -0.025072451015560205
0.0033390127226840156 0.07711141493041379 -0.031234316159046423
0.014030141854870223 0.08227327228046137 -0.03739618130253265
-0.08141974322345828 0.04536499223313681 0.0273958948411464
-0.07072861409127208 0.05052684958318439 0.021234029697660178
-0.06003748495908588 0.05568870693323196 0.015072164554173961
-0.049346355826899675 0.06085056428327954 0.008910299410687736
-0.03865522669471347 0.06601242163332713 0.002748434267201517
-0.027964097562527265 0.07117427898337471 -0.0034134308762847083
-0.017272968430341065 0.07633613633342229 -0.009575296019770927
-0.006581839298154861 0.08149799368346987 -0.015737161163257143
0.004109289834031343 0.08665985103351745 -0.021899026306743362
0.01480041896621755 0.09182170838356501 -0.028060891450229587
-0.08064946611211095 0.05491342833624045 0.03673118469344946
-0.06995833697992475 0.06007528568628803 0.030569319549963236
-0.05926720784773855 0.06523714303633561 0.02440745440647702
-0.04857607871555234 0.07039900038638319 0.018245589262990795
-0.037884949583366134 0.07556085773643077 0.012083724119504579
-0.027193820451179938 0.08072271508647835 0.005921858976018352
-0.016502691318993738 0.08588457243652593 -0.00024000616746786566
-0.005811562186807534 0.09104642978657351 -0.0064018713109540845
0.0048795669453786696 0.09620828713662109 -0.012563736454440302
0.015570696077564877 0.10137014448666866 -0.01872560159792653
-0.015570696077564877 -0.10137014448666866 0.01872560159792653
-0.0048795669453786696 -0.09620828713662109 0.012563736454440302
0.005811562186807527 -0.09104642978657351 0.006401871310954091
0.01650269131899373 -0.08588457243652593 0.00024000616746786566
0.027193820451179938 -0.08072271508647835 -0.005921858976018352
0.037884949583366134 -0.07556085773643077 -0.012083724119504579
0.048576078715552334 -0.07039900038638319 -0.018245589262990795
0.059267207847738534 -0.06523714303633561 -0.024407454406477014
0.06995833697992475 -0.06007528568628803 -0.030569319549963236
0.08064946611211095 -0.05491342833624045 -0.03673118469344946
-0.01480041896621755 -0.09182170838356501 0.028060891450229587
-0.004109289834031343 -0.08665985103351745 0.021899026306743362
0.006581839298154854 -0.08149799368346987 0.01573716116325715
0.017272968430341058 -0.07633613633342229 0.009575296019770927
0.027964097562527265 -0.07117427898337471 0.0034134308762847083
0.03865522669471347 -0.06601242163332713 -0.002748434267201517
0.04934635582689967 -0.06085056428327955 -0.008910299410687736
0.06003748495908587 -0.05568870693323197 -0.015072164554173954
0.07072861409127208 -0.05052684958318439 -0.021234029697660178
0.08141974322345828 -0.04536499223313681 -0.0273958948411464
-0.014030141854870223 -0.08227327228046137 0.037396181302532645
-0.003339012722684016 -0.0771114149304138 0.03123431615904642
0.007352116409502181 -0.07194955758036622 0.02507245101556021
0.018043245541688385 -0.06678770023031864 0.018910585872073983
0.02873437467387459 -0.061625842880271064 0.012748720728587765
0.03942550380606079 -0.056463985530223484 0.006586855585101539
0.05011663293824699 -0.051302128180175904 0.0004249904416153205
0.06080776207043319 -0.046140270830128324 -0.005736874701870898
0.0714988912026194 -0.040978413480080744 -0.01189873984535712
0.0821900203348056 -0.03581655613003317 -0.01806060498884334
-0.013259864743522896 -0.07272483617735773 0.0467314711548357
-0.0025687356113366887 -0.06756297882731016 0.04056960601134948
0.008122393520849508 -0.062401121477262574 0.034407740867863267
0.01881352265303571 -0.057239264127214994 0.028245875724377045
0.02950465178522192 -0.05207740677716741 0.022084010580890826
0.040195780917408115 -0.04691554942711983 0.0159221454374046
0.050886910049594315 -0.04175369207707226 0.00976028029391838
0.061578039181780515 -0.03659183472702468 0.003598415150432163
0.07226916831396674 -0.0314299773769771 -0.002563449993054059
0.08296029744615294 -0.026268120026929524 -0.008725315136540282
-0.012489587632175569 -0.06317640007425408 0.05606676100713877
-0.0017984584999893617 -0.05801454272420651 0.04990489586365254
0.008892670632196835 -0.05285268537415893 0.04374303072016633
0.01958379976438304 -0.04769082802411135 0.037581165576680106
0.030274928896569245 -0.04252897067406377 0.03141930043319389
0.04096605802875544 -0.03736711332401619 0.025257435289707662
0.05165718716094164 -0.032205255973968616 0.019095570146221444
0.06234831629312784 -0.027043398623921033 0.012933705002735224
0.07303944542531406 -0.021881541273873453 0.006771839859249002
0.08373057455750026 -0.016719683923825876 0.0006099747157627802
-0.011719310520828242 -0.05362796397115044 0.06540205085944183
-0.0010281813886420348 -0.048466106621102865 0.0592401857159556
0.009662947743544162 -0.043304249271055285 0.05307832057246939
0.020354076875730365 -0.038142391921007705 0.046916455428983164
0.031045206007916572 -0.032980534570960125 0.040754590285496946
0.041736335140102776 -0.027818677220912545 0.03459272514201072
0.052427464272288976 -0.02265681987086497 0.028430859998524502
0.06311859340447518 -0.01749496252081739 0.022268994855038284
0.07380972253666139 -0.012333105170769808 0.01610712971155206
0.08450085166884759 -0.007171247820722231 0.009945264568065841
-0.010949033409480915 -0.044079527868046794 0.07473734071174488
-0.00025790427729470807 -0.03891767051799922 0.06857547556825866
0.010433224854891489 -0.03375581316795164 0.06241361042477245
0.021124353987077692 -0.028593955817904065 0.05625174528128622
0.031815483119263896 -0.023432098467856485 0.050089880137800004
0.042506612251450096 -0.018270241117808905 0.04392801499431378
0.053197741383636296 -0.013108383767761326 0.03776614985082756
0.0638888705158225 -0.007946526417713746 0.03160428470734134
0.07457999964800871 -0.002784669067666167 0.02544241956385512
0.08527112878019491 0.0023771882823814096 0.019280554420368898
-0.010178756298133588 -0.03453109176494315 0.08407263056404794
0.000512372834052619 -0.029369234414895577 0.07791076542056172
0.011203501966238816 -0.024207377064847997 0.0717489002770755
0.02189463109842502 -0.019045519714800417 0.06558703513358928
0.03258576023061122 -0.013883662364752837 0.05942516999010306
0.04327688936279742 -0.008721805014705257 0.05326330484661684
0.05396801849498362 -0.0035599476646576813 0.04710143970313062
0.06465914762716983 0.0016019096853898988 0.0409395745596444
0.07535027675935604 0.006763767035437479 0.03477770941615818
0.08604140589154224 0.011925624385485056 0.02861584427267196
-0.009408479186786261 -0.024982655661839506 0.093407920416351
0.0012826499453999461 -0.019820798311791933 0.08724605527286478
0.011973779077586143 -0.014658940961744353 0.08108419012937856
0.022664908209772346 -0.009497083611696773 0.07492232498589234
0.03335603734195855 -0.004335226261649192 0.06876045984240613
0.04404716647414475 0.000826631088398388 0.0625985946989199
0.05473829560633095 0.005988488438445965 0.05643672955543368
0.06542942473851715 0.011150345788493544 0.050274864411947465
0.07612055387070336 0.016312203138541124 0.04411299926846124
0.08681168300288956 0.0214740604885887 0.03795113412497502
-0.008638202075438934 -0.01543421955873586 0.10274321026865407
0.002052927056747273 -0.010272362208688287 0.09658134512516785
0.01274405618893347 -0.005110504858640706 0.09041947998168164
0.023435185321119673 5.1352491406873606e-05 0.08425761483819541
0.034126314453305884 0.005213209841454454 0.07809574969470919
0.044817443585492084 0.010375067191502033 0.07193388455122296
0.055508572717678284 0.01553692454154961 0.06577201940773675
0.06619970184986448 0.02069878189159719 0.05961015426425052
0.0768908309820507 0.02586063924164477 0.053448289120764304
0.0875819601142369 0.031022496591692348 0.04728642397727808
-0.0875819601142369 -0.031022496591692348 -0.04728642397727808
-0.07958070855460668 -0.03883890191335638 -0.03995175446892201
-0.07157945699497645 -0.04665530723502041 -0.03261708496056595
-0.06357820543534623 -0.05447171255668445 -0.025282415452209876
-0.055576953875716 -0.06228811787834849 -0.01794774594385381
-0.04757570231608578 -0.07010452320001252 -0.010613076435497743
-0.039574450756455555 -0.07792092852167655 -0.003278406927141675
-0.03157319919682533 -0.08573733384334059 0.004056262581214393
-0.0235719476371951 -0.09355373916500463 0.01139093208957046
-0.015570696077564877 -0.10137014448666866 0.01872560159792653
-0.08681168300288956 -0.0214740604885887 -0.03795113412497502
-0.07881043144325935 -0.029290465810252735 -0.030616464616618953
-0.07080917988362911 -0.03710687113191677 -0.02328179510826289
-0.0628079283239989 -0.0449232764535808 -0.015947125599906818
-0.054806676764368664 -0.052739681775244844 -0.008612456091550749
-0.046805425204738446 -0.06055608709690888 -0.0012777865831946813
-0.03880417364510822 -0.0683724924185729 0.006056882925161386
-0.030802922085478 -0.07618889774023695 0.013391552433517454
-0.022801670525847775 -0.08400530306190099 0.02072622194187352
-0.01480041896621755 -0.09182170838356501 0.028060891450229587
-0.08604140589154224 -0.01192562438548506 -0.028615844272671963
-0.07804015433191203 -0.019742029707149094 -0.021281174764315895
-0.0700389027722818 -0.027558435028813128 -0.013946505255959831
-0.062037651212651576 -0.035374840350477166 -0.00661183574760376
-0.054036399653021344 -0.0431912456721412 0.0007228337607523072
-0.046035148093391126 -0.051007650993805234 0.008057503269108375
-0.0380338965337609 -0.05882405631546927 0.015392172777464443
-0.030032644974130673 -0.0666404616371333 0.02272684228582051
-0.022031393414500448 -0.07445686695879734 0.030061511794176578
-0.014030141854870223 -0.08227327228046137 0.037396181302532645
-0.08527112878019491 -0.002377188282381415 -0.0192805544203689
-0.07726987722056469 -0.010193593604045448 -0.011945884912012835
-0.06926862566093446 -0.018009998925709484 -0.0046112154036567704
-0.06126737410130425 -0.025826404247373518 0.0027234541046993006
-0.05326612254167402 -0.033642809569037556 0.010058123613055367
-0.0452648709820438 -0.04145921489070159 0.017392793121411437
-0.037263619422413574 -0.04927562021236562 0.024727462629767504
-0.029262367862783346 -0.05709202553402965 0.03206213213812357
-0.02126111630315312 -0.0649084308556937 0.039396801646479636
-0.013259864743522896 -0.07272483617735773 0.0467314711548357
-0.08450085166884759 0.007171247820722231 -0.009945264568065841
-0.07649960010921737 -0.0006451575009418032 -0.0026105950597097734
-0.06849834854958714 -0.008461562822605836 0.00472407444864629
-0.06049709698995692 -0.01627796814426987 0.012058743957002361
-0.05249584543032669 -0.02409437346593391 0.01939341346535843
-0.04449459387069647 -0.031910778787597946 0.026728082973714498
-0.03649334231106625 -0.03972718410926197 0.034062752482070566
-0.02849209075143602 -0.04754358943092601 0.04139742199042663
-0.020490839191805794 -0.05535999475259005 0.0487320914987827
-0.012489587632175569 -0.06317640007425408 0.05606676100713877
-0.08373057455750026 0.016719683923825876 -0.0006099747157627802
-0.07572932299787004 0.008903278602161842 0.006724694792593288
-0.0677280714382398 0.0010868732804978085 0.014059364300949352
-0.05972681987860959 -0.006729532041166226 0.02139403380930542
-0.051725568318979356 -0.014545937362830264 0.02872870331766149
-0.04372431675934914 -0.0223623426844943 0.036063372826017556
-0.03572306519971891 -0.03017874800615833 0.043398042334373624
-0.027721813640088692 -0.03799515332782236 0.05073271184272969
-0.019720562080458467 -0.045811558649486404 0.05806738135108576
-0.011719310520828242 -0.05362796397115044 0.06540205085944183
-0.08296029744615294 0.026268120026929517 0.008725315136540276
-0.07495904588652272 0.018451714705265482 0.016059984644896344
-0.06695779432689249 0.01063530938360145 0.023394654153252408
-0.05895654276726227 0.002818904061937415 0.03072932366160848
-0.050955291207632036 -0.004997501259726623 0.03806399316996455
-0.04295403964800182 -0.012813906581390656 0.045398662678320614
-0.03495278808837159 -0.02063031190305469 0.05273333218667668
-0.026951536528741365 -0.028446717224718723 0.06006800169503275
-0.01895028496911114 -0.03626312254638276 0.06740267120338882
-0.010949033409480915 -0.044079527868046794 0.07473734071174488
-0.0821900203348056 0.035816556130033164 0.018060604988843338
-0.07418876877517538 0.02800015080836913 0.025395274497199406
-0.06618751721554515 0.020183745486705096 0.03272994400555547
-0.05818626565591494 0.012367340165041062 0.04006461351391154
-0.05018501409628471 0.004550934843377023 0.047399283022267605
-0.04218376253665449 -0.003265470478287011 0.05473395253062367
-0.034182510977024266 -0.011081875799951041 0.06206862203897974
-0.026181259417394038 -0.018898281121615075 0.06940329154733581
-0.018180007857763813 -0.026714686443279116 0.07673796105569188
-0.010178756298133588 -0.03453109176494315 0.08407263056404794
-0.08141974322345828 0.04536499223313681 0.0273958948411464
-0.07341849166382806 0.037548586911472774 0.03473056434950247
-0.06541724010419783 0.02973218158980874 0.04206523385785853
-0.057415988544567614 0.021915776268144706 0.0493999033662146
-0.04941473698493738 0.014099370946480668 0.05673457287457067
-0.041413485425307164 0.006282965624816635 0.06406924238292673
-0.03341223386567694 -0.001533439696847396 0.0714039118912828
-0.02541098230604671 -0.009349845018511431 0.07873858139963887
-0.017409730746416486 -0.017166250340175472 0.08607325090799493
-0.009408479186786261 -0.024982655661839506 0.093407920416351
-0.08064946611211095 0.05491342833624045 0.03673118469344946
-0.07264821455248073 0.04709702301457642 0.044065854201805525
-0.0646469629928505 0.039280617692912384 0.05140052371016159
-0.05664571143322028 0.03146421237124835 0.05873519321851766
-0.04864445987359005 0.023647807049584316 0.06606986272687373
-0.04064320831395983 0.01583140172792028 0.0734045322352298
-0.032641956754329605 0.008014996406256249 0.08073920174358587
-0.024640705194699384 0.00019859108459221566 0.08807387125194194
-0.01663945363506916 -0.007617814237071825 0.095408540760298
-0.008638202075438934 -0.01543421955873586 0.10274321026865407
0.008638202075438934 0.01543421955873586 -0.10274321026865407
0.01663945363506916 0.007617814237071825 -0.095408540760298
0.02464070519469938 -0.00019859108459220872 -0.08807387125194194
0.0326419567543296 -0.008014996406256242 -0.08073920174358587
0.04064320831395983 -0.01583140172792028 -0.0734045322352298
0.04864445987359005 -0.023647807049584316 -0.06606986272687373
0.056645711433220274 -0.03146421237124835 -0.05873519321851766
0.0646469629928505 -0.039280617692912384 -0.05140052371016159
0.07264821455248073 -0.04709702301457642 -0.044065854201805525
0.08064946611211095 -0.05491342833624045 -0.03673118469344946
0.009408479186786261 0.024982655661839506 -0.093407920416351
0.017409730746416486 0.017166250340175472 -0.08607325090799493
0.025410982306046707 0.009349845018511438 -0.07873858139963887
0.03341223386567693 0.0015334396968474029 -0.0714039118912828
0.041413485425307164 -0.006282965624816635 -0.06406924238292673
0.04941473698493738 -0.014099370946480668 -0.05673457287457067
0.05741598854456761 -0.021915776268144702 -0.0493999033662146
0.06541724010419783 -0.029732181589808736 -0.042065233857858535
0.07341849166382806 -0.037548586911472774 -0.03473056434950247
0.08141974322345828 -0.04536499223313681 -0.0273958948411464
0.010178756298133588 0.03453109176494314 -0.08407263056404796
0.018180007857763813 0.026714686443279113 -0.07673796105569189
0.026181259417394034 0.01889828112161508 -0.06940329154733582
0.03418251097702425 0.011081875799951044 -0.06206862203897975
0.042183762536654484 0.003265470478287006 -0.05473395253062368
0.0501850140962847 -0.004550934843377028 -0.04739928302226761
0.05818626565591493 -0.01236734016504106 -0.040064613513911544
0.06618751721554515 -0.020183745486705096 -0.03272994400555548
0.07418876877517538 -0.028000150808369133 -0.02539527449719941
0.0821900203348056 -0.03581655613003317 -0.01806060498884334
0.010949033409480915 0.044079527868046794 -0.07473734071174488
0.01895028496911114 0.03626312254638276 -0.06740267120338882
0.02695153652874136 0.028446717224718723 -0.060068001695032756
0.03495278808837158 0.02063031190305469 -0.05273333218667669
0.04295403964800181 0.012813906581390653 -0.04539866267832062
0.05095529120763203 0.0049975012597266175 -0.038063993169964554
0.058956542767262254 -0.002818904061937415 -0.030729323661608483
0.06695779432689249 -0.01063530938360145 -0.023394654153252415
0.07495904588652272 -0.01845171470526549 -0.016059984644896347
0.08296029744615294 -0.026268120026929524 -0.008725315136540282
0.011719310520828242 0.05362796397115044 -0.06540205085944183
0.019720562080458467 0.045811558649486404 -0.05806738135108576
0.02772181364008869 0.03799515332782237 -0.05073271184272969
0.035723065199718906 0.030178748006158336 -0.043398042334373624
0.04372431675934914 0.0223623426844943 -0.036063372826017556
0.051725568318979356 0.014545937362830264 -0.02872870331766149
0.05972681987860958 0.006729532041166231 -0.02139403380930542
0.0677280714382398 -0.001086873280497805 -0.014059364300949355
0.07572932299787004 -0.008903278602161842 -0.006724694792593288
0.08373057455750026 -0.016719683923825876 0.0006099747157627802
0.012489587632175569 0.06317640007425408 -0.05606676100713877
0.020490839191805794 0.05535999475259005 -0.0487320914987827
0.028492090751436015 0.047543589430926014 -0.04139742199042663
0.03649334231106624 0.03972718410926198 -0.034062752482070566
0.04449459387069647 0.031910778787597946 -0.026728082973714498
0.05249584543032669 0.02409437346593391 -0.01939341346535843
0.060497096989956915 0.016277968144269878 -0.012058743957002361
0.06849834854958714 0.00846156282260584 -0.004724074448646294
0.07649960010921737 0.0006451575009418032 0.0026105950597097734
0.08450085166884759 -0.007171247820722231 0.009945264568065841
0.013259864743522896 0.07272483617735773 -0.04673147115483571
0.02126111630315312 0.06490843085569369 -0.03939680164647964
0.029262367862783342 0.05709202553402966 -0.032062132138123575
0.03726361942241356 0.049275620212365624 -0.024727462629767508
0.04526487098204379 0.04145921489070158 -0.01739279312141144
0.05326612254167401 0.03364280956903755 -0.010058123613055373
0.061267374101304235 0.025826404247373518 -0.0027234541046993054
0.06926862566093446 0.01800999892570948 0.004611215403656762
0.07726987722056469 0.010193593604045445 0.01194588491201283
0.08527112878019491 0.0023771882823814096 0.019280554420368898
0.014030141854870223 0.08227327228046137 -0.03739618130253265
0.022031393414500448 0.07445686695879733 -0.03006151179417658
0.03003264497413067 0.0666404616371333 -0.022726842285820514
0.03803389653376089 0.05882405631546927 -0.015392172777464448
0.04603514809339112 0.05100765099380523 -0.00805750326910838
0.05403639965302134 0.04319124567214119 -0.000722833760752312
0.06203765121265156 0.035374840350477166 0.006611835747603756
0.0700389027722818 0.027558435028813128 0.013946505255959822
0.07804015433191203 0.01974202970714909 0.021281174764315892
0.08604140589154224 0.011925624385485056 0.02861584427267196
0.01480041896621755 0.09182170838356501 -0.028060891450229587
0.022801670525847775 0.08400530306190099 -0.02072622194187352
0.030802922085477996 0.07618889774023695 -0.013391552433517454
0.038804173645108214 0.06837249241857292 -0.006056882925161386
0.046805425204738446 0.06055608709690888 0.0012777865831946813
0.054806676764368664 0.052739681775244844 0.008612456091550749
0.0628079283239989 0.04492327645358081 0.015947125599906818
0.07080917988362911 0.037106871131916776 0.023281795108262886
0.07881043144325935 0.029290465810252735 0.030616464616618953
0.08681168300288956 0.0214740604885887 0.03795113412497502
0.015570696077564877 0.10137014448666866 -0.01872560159792653
0.0235719476371951 0.09355373916500463 -0.01139093208957046
0.03157319919682532 0.08573733384334059 -0.004056262581214393
0.03957445075645555 0.07792092852167656 0.003278406927141675
0.04757570231608578 0.07010452320001252 0.010613076435497743
0.055576953875716 0.06228811787834849 0.01794774594385381
0.06357820543534622 0.054471712556684454 0.025282415452209876
0.07157945699497645 0.04665530723502042 0.032617084960565944
0.07958070855460668 0.03883890191335638 0.03995175446892201
0.0875819601142369 0.031022496591692348 0.04728642397727808
-0.0875819601142369 -0.031022496591692348 -0.04728642397727808
-0.07958070855460668 -0.03883890191335638 -0.03995175446892201
-0.07157945699497645 -0.04665530723502041 -0.03261708496056595
-0.06357820543534623 -0.05447171255668445 -0.025282415452209876
-0.055576953875716 -0.06228811787834849 -0.01794774594385381
-0.04757570231608578 -0.07010452320001252 -0.010613076435497743
-0.039574450756455555 -0.07792092852167655 -0.003278406927141675
-0.03157319919682533 -0.08573733384334059 0.004056262581214393
-0.0235719476371951 -0.09355373916500463 0.01139093208957046
-0.015570696077564877 -0.10137014448666866 0.01872560159792653
-0.0768908309820507 -0.02586063924164477 -0.053448289120764304
-0.06888957942242047 -0.033677044563308806 -0.04611361961240824
-0.06088832786279025 -0.04149344988497284 -0.03877895010405217
-0.052887076303160016 -0.049309855206636874 -0.0314442805956961
-0.0448858247435298 -0.05712626052830091 -0.02410961108734003
-0.036884573183899566 -0.06494266584996494 -0.016774941578983963
-0.028883321624269345 -0.07275907117162898 -0.0094402720706279
-0.02088207006463912 -0.08057547649329301 -0.0021056025622718326
-0.012880818505008895 -0.08839188181495705 0.005229066946084235
-0.0048795669453786696 -0.09620828713662109 0.012563736454440302
-0.0661997018498645 -0.020698781891597195 -0.059610154264250516
-0.058198450290234266 -0.028515187213261226 -0.05227548475589445
-0.05019719873060405 -0.03633159253492526 -0.04494081524753839
-0.04219594717097382 -0.044147997856589294 -0.03760614573918232
-0.0341946956113436 -0.05196440317825333 -0.03027147623082625
-0.02619344405171337 -0.05978080849991737 -0.022936806722470178
-0.018192192492083148 -0.0675972138215814 -0.015602137214114116
-0.010190940932452923 -0.07541361914324543 -0.008267467705758045
-0.002189689372822698 -0.08323002446490947 -0.0009327981974019765
0.005811562186807527 -0.09104642978657351 0.006401871310954091
-0.05550857271767829 -0.015536924541549613 -0.06577201940773675
-0.047507321158048066 -0.02335332986321365 -0.058437349899380674
-0.03950606959841785 -0.031169735184877683 -0.051102680391024606
-0.031504818038787616 -0.038986140506541714 -0.04376801088266854
-0.02350356647915739 -0.046802545828205755 -0.03643334137431247
-0.015502314919527166 -0.05461895114986979 -0.029098671865956403
-0.007501063359896944 -0.062435356471533816 -0.021764002357600336
0.0005001881997332806 -0.07025176179319785 -0.01442933284924427
0.008501439759363506 -0.07806816711486189 -0.0070946633408882015
0.01650269131899373 -0.08588457243652593 0.00024000616746786566
-0.044817443585492084 -0.010375067191502033 -0.07193388455122296
-0.03681619202586186 -0.01819147251316607 -0.06459921504286689
-0.028814940466231637 -0.026007877834830103 -0.05726454553451083
-0.020813688906601412 -0.033824283156494134 -0.049929876026154764
-0.012812437346971186 -0.041640688478158175 -0.04259520651779869
-0.004811185787340961 -0.04945709379982221 -0.03526053700944262
0.003190065772289261 -0.05727349912148624 -0.027925867501086558
0.011191317331919486 -0.06508990444315027 -0.020591197992730487
0.019192568891549713 -0.07290630976481431 -0.01325652848437442
0.027193820451179938 -0.08072271508647835 -0.005921858976018352
-0.034126314453305884 -0.005213209841454454 -0.07809574969470919
-0.026125062893675655 -0.013029615163118487 -0.07076108018635312
-0.018123811334045434 -0.020846020484782523 -0.06342641067799705
-0.010122559774415207 -0.028662425806446557 -0.05609174116964098
-0.002121308214784982 -0.036478831128110595 -0.048757071661284915
0.005879943344845243 -0.04429523644977463 -0.04142240215292885
0.013881194904475463 -0.05211164177143866 -0.03408773264457278
0.021882446464105688 -0.0599280470931027 -0.026753063136216712
0.029883698023735913 -0.06774445241476673 -0.019418393627860644
0.037884949583366134 -0.07556085773643077 -0.012083724119504579
-0.02343518532111968 -5.1352491406873606e-05 -0.08425761483819541
-0.015433933761489455 -0.007867757813070914 -0.07692294532983934
-0.007432682201859234 -0.015684163134734946 -0.06958827582148328
0.0005685693577709913 -0.02350056845639898 -0.0622536063131272
0.008569820917401216 -0.031316973778063015 -0.05491893680477113
0.01657107247703144 -0.03913337909972705 -0.047584267296415066
0.024572324036661663 -0.04694978442139108 -0.040249597788059
0.032573575596291884 -0.05476618974305512 -0.03291492827970293
0.04057482715592211 -0.06258259506471915 -0.025580258771346863
0.048576078715552334 -0.07039900038638319 -0.018245589262990795
-0.012744056188933477 0.005110504858640706 -0.09041947998168162
-0.004742804629303252 -0.0027059004630233347 -0.08308481047332555
0.00325844693032697 -0.010522305784687361 -0.0757501409649695
0.011259698489957195 -0.0183387111063514 -0.06841547145661342
0.01926095004958742 -0.026155116428015438 -0.06108080194825736
0.027262201609217645 -0.03397152174967947 -0.053746132439901284
0.035263453168847866 -0.0417879270713435 -0.04641146293154522
0.043264704728478084 -0.04960433239300754 -0.03907679342318915
0.051265956288108316 -0.05742073771467158 -0.03174212391483308
0.059267207847738534 -0.06523714303633561 -0.024407454406477014
-0.002052927056747273 0.010272362208688287 -0.09658134512516785
0.005948324502882952 0.0024559568870242453 -0.08924667561681178
0.013949576062513173 -0.005360448434639782 -0.08191200610845571
0.0219508276221434 -0.013176853756303819 -0.07457733660009964
0.02995207918177362 -0.020993259077967858 -0.06724266709174358
0.03795333074140385 -0.028809664399631892 -0.05990799758338751
0.045954582301034066 -0.03662606972129592 -0.05257332807503144
0.05395583386066429 -0.04444247504295996 -0.045238658566675374
0.061957085420294516 -0.052258880364624 -0.03790398905831931
0.06995833697992475 -0.06007528568628803 -0.030569319549963236
0.008638202075438934 0.01543421955873586 -0.10274321026865407
0.01663945363506916 0.007617814237071825 -0.095408540760298
0.02464070519469938 -0.00019859108459220872 -0.08807387125194194
0.0326419567543296 -0.008014996406256242 -0.08073920174358587
0.04064320831395983 -0.01583140172792028 -0.0734045322352298
0.04864445987359005 -0.023647807049584316 -0.06606986272687373
0.056645711433220274 -0.03146421237124835 -0.05873519321851766
0.0646469629928505 -0.039280617692912384 -0.05140052371016159
0.07264821455248073 -0.04709702301457642 -0.044065854201805525
0.08064946611211095 -0.05491342833624045 -0.03673118469344946
-0.08064946611211095 0.05491342833624045 0.03673118469344946
-0.07264821455248073 0.04709702301457642 0.044065854201805525
-0.0646469629928505 0.039280617692912384 0.05140052371016159
-0.05664571143322028 0.03146421237124835 0.05873519321851766
-0.04864445987359005 0.023647807049584316 0.06606986272687373
-0.04064320831395983 0.01583140172792028 0.0734045322352298
-0.032641956754329605 0.008014996406256249 0.08073920174358587
-0.024640705194699384 0.00019859108459221566 0.08807387125194194
-0.01663945363506916 -0.007617814237071825 0.095408540760298
-0.008638202075438934 -0.01543421955873586 0.10274321026865407
-0.06995833697992475 0.06007528568628803 0.030569319549963236
-0.061957085420294516 0.052258880364624 0.03790398905831931
-0.0539558338606643 0.044442475042959964 0.04523865856667537
-0.045954582301034066 0.03662606972129593 0.052573328075031435
-0.03795333074140385 0.028809664399631892 0.05990799758338751
-0.02995207918177362 0.020993259077967858 0.06724266709174358
-0.021950827622143402 0.013176853756303822 0.07457733660009964
-0.013949576062513177 0.005360448434639789 0.08191200610845571
-0.005948324502882952 -0.0024559568870242453 0.08924667561681178
0.002052927056747273 -0.010272362208688287 0.09658134512516785
-0.05926720784773855 0.06523714303633561 0.02440745440647702
-0.051265956288108316 0.05742073771467158 0.03174212391483309
-0.0432647047284781 0.049604332393007544 0.03907679342318915
-0.03526345316884787 0.04178792707134351 0.04641146293154522
-0.027262201609217652 0.03397152174967947 0.05374613243990129
-0.019260950049587427 0.026155116428015435 0.06108080194825736
-0.011259698489957205 0.018338711106351404 0.06841547145661342
-0.0032584469303269803 0.010522305784687368 0.0757501409649695
0.004742804629303245 0.002705900463023328 0.08308481047332557
0.01274405618893347 -0.005110504858640706 0.09041947998168164
-0.04857607871555234 0.07039900038638319 0.018245589262990795
-0.040574827155922116 0.06258259506471915 0.025580258771346863
-0.0325735755962919 0.05476618974305512 0.03291492827970293
-0.024572324036661673 0.04694978442139108 0.040249597788059
-0.016571072477031448 0.03913337909972705 0.047584267296415066
-0.008569820917401223 0.031316973778063015 0.05491893680477113
-0.0005685693577710017 0.023500568456398984 0.0622536063131272
0.007432682201859223 0.015684163134734946 0.06958827582148328
0.015433933761489448 0.007867757813070907 0.07692294532983934
0.023435185321119673 5.1352491406873606e-05 0.08425761483819541
-0.037884949583366134 0.07556085773643077 0.012083724119504579
-0.029883698023735913 0.06774445241476673 0.019418393627860644
-0.021882446464105695 0.0599280470931027 0.02675306313621671
-0.01388119490447547 0.05211164177143866 0.03408773264457278
-0.005879943344845243 0.04429523644977463 0.04142240215292885
0.002121308214784982 0.036478831128110595 0.048757071661284915
0.010122559774415204 0.02866242580644656 0.05609174116964098
0.01812381133404543 0.020846020484782526 0.06342641067799705
0.026125062893675655 0.013029615163118487 0.07076108018635312
0.034126314453305884 0.005213209841454454 0.07809574969470919
-0.027193820451179938 0.08072271508647835 0.005921858976018352
-0.019192568891549713 0.07290630976481431 0.01325652848437442
-0.01119131733191949 0.06508990444315028 0.020591197992730487
-0.0031900657722892644 0.05727349912148624 0.027925867501086554
0.004811185787340961 0.04945709379982221 0.03526053700944262
0.012812437346971186 0.041640688478158175 0.04259520651779869
0.020813688906601405 0.03382428315649414 0.04992987602615476
0.02881494046623163 0.026007877834830107 0.057264545534510825
0.03681619202586186 0.01819147251316607 0.06459921504286689
0.044817443585492084 0.010375067191502033 0.07193388455122296
-0.016502691318993738 0.08588457243652593 -0.00024000616746786566
-0.008501439759363513 0.07806816711486189 0.0070946633408882015
-0.000500188199733291 0.07025176179319785 0.01442933284924427
0.007501063359896934 0.06243535647153382 0.021764002357600336
0.015502314919527159 0.05461895114986978 0.029098671865956407
0.023503566479157384 0.04680254582820575 0.03643334137431247
0.03150481803878761 0.03898614050654172 0.04376801088266854
0.039506069598417834 0.031169735184877683 0.051102680391024606
0.04750732115804806 0.023353329863213645 0.058437349899380674
0.055508572717678284 0.01553692454154961 0.06577201940773675
-0.005811562186807534 0.09104642978657351 -0.0064018713109540845
0.002189689372822691 0.08323002446490947 0.0009327981974019834
0.010190940932452913 0.07541361914324544 0.008267467705758045
0.018192192492083138 0.0675972138215814 0.015602137214114116
0.026193444051713363 0.05978080849991736 0.02293680672247018
0.03419469561134359 0.05196440317825333 0.030271476230826252
0.042195947170973816 0.0441479978565893 0.03760614573918232
0.050197198730604034 0.03633159253492526 0.04494081524753839
0.058198450290234266 0.028515187213261226 0.052275484755894455
0.06619970184986448 0.02069878189159719 0.05961015426425052
0.0048795669453786696 0.09620828713662109 -0.012563736454440302
0.012880818505008895 0.08839188181495705 -0.005229066946084235
0.020882070064639116 0.08057547649329302 0.0021056025622718257
0.02888332162426934 0.07275907117162898 0.009440272070627894
0.036884573183899566 0.06494266584996494 0.016774941578983963
0.0448858247435298 0.05712626052830091 0.02410961108734003
0.052887076303160016 0.04930985520663688 0.031444280595696095
0.06088832786279024 0.04149344988497284 0.03877895010405217
0.06888957942242047 0.033677044563308806 0.04611361961240824
0.0768908309820507 0.02586063924164477 0.053448289120764304
0.015570696077564877 0.10137014448666866 -0.01872560159792653
0.0235719476371951 0.09355373916500463 -0.01139093208957046
0.03157319919682532 0.08573733384334059 -0.004056262581214393
0.03957445075645555 0.07792092852167656 0.003278406927141675
0.04757570231608578 0.07010452320001252 0.010613076435497743
0.055576953875716 0.06228811787834849 0.01794774594385381
0.06357820543534622 0.054471712556684454 0.025282415452209876
0.07157945699497645 0.04665530723502042 0.032617084960565944
0.07958070855460668 0.03883890191335638 0.03995175446892201
0.0875819601142369 0.031022496591692348 0.04728642397727808
