# .PCD v0.7 - Point Cloud Data file format
VERSION 0.7
FIELDS x y z
SIZE 4 4 4
TYPE F F F
COUNT 1 1 1
WIDTH 600
HEIGHT 1
VIEWPOINT 0 0 0 1 0 0 0
POINTS 600
DATA ascii
-0.010106382817166594 -0.08828815968336758 -0.17389207653233935
-0.01906365728621693 -0.06546981653436255 -0.16871196700589278
-0.028020931755267285 -0.042651473385357526 -0.16353185747944618
-0.03697820622431763 -0.01983313023635252 -0.15835174795299958
-0.04593548069336798 0.002985212912652503 -0.153171638426553
-0.05489275516241832 0.02580355606165752 -0.14799152890010642
-0.06385002963146866 0.048621899210662525 -0.14281141937365982
-0.07280730410051901 0.07144024235966755 -0.13763130984721322
-0.08176457856956937 0.09425858550867257 -0.13245120032076663
-0.09072185303861971 0.11707692865767759 -0.12727109079432006
-0.02007329475066464 -0.09702722386425766 -0.15263102038647008
-0.029030569219714975 -0.07420888071525264 -0.1474509108600235
-0.03798784368876533 -0.05139053756624762 -0.1422708013335769
-0.04694511815781567 -0.028572194417242607 -0.13709069180713032
-0.055902392626866027 -0.005753851268237587 -0.13191058228068372
-0.06485966709591637 0.017064491880767432 -0.12673047275423713
-0.07381694156496671 0.03988283502977244 -0.12155036322779054
-0.08277421603401706 0.06270117817877746 -0.11637025370134396
-0.09173149050306742 0.08551952132778248 -0.11119014417489737
-0.10068876497211776 0.1083378644767875 -0.10601003464845078
-0.030040206684162688 -0.10576628804514775 -0.1313699642406008
-0.038997481153213026 -0.08294794489614273 -0.1261898547141542
-0.04795475562226338 -0.06012960174713771 -0.12100974518770762
-0.05691203009131372 -0.0373112585981327 -0.11582963566126103
-0.06586930456036408 -0.01449291544912768 -0.11064952613481444
-0.07482657902941442 0.008325427699877338 -0.10546941660836785
-0.08378385349846476 0.031143770848882344 -0.10028930708192126
-0.09274112796751512 0.05396211399788737 -0.09510919755547467
-0.10169840243656547 0.0767804571468924 -0.08992908802902808
-0.11065567690561581 0.09959880029589742 -0.08474897850258149
-0.040007118617660736 -0.11450535222603785 -0.11010890809473152
-0.04896439308671107 -0.09168700907703282 -0.10492879856828494
-0.057921667555761426 -0.0688686659280278 -0.09974868904183834
-0.06687894202481176 -0.04605032277902279 -0.09456857951539176
-0.07583621649386212 -0.02323197963001777 -0.08938846998894516
-0.08479349096291246 -0.00041363648101275203 -0.08420836046249858
-0.0937507654319628 0.022404706667992255 -0.07902825093605198
-0.10270803990101315 0.045223049816997284 -0.0738481414096054
-0.11166531437006351 0.0680413929660023 -0.0686680318831588
-0.12062258883911385 0.09085973611500732 -0.06348792235671222
-0.04997403055115878 -0.12324441640692793 -0.08884785194886223
-0.058931305020209115 -0.10042607325792291 -0.08366774242241565
-0.06788857948925947 -0.07760773010891789 -0.07848763289596905
-0.07684585395830981 -0.05478938695991288 -0.07330752336952247
-0.08580312842736017 -0.03197104381090786 -0.06812741384307587
-0.09476040289641051 -0.009152700661902845 -0.06294730431662929
-0.10371767736546085 0.013665642487102163 -0.0577671947901827
-0.1126749518345112 0.03648398563610719 -0.05258708526373611
-0.12163222630356156 0.05930232878511221 -0.04740697573728951
-0.13058950077261192 0.08212067193411723 -0.04222686621084293
-0.05994094248465683 -0.13198348058781803 -0.06758679580299294
-0.06889821695370717 -0.10916513743881301 -0.06240668627654636
-0.07785549142275752 -0.08634679428980799 -0.05722657675009976
-0.08681276589180786 -0.06352845114080298 -0.05204646722365318
-0.09577004036085822 -0.04071010799179796 -0.04686635769720658
-0.10472731482990856 -0.017891764842792937 -0.04168624817076
-0.1136845892989589 0.0049265783062120705 -0.03650613864431341
-0.12264186376800926 0.027744921455217095 -0.03132602911786682
-0.1315991382370596 0.05056326460422211 -0.026145919591420222
-0.14055641270610994 0.07338160775322713 -0.02096581006497364
-0.06990785441815488 -0.1407225447687081 -0.04632573965712367
-0.0788651288872052 -0.1179042016197031 -0.04114563013067709
-0.08782240335625556 -0.09508585847069807 -0.03596552060423049
-0.0967796778253059 -0.07226751532169307 -0.030785411077783906
-0.10573695229435626 -0.049449172172688044 -0.02560530155133731
-0.1146942267634066 -0.026630829023683026 -0.020425192024890727
-0.12365150123245694 -0.0038124858746780175 -0.015245082498444137
-0.1326087757015073 0.019005857274327007 -0.010064972971997547
-0.14156605017055765 0.04182420042333203 -0.004884863445550951
-0.150523324639608 0.06464254357233705 0.00029524608089563225
-0.07987476635165293 -0.1494616089495982 -0.02506468351125438
-0.08883204082070326 -0.12664326580059318 -0.019884573984807797
-0.09778931528975361 -0.10382492265158817 -0.014704464458361202
-0.10674658975880395 -0.08100657950258316 -0.009524354931914619
-0.11570386422785431 -0.058188236353578136 -0.004344245405468021
-0.12466113869690465 -0.03536989320457312 0.0008358641209785617
-0.133618413165955 -0.012551550055568112 0.006015973647425152
-0.14257568763500536 0.010266793093436912 0.01119608317387174
-0.1515329621040557 0.033085136242441936 0.01637619270031834
-0.16049023657310604 0.05590347939144696 0.021556302226764922
-0.08984167828515098 -0.1582006731304883 -0.003803627365385092
-0.09879895275420131 -0.13538232998148328 0.001376482161061491
-0.10775622722325166 -0.11256398683247826 0.006556591687508088
-0.116713501692302 -0.08974564368347325 0.01173670121395467
-0.12567077616135236 -0.06692730053446823 0.01691681074040127
-0.1346280506304027 -0.044108957385463214 0.022096920266847852
-0.14358532509945304 -0.021290614236458207 0.027277029793294442
-0.1525425995685034 0.001527728912546819 0.03245713931974103
-0.16149987403755375 0.02434607206155184 0.037637248846187625
-0.1704571485066041 0.047164415210556865 0.04281735837263421
-0.09980859021864902 -0.1669397373113784 0.017457428780484185
-0.10876586468769936 -0.14412139416237338 0.022637538306930768
-0.11772313915674971 -0.12130305101336834 0.027817647833377365
-0.12668041362580004 -0.09848470786436334 0.03299775735982395
-0.1356376880948504 -0.07566636471535831 0.03817786688627055
-0.14459496256390075 -0.0528480215663533 0.04335797641271713
-0.1535522370329511 -0.030029678417348295 0.04853808593916372
-0.16250951150200144 -0.0072113352683432705 0.05371819546561031
-0.1714667859710518 0.015607007880661751 0.05889830499205691
-0.18042406044010215 0.03842535102966677 0.06407841451850349
0.18042406044010215 -0.03842535102966677 -0.06407841451850349
0.1714667859710518 -0.015607007880661751 -0.05889830499205691
0.16250951150200144 0.0072113352683432705 -0.05371819546561031
0.1535522370329511 0.03002967841734828 -0.04853808593916373
0.14459496256390075 0.0528480215663533 -0.04335797641271713
0.1356376880948504 0.07566636471535831 -0.03817786688627055
0.12668041362580007 0.09848470786436332 -0.03299775735982395
0.11772313915674971 0.12130305101336834 -0.027817647833377365
0.10876586468769936 0.14412139416237338 -0.022637538306930768
0.09980859021864902 0.1669397373113784 -0.017457428780484185
0.1704571485066041 -0.047164415210556865 -0.04281735837263421
0.16149987403755375 -0.02434607206155184 -0.037637248846187625
0.1525425995685034 -0.001527728912546819 -0.03245713931974103
0.14358532509945307 0.021290614236458193 -0.02727702979329445
0.1346280506304027 0.044108957385463214 -0.022096920266847852
0.12567077616135236 0.06692730053446823 -0.01691681074040127
0.11671350169230202 0.08974564368347324 -0.01173670121395467
0.10775622722325166 0.11256398683247826 -0.006556591687508088
0.09879895275420131 0.13538232998148328 -0.001376482161061491
0.08984167828515098 0.1582006731304883 0.003803627365385092
0.16049023657310604 -0.05590347939144696 -0.021556302226764922
0.1515329621040557 -0.033085136242441936 -0.01637619270031834
0.14257568763500536 -0.010266793093436912 -0.01119608317387174
0.13361841316595502 0.012551550055568099 -0.006015973647425159
0.12466113869690465 0.03536989320457312 -0.0008358641209785617
0.11570386422785431 0.058188236353578136 0.004344245405468021
0.10674658975880397 0.08100657950258315 0.009524354931914619
0.09778931528975361 0.10382492265158817 0.014704464458361202
0.08883204082070326 0.12664326580059318 0.019884573984807797
0.07987476635165293 0.1494616089495982 0.02506468351125438
0.150523324639608 -0.06464254357233705 -0.000295246080895644
0.14156605017055765 -0.04182420042333202 0.004884863445550939
0.1326087757015073 -0.019005857274327003 0.010064972971997536
0.12365150123245697 0.0038124858746780084 0.01524508249844412
0.11469422676340661 0.02663082902368303 0.020425192024890716
0.10573695229435627 0.04944917217268805 0.0256053015513373
0.09677967782530593 0.07226751532169305 0.030785411077783896
0.08782240335625557 0.09508585847069807 0.03596552060423048
0.07886512888720522 0.1179042016197031 0.041145630130677076
0.06990785441815488 0.14072254476870813 0.04632573965712366
0.14055641270610994 -0.07338160775322713 0.02096581006497364
0.1315991382370596 -0.05056326460422211 0.026145919591420222
0.12264186376800926 -0.027744921455217095 0.03132602911786682
0.11368458929895892 -0.004926578306212084 0.0365061386443134
0.10472731482990856 0.017891764842792937 0.04168624817076
0.09577004036085822 0.04071010799179796 0.04686635769720658
0.08681276589180788 0.06352845114080297 0.05204646722365318
0.07785549142275752 0.08634679428980799 0.05722657675009976
0.06889821695370717 0.10916513743881301 0.06240668627654636
0.05994094248465683 0.13198348058781803 0.06758679580299294
0.13058950077261192 -0.08212067193411723 0.04222686621084293
0.12163222630356156 -0.05930232878511221 0.04740697573728951
0.1126749518345112 -0.03648398563610719 0.05258708526373611
0.10371767736546086 -0.013665642487102177 0.05776719479018269
0.09476040289641051 0.009152700661902845 0.06294730431662929
0.08580312842736017 0.03197104381090786 0.06812741384307587
0.07684585395830983 0.05478938695991287 0.07330752336952247
0.06788857948925947 0.07760773010891789 0.07848763289596905
0.058931305020209115 0.10042607325792291 0.08366774242241565
0.04997403055115878 0.12324441640692793 0.08884785194886223
0.12062258883911386 -0.09085973611500732 0.0634879223567122
0.11166531437006352 -0.0680413929660023 0.06866803188315879
0.10270803990101317 -0.04522304981699728 0.07384814140960538
0.09375076543196283 -0.022404706667992266 0.07902825093605197
0.08479349096291247 0.00041363648101275686 0.08420836046249856
0.07583621649386213 0.023231979630017774 0.08938846998894515
0.06687894202481179 0.04605032277902278 0.09456857951539174
0.057921667555761426 0.0688686659280278 0.09974868904183833
0.04896439308671107 0.09168700907703282 0.10492879856828492
0.040007118617660736 0.11450535222603785 0.1101089080947315
0.11065567690561581 -0.09959880029589742 0.08474897850258149
0.10169840243656547 -0.0767804571468924 0.08992908802902808
0.09274112796751512 -0.05396211399788737 0.09510919755547467
0.08378385349846477 -0.031143770848882358 0.10028930708192126
0.07482657902941442 -0.008325427699877338 0.10546941660836785
0.06586930456036408 0.01449291544912768 0.11064952613481444
0.05691203009131374 0.03731125859813269 0.11582963566126103
0.04795475562226338 0.06012960174713771 0.12100974518770762
0.038997481153213026 0.08294794489614273 0.1261898547141542
0.030040206684162688 0.10576628804514775 0.1313699642406008
0.10068876497211776 -0.1083378644767875 0.10601003464845078
0.09173149050306742 -0.08551952132778248 0.11119014417489737
0.08277421603401706 -0.06270117817877746 0.11637025370134396
0.07381694156496672 -0.039882835029772454 0.12155036322779054
0.06485966709591637 -0.017064491880767432 0.12673047275423713
0.055902392626866027 0.005753851268237587 0.13191058228068372
0.046945118157815685 0.028572194417242593 0.13709069180713032
0.03798784368876533 0.05139053756624762 0.1422708013335769
0.029030569219714975 0.07420888071525264 0.1474509108600235
0.02007329475066464 0.09702722386425766 0.15263102038647008
0.09072185303861971 -0.11707692865767759 0.12727109079432006
0.08176457856956937 -0.09425858550867257 0.13245120032076663
0.07280730410051901 -0.07144024235966755 0.13763130984721322
0.06385002963146867 -0.04862189921066254 0.14281141937365982
0.05489275516241832 -0.02580355606165752 0.14799152890010642
0.04593548069336798 -0.002985212912652503 0.153171638426553
0.03697820622431764 0.019833130236352504 0.15835174795299958
0.028020931755267285 0.042651473385357526 0.16353185747944618
0.01906365728621693 0.06546981653436255 0.16871196700589278
0.010106382817166594 0.08828815968336758 0.17389207653233935
-0.010106382817166594 -0.08828815968336758 -0.17389207653233935
0.011063666433641027 -0.08274784761073416 -0.16169055853080203
0.032233715684448674 -0.07720753553810074 -0.1494890405292647
0.05340376493525631 -0.07166722346546732 -0.1372875225277274
0.07457381418606394 -0.06612691139283389 -0.1250860045261901
0.09574386343687159 -0.06058659932020046 -0.11288448652465276
0.11691391268767923 -0.05504628724756704 -0.10068296852311545
0.13808396193848688 -0.04950597517493361 -0.08848145052157813
0.15925401118929453 -0.04396566310230019 -0.0762799325200408
0.18042406044010215 -0.03842535102966677 -0.06407841451850349
-0.02007329475066464 -0.09702722386425766 -0.15263102038647008
0.0010967545001429823 -0.09148691179162424 -0.14042950238493276
0.02226680375095063 -0.08594659971899082 -0.12822798438339544
0.043436853001758265 -0.0804062876463574 -0.11602646638185812
0.0646069022525659 -0.07486597557372397 -0.1038249483803208
0.08577695150337354 -0.06932566350109055 -0.09162343037878348
0.10694700075418118 -0.06378535142845713 -0.07942191237724618
0.12811705000498883 -0.0582450393558237 -0.06722039437570884
0.14928709925579647 -0.052704727283190284 -0.05501887637417152
0.1704571485066041 -0.047164415210556865 -0.04281735837263421
-0.030040206684162688 -0.10576628804514775 -0.1313699642406008
-0.008870157433355069 -0.10022597597251433 -0.11916844623906347
0.01229989181745258 -0.09468566389988091 -0.10696692823752615
0.03346994106826021 -0.08914535182724749 -0.09476541023598883
0.054639990319067855 -0.08360503975461406 -0.08256389223445151
0.07581003956987549 -0.07806472768198064 -0.0703623742329142
0.09698008882068312 -0.07252441560934722 -0.05816085623137688
0.11815013807149077 -0.06698410353671379 -0.04595933822983956
0.13932018732229842 -0.061443791464080376 -0.03375782022830223
0.16049023657310604 -0.05590347939144696 -0.021556302226764922
-0.040007118617660736 -0.11450535222603785 -0.11010890809473152
-0.018837069366853112 -0.10896504015340443 -0.0979073900931942
0.0023329798839545357 -0.10342472808077101 -0.08570587209165688
0.023503029134762172 -0.09788441600813759 -0.07350435409011956
0.04467307838556981 -0.09234410393550416 -0.06130283608858224
0.06584312763637745 -0.08680379186287074 -0.04910131808704492
0.08701317688718509 -0.08126347979023732 -0.036899800085507604
0.10818322613799274 -0.07572316771760389 -0.02469828208397028
0.12935327538880037 -0.07018285564497047 -0.012496764082432957
0.150523324639608 -0.06464254357233705 -0.000295246080895644
-0.04997403055115878 -0.12324441640692793 -0.08884785194886223
-0.02880398130035116 -0.11770410433429451 -0.07664633394732491
-0.007633932049543513 -0.1121637922616611 -0.06444481594578759
0.013536117201264122 -0.10662348018902768 -0.052243297944250276
0.03470616645207176 -0.10108316811639424 -0.040041779942712956
0.0558762157028794 -0.09554285604376082 -0.027840261941175636
0.07704626495368704 -0.0900025439711274 -0.015638743939638322
0.09821631420449468 -0.08446223189849397 -0.0034372259381009965
0.11938636345530233 -0.07892191982586055 0.008764292063436327
0.14055641270610994 -0.07338160775322713 0.02096581006497364
-0.05994094248465683 -0.13198348058781803 -0.06758679580299294
-0.03877089323384921 -0.1264431685151846 -0.05538527780145562
-0.017600843983041563 -0.1209028564425512 -0.0431837597999183
0.0035692052677660734 -0.11536254436991777 -0.030982241798380987
0.02473925451857371 -0.10982223229728434 -0.018780723796843667
0.04590930376938135 -0.10428192022465092 -0.006579205795306348
0.06707935302018898 -0.0987416081520175 0.0056223122062309654
0.08824940227099663 -0.09320129607938407 0.01782383020776829
0.10941945152180428 -0.08766098400675065 0.030025348209305615
0.13058950077261192 -0.08212067193411723 0.04222686621084293
-0.06990785441815488 -0.1407225447687081 -0.04632573965712367
-0.048737805167347256 -0.13518223269607468 -0.03412422165558635
-0.027567755916539604 -0.12964192062344126 -0.02192270365404903
-0.006397706665731969 -0.12410160855080786 -0.009721185652511715
0.01477234258507567 -0.11856129647817443 0.0024803323490256044
0.035942391835883304 -0.11302098440554101 0.014681850350562926
0.05711244108669094 -0.10748067233290759 0.02688336835210024
0.0782824903374986 -0.10194036026027416 0.03908488635363756
0.09945253958830624 -0.09640004818764074 0.05128640435517488
0.12062258883911386 -0.09085973611500732 0.0634879223567122
-0.07987476635165293 -0.1494616089495982 -0.02506468351125438
-0.0587047171008453 -0.14392129687696478 -0.012863165509717061
-0.03753466785003765 -0.13838098480433136 -0.0006616475081797402
-0.01636461859923002 -0.13284067273169795 0.011539870493357572
0.0048054306515776185 -0.12730036065906453 0.023741388494894895
0.025975479902385256 -0.12176004858643111 0.03594290649643221
0.047145529153192894 -0.11621973651379769 0.048144424497969525
0.06831557840400054 -0.11067942444116426 0.06034594249950685
0.08948562765480819 -0.10513911236853084 0.07254746050104417
0.11065567690561581 -0.09959880029589742 0.08474897850258149
-0.08984167828515098 -0.1582006731304883 -0.003803627365385092
-0.06867162903434336 -0.15266036105785488 0.008397890636152228
-0.047501579783535704 -0.14712004898522146 0.02059940863768955
-0.02633153053272807 -0.14157973691258804 0.03280092663922686
-0.005161481281920431 -0.13603942483995463 0.04500244464076418
0.016008567968887208 -0.1304991127673212 0.0572039626423015
0.03717861721969484 -0.12495880069468777 0.06940548064383882
0.05834866647050249 -0.11941848862205434 0.08160699864537614
0.07951871572131014 -0.11387817654942092 0.09380851664691346
0.10068876497211776 -0.1083378644767875 0.10601003464845078
-0.09980859021864902 -0.1669397373113784 0.017457428780484185
-0.0786385409678414 -0.16139942523874498 0.029658946782021505
-0.05746849171703375 -0.15585911316611156 0.04186046478355883
-0.036298442466226113 -0.15031880109347814 0.05406198278509614
-0.015128393215418477 -0.1447784890208447 0.06626350078663346
0.0060416560353891615 -0.13923817694821128 0.07846501878817078
0.027211705286196798 -0.13369786487557786 0.0906665367897081
0.04838175453700445 -0.12815755280294444 0.10286805479124542
0.06955180378781209 -0.12261724073031101 0.11506957279278274
0.09072185303861971 -0.11707692865767759 0.12727109079432006
-0.09072185303861971 0.11707692865767759 -0.12727109079432006
-0.06955180378781209 0.12261724073031101 -0.11506957279278274
-0.04838175453700445 0.12815755280294444 -0.10286805479124542
-0.027211705286196798 0.13369786487557786 -0.0906665367897081
-0.0060416560353891615 0.13923817694821128 -0.07846501878817078
0.015128393215418477 0.1447784890208447 -0.06626350078663346
0.03629844246622611 0.15031880109347812 -0.05406198278509615
0.05746849171703375 0.15585911316611156 -0.04186046478355883
0.0786385409678414 0.16139942523874498 -0.029658946782021505
0.09980859021864902 0.1669397373113784 -0.017457428780484185
-0.10068876497211776 0.1083378644767875 -0.10601003464845078
-0.07951871572131014 0.11387817654942092 -0.09380851664691346
-0.05834866647050249 0.11941848862205434 -0.08160699864537614
-0.03717861721969484 0.12495880069468776 -0.06940548064383882
-0.016008567968887208 0.1304991127673212 -0.0572039626423015
0.005161481281920431 0.13603942483995463 -0.04500244464076418
0.026331530532728062 0.14157973691258804 -0.03280092663922687
0.047501579783535704 0.14712004898522146 -0.02059940863768955
0.06867162903434336 0.15266036105785488 -0.008397890636152228
0.08984167828515098 0.1582006731304883 0.003803627365385092
-0.11065567690561581 0.09959880029589742 -0.08474897850258149
-0.08948562765480819 0.10513911236853084 -0.07254746050104417
-0.06831557840400054 0.11067942444116426 -0.06034594249950685
-0.047145529153192894 0.11621973651379768 -0.04814442449796953
-0.025975479902385256 0.12176004858643111 -0.03594290649643221
-0.0048054306515776185 0.12730036065906453 -0.023741388494894895
0.016364618599230014 0.13284067273169795 -0.01153987049335758
0.03753466785003765 0.13838098480433136 0.0006616475081797402
0.0587047171008453 0.14392129687696478 0.012863165509717061
0.07987476635165293 0.1494616089495982 0.02506468351125438
-0.12062258883911385 0.09085973611500732 -0.06348792235671222
-0.09945253958830623 0.09640004818764074 -0.0512864043551749
-0.07828249033749858 0.10194036026027416 -0.03908488635363758
-0.05711244108669094 0.10748067233290758 -0.026883368352100256
-0.035942391835883304 0.11302098440554101 -0.014681850350562936
-0.014772342585075664 0.11856129647817443 -0.002480332349025616
0.006397706665731968 0.12410160855080785 0.009721185652511698
0.02756775591653961 0.1296419206234413 0.021922703654049018
0.048737805167347256 0.1351822326960747 0.03412422165558634
0.06990785441815488 0.14072254476870813 0.04632573965712366
-0.13058950077261192 0.08212067193411723 -0.04222686621084293
-0.10941945152180428 0.08766098400675065 -0.030025348209305615
-0.08824940227099663 0.09320129607938407 -0.01782383020776829
-0.06707935302018898 0.09874160815201749 -0.005622312206230972
-0.04590930376938135 0.10428192022465092 0.006579205795306348
-0.02473925451857371 0.10982223229728434 0.018780723796843667
-0.0035692052677660803 0.11536254436991776 0.03098224179838098
0.017600843983041563 0.1209028564425512 0.0431837597999183
0.03877089323384921 0.1264431685151846 0.05538527780145562
0.05994094248465683 0.13198348058781803 0.06758679580299294
-0.14055641270610994 0.07338160775322713 -0.02096581006497364
-0.11938636345530233 0.07892191982586055 -0.008764292063436327
-0.09821631420449468 0.08446223189849397 0.0034372259381009965
-0.07704626495368704 0.09000254397112739 0.015638743939638315
-0.0558762157028794 0.09554285604376082 0.027840261941175636
-0.03470616645207176 0.10108316811639424 0.040041779942712956
-0.013536117201264129 0.10662348018902766 0.05224329794425027
0.007633932049543513 0.1121637922616611 0.06444481594578759
0.02880398130035116 0.11770410433429451 0.07664633394732491
0.04997403055115878 0.12324441640692793 0.08884785194886223
-0.150523324639608 0.06464254357233705 0.00029524608089563225
-0.12935327538880037 0.07018285564497047 0.012496764082432946
-0.10818322613799272 0.07572316771760389 0.02469828208397027
-0.08701317688718507 0.0812634797902373 0.036899800085507584
-0.06584312763637744 0.08680379186287074 0.049101318087044904
-0.0446730783855698 0.09234410393550416 0.061302836088582224
-0.023503029134762172 0.09788441600813758 0.07350435409011954
-0.0023329798839545304 0.10342472808077101 0.08570587209165687
0.01883706936685312 0.10896504015340443 0.09790739009319419
0.040007118617660736 0.11450535222603785 0.1101089080947315
-0.16049023657310604 0.05590347939144696 0.021556302226764922
-0.13932018732229842 0.061443791464080376 0.03375782022830223
-0.11815013807149077 0.06698410353671379 0.04595933822983956
-0.09698008882068312 0.0725244156093472 0.05816085623137687
-0.07581003956987549 0.07806472768198064 0.0703623742329142
-0.054639990319067855 0.08360503975461406 0.08256389223445151
-0.03346994106826022 0.08914535182724748 0.09476541023598883
-0.01229989181745258 0.09468566389988091 0.10696692823752615
0.008870157433355069 0.10022597597251433 0.11916844623906347
0.030040206684162688 0.10576628804514775 0.1313699642406008
-0.1704571485066041 0.047164415210556865 0.04281735837263421
-0.14928709925579647 0.052704727283190284 0.05501887637417152
-0.12811705000498883 0.0582450393558237 0.06722039437570884
-0.10694700075418118 0.06378535142845712 0.07942191237724616
-0.08577695150337354 0.06932566350109055 0.09162343037878348
-0.0646069022525659 0.07486597557372397 0.1038249483803208
-0.04343685300175827 0.08040628764635739 0.11602646638185812
-0.02226680375095063 0.08594659971899082 0.12822798438339544
-0.0010967545001429823 0.09148691179162424 0.14042950238493276
0.02007329475066464 0.09702722386425766 0.15263102038647008
-0.18042406044010215 0.03842535102966677 0.06407841451850349
-0.15925401118929453 0.04396566310230019 0.0762799325200408
-0.13808396193848688 0.04950597517493361 0.08848145052157813
-0.11691391268767923 0.05504628724756703 0.10068296852311544
-0.09574386343687159 0.06058659932020046 0.11288448652465276
-0.07457381418606394 0.06612691139283389 0.1250860045261901
-0.053403764935256316 0.0716672234654673 0.13728752252772738
-0.032233715684448674 0.07720753553810074 0.1494890405292647
-0.011063666433641027 0.08274784761073416 0.16169055853080203
0.010106382817166594 0.08828815968336758 0.17389207653233935
-0.010106382817166594 -0.08828815968336758 -0.17389207653233935
0.011063666433641027 -0.08274784761073416 -0.16169055853080203
0.032233715684448674 -0.07720753553810074 -0.1494890405292647
0.05340376493525631 -0.07166722346546732 -0.1372875225277274
0.07457381418606394 -0.06612691139283389 -0.1250860045261901
0.09574386343687159 -0.06058659932020046 -0.11288448652465276
0.11691391268767923 -0.05504628724756704 -0.10068296852311545
0.13808396193848688 -0.04950597517493361 -0.08848145052157813
0.15925401118929453 -0.04396566310230019 -0.0762799325200408
0.18042406044010215 -0.03842535102966677 -0.06407841451850349
-0.01906365728621693 -0.06546981653436255 -0.16871196700589278
0.0021063919645906855 -0.05992950446172913 -0.15651044900435546
0.023276441215398333 -0.05438919238909571 -0.14430893100281814
0.04444649046620597 -0.04884888031646229 -0.13210741300128082
0.0656165397170136 -0.04330856824382886 -0.1199058949997435
0.08678658896782125 -0.03776825617119544 -0.10770437699820617
0.10795663821862889 -0.03222794409856202 -0.09550285899666887
0.12912668746943654 -0.02668763202592859 -0.08330134099513153
0.15029673672024418 -0.02114731995329517 -0.07109982299359421
0.1714667859710518 -0.015607007880661751 -0.05889830499205691
-0.028020931755267285 -0.042651473385357526 -0.16353185747944618
-0.006850882504459662 -0.03711116131272411 -0.15133033947790886
0.014319166746347983 -0.03157084924009069 -0.13912882147637154
0.03548921599715562 -0.02603053716745727 -0.12692730347483422
0.056659265247963254 -0.020490225094823837 -0.11472578547329691
0.0778293144987709 -0.014949913022190418 -0.10252426747175958
0.09899936374957853 -0.009409600949557 -0.09032274947022227
0.12016941300038618 -0.003869288876923574 -0.07812123146868495
0.14133946225119381 0.0016710231957098515 -0.06591971346714762
0.16250951150200144 0.0072113352683432705 -0.05371819546561031
-0.03697820622431763 -0.01983313023635252 -0.15835174795299958
-0.015808156973510012 -0.0142928181637191 -0.14615022995146226
0.005361892277297638 -0.008752506091085674 -0.13394871194992494
0.02653194152810527 -0.003212194018452255 -0.12174719394838764
0.04770199077891291 0.0023281180541811705 -0.10954567594685032
0.06887204002972055 0.00786843012681459 -0.097344157945313
0.09004208928052819 0.013408742199448011 -0.08514263994377569
0.11121213853133584 0.018949054272081434 -0.07294112194223835
0.13238218778214347 0.02448936634471486 -0.060739603940701034
0.1535522370329511 0.03002967841734828 -0.04853808593916373
-0.04593548069336798 0.002985212912652503 -0.153171638426553
-0.02476543144256036 0.008525524985285922 -0.1409701204250157
-0.0035953821917527108 0.014065837057919348 -0.12876860242347837
0.017574667059054926 0.019606149130552766 -0.11656708442194105
0.038744716309862565 0.02514646120318619 -0.10436556642040373
0.059914765560670206 0.03068677327581961 -0.0921640484188664
0.08108481481147783 0.03622708534845303 -0.07996253041732909
0.10225486406228548 0.041767397421086455 -0.06776101241579177
0.12342491331309313 0.04730770949371988 -0.05555949441425445
0.14459496256390075 0.0528480215663533 -0.04335797641271713
-0.05489275516241832 0.02580355606165752 -0.14799152890010642
-0.0337227059116107 0.03134386813429094 -0.1357900108985691
-0.012552656660803052 0.03688418020692437 -0.12358849289703178
0.008617392590004583 0.04242449227955779 -0.11138697489549446
0.029787441840812216 0.04796480435219121 -0.09918545689395714
0.05095749109161986 0.05350511642482463 -0.08698393889241982
0.07212754034242749 0.05904542849745805 -0.07478242089088251
0.09329758959323514 0.06458574057009148 -0.06258090288934517
0.11446763884404279 0.0701260526427249 -0.050379384887807854
0.1356376880948504 0.07566636471535831 -0.03817786688627055
-0.06385002963146866 0.048621899210662525 -0.14281141937365982
-0.042679980380661044 0.05416221128329595 -0.1306099013721225
-0.021509931129853395 0.05970252335592938 -0.1184083833705852
-0.0003398818790457586 0.0652428354285628 -0.10620686536904787
0.020830167371761875 0.07078314750119621 -0.09400534736751055
0.04200021662256952 0.07632345957382963 -0.08180382936597323
0.06317026587337715 0.08186377164646305 -0.06960231136443591
0.0843403151241848 0.08740408371909648 -0.05740079336289859
0.10551036437499245 0.0929443957917299 -0.04519927536136127
0.12668041362580007 0.09848470786436332 -0.03299775735982395
-0.07280730410051901 0.07144024235966755 -0.13763130984721322
-0.0516372548497114 0.07698055443230097 -0.12542979184567593
-0.03046720559890375 0.0825208665049344 -0.1132282738441386
-0.009297156348096114 0.08806117857756782 -0.10102675584260128
0.011872892902711528 0.09360149065020124 -0.08882523784106396
0.03304294215351917 0.09914180272283465 -0.07662371983952664
0.0542129914043268 0.10468211479546807 -0.06442220183798933
0.07538304065513445 0.1102224268681015 -0.052220683836452
0.0965530899059421 0.11576273894073492 -0.04001916583491468
0.11772313915674971 0.12130305101336834 -0.027817647833377365
-0.08176457856956937 0.09425858550867257 -0.13245120032076663
-0.060594529318761754 0.09979889758130599 -0.12024968231922933
-0.039424480067954105 0.1053392096539394 -0.108048164317692
-0.018254430817146457 0.11087952172657282 -0.0958466463161547
0.0029156184336611795 0.11641983379920626 -0.08364512831461737
0.024085667684468817 0.12196014587183968 -0.07144361031308005
0.04525571693527645 0.1275004579444731 -0.05924209231154273
0.06642576618608409 0.13304077001710654 -0.04704057431000541
0.08759581543689174 0.13858108208973996 -0.03483905630846809
0.10876586468769936 0.14412139416237338 -0.022637538306930768
-0.09072185303861971 0.11707692865767759 -0.12727109079432006
-0.06955180378781209 0.12261724073031101 -0.11506957279278274
-0.04838175453700445 0.12815755280294444 -0.10286805479124542
-0.027211705286196798 0.13369786487557786 -0.0906665367897081
-0.0060416560353891615 0.13923817694821128 -0.07846501878817078
0.015128393215418477 0.1447784890208447 -0.06626350078663346
0.03629844246622611 0.15031880109347812 -0.05406198278509615
0.05746849171703375 0.15585911316611156 -0.04186046478355883
0.0786385409678414 0.16139942523874498 -0.029658946782021505
0.09980859021864902 0.1669397373113784 -0.017457428780484185
-0.09980859021864902 -0.1669397373113784 0.017457428780484185
-0.0786385409678414 -0.16139942523874498 0.029658946782021505
-0.05746849171703375 -0.15585911316611156 0.04186046478355883
-0.036298442466226113 -0.15031880109347814 0.05406198278509614
-0.015128393215418477 -0.1447784890208447 0.06626350078663346
0.0060416560353891615 -0.13923817694821128 0.07846501878817078
0.027211705286196798 -0.13369786487557786 0.0906665367897081
0.04838175453700445 -0.12815755280294444 0.10286805479124542
0.06955180378781209 -0.12261724073031101 0.11506957279278274
0.09072185303861971 -0.11707692865767759 0.12727109079432006
-0.10876586468769936 -0.14412139416237338 0.022637538306930768
-0.08759581543689174 -0.13858108208973996 0.03483905630846809
-0.06642576618608409 -0.13304077001710654 0.04704057431000541
-0.045255716935276455 -0.12750045794447312 0.05924209231154273
-0.024085667684468817 -0.12196014587183968 0.07144361031308005
-0.0029156184336611795 -0.11641983379920626 0.08364512831461737
0.018254430817146457 -0.11087952172657284 0.09584664631615468
0.039424480067954105 -0.1053392096539394 0.108048164317692
0.060594529318761754 -0.09979889758130599 0.12024968231922933
0.08176457856956937 -0.09425858550867257 0.13245120032076663
-0.11772313915674971 -0.12130305101336834 0.027817647833377365
-0.0965530899059421 -0.11576273894073492 0.04001916583491468
-0.07538304065513445 -0.1102224268681015 0.052220683836452
-0.05421299140432681 -0.10468211479546809 0.06442220183798932
-0.03304294215351917 -0.09914180272283465 0.07662371983952664
-0.011872892902711528 -0.09360149065020124 0.08882523784106396
0.0092971563480961 -0.08806117857756782 0.10102675584260128
0.03046720559890375 -0.0825208665049344 0.1132282738441386
0.0516372548497114 -0.07698055443230097 0.12542979184567593
0.07280730410051901 -0.07144024235966755 0.13763130984721322
-0.12668041362580004 -0.09848470786436334 0.03299775735982395
-0.10551036437499244 -0.09294439579172992 0.04519927536136127
-0.08434031512418479 -0.0874040837190965 0.05740079336289859
-0.06317026587337715 -0.08186377164646308 0.06960231136443591
-0.04200021662256951 -0.07632345957382965 0.08180382936597323
-0.020830167371761868 -0.07078314750119623 0.09400534736751055
0.0003398818790457586 -0.06524283542856281 0.10620686536904786
0.02150993112985341 -0.05970252335592939 0.11840838337058518
0.04267998038066106 -0.054162211283295965 0.1306099013721225
0.06385002963146867 -0.04862189921066254 0.14281141937365982
-0.1356376880948504 -0.07566636471535831 0.03817786688627055
-0.11446763884404279 -0.0701260526427249 0.050379384887807854
-0.09329758959323514 -0.06458574057009148 0.06258090288934517
-0.07212754034242749 -0.05904542849745806 0.0747824208908825
-0.05095749109161986 -0.05350511642482463 0.08698393889241982
-0.029787441840812216 -0.04796480435219121 0.09918545689395714
-0.00861739259000459 -0.04242449227955779 0.11138697489549446
0.012552656660803052 -0.03688418020692437 0.12358849289703178
0.0337227059116107 -0.03134386813429094 0.1357900108985691
0.05489275516241832 -0.02580355606165752 0.14799152890010642
-0.14459496256390075 -0.0528480215663533 0.04335797641271713
-0.12342491331309313 -0.04730770949371988 0.05555949441425445
-0.10225486406228548 -0.041767397421086455 0.06776101241579177
-0.08108481481147785 -0.036227085348453036 0.07996253041732909
-0.059914765560670206 -0.03068677327581961 0.0921640484188664
-0.038744716309862565 -0.02514646120318619 0.10436556642040373
-0.017574667059054933 -0.01960614913055277 0.11656708442194104
0.0035953821917527108 -0.014065837057919348 0.12876860242347837
0.02476543144256036 -0.008525524985285922 0.1409701204250157
0.04593548069336798 -0.002985212912652503 0.153171638426553
-0.1535522370329511 -0.030029678417348295 0.04853808593916372
-0.13238218778214347 -0.024489366344714873 0.060739603940701034
-0.11121213853133582 -0.018949054272081448 0.07294112194223835
-0.09004208928052819 -0.013408742199448029 0.08514263994377567
-0.06887204002972055 -0.007868430126814603 0.097344157945313
-0.047701990778912906 -0.0023281180541811844 0.10954567594685032
-0.026531941528105275 0.0032121940184522343 0.12174719394838762
-0.005361892277297631 0.00875250609108566 0.13394871194992494
0.01580815697351002 0.014292818163719086 0.14615022995146226
0.03697820622431764 0.019833130236352504 0.15835174795299958
-0.16250951150200144 -0.0072113352683432705 0.05371819546561031
-0.14133946225119381 -0.0016710231957098515 0.06591971346714762
-0.12016941300038618 0.003869288876923574 0.07812123146868495
-0.09899936374957855 0.009409600949556993 0.09032274947022226
-0.0778293144987709 0.014949913022190418 0.10252426747175958
-0.056659265247963254 0.020490225094823837 0.11472578547329691
-0.035489215997155626 0.026030537167457256 0.12692730347483422
-0.014319166746347983 0.03157084924009069 0.13912882147637154
0.006850882504459662 0.03711116131272411 0.15133033947790886
0.028020931755267285 0.042651473385357526 0.16353185747944618
-0.1714667859710518 0.015607007880661751 0.05889830499205691
-0.15029673672024418 0.02114731995329517 0.07109982299359421
-0.12912668746943654 0.02668763202592859 0.08330134099513153
-0.10795663821862889 0.03222794409856201 0.09550285899666885
-0.08678658896782125 0.03776825617119544 0.10770437699820617
-0.0656165397170136 0.04330856824382886 0.1199058949997435
-0.044446490466205975 0.04884888031646228 0.13210741300128082
-0.023276441215398333 0.05438919238909571 0.14430893100281814
-0.0021063919645906855 0.05992950446172913 0.15651044900435546
0.01906365728621693 0.06546981653436255 0.16871196700589278
-0.18042406044010215 0.03842535102966677 0.06407841451850349
-0.15925401118929453 0.04396566310230019 0.0762799325200408
-0.13808396193848688 0.04950597517493361 0.08848145052157813
-0.11691391268767923 0.05504628724756703 0.10068296852311544
-0.09574386343687159 0.06058659932020046 0.11288448652465276
-0.07457381418606394 0.06612691139283389 0.1250860045261901
-0.053403764935256316 0.0716672234654673 0.13728752252772738
-0.032233715684448674 0.07720753553810074 0.1494890405292647
-0.011063666433641027 0.08274784761073416 0.16169055853080203
0.010106382817166594 0.08828815968336758 0.17389207653233935
