# .PCD v0.7 - Point Cloud Data file format
VERSION 0.7
FIELDS x y z
SIZE 4 4 4
TYPE F F F
COUNT 1 1 1
WIDTH 600
HEIGHT 1
VIEWPOINT 0 0 0 1 0 0 0
POINTS 600
DATA ascii
-0.09941211040547594 -0.015671316884478488 -0.1290038516120012
-0.0882841048809823 0.0014937229489176906 -0.12429289370358244
-0.07715609935648866 0.01865876278231387 -0.11958193579516369
-0.06602809383199502 0.035823802615710054 -0.11487097788674491
-0.05490008830750138 0.05298884244910624 -0.11016001997832615
-0.04377208278300774 0.07015388228250242 -0.10544906206990738
-0.0326440772585141 0.0873189221158986 -0.10073810416148862
-0.02151607173402046 0.1044839619492948 -0.09602714625306985
-0.010388066209526814 0.12164900178269097 -0.09131618834465109
0.0007399393149668254 0.13881404161608715 -0.08660523043623232
-0.10526018925756092 -0.017393014613249606 -0.10891654331744188
-0.09413218373306728 -0.00022797477985342864 -0.10420558540902311
-0.08300417820857364 0.01693706505354275 -0.09949462750060435
-0.07187617268408 0.03410210488693893 -0.09478366959218558
-0.06074816715958637 0.05126714472033512 -0.09007271168376682
-0.04962016163509273 0.0684321845537313 -0.08536175377534805
-0.03849215611059909 0.08559722438712748 -0.08065079586692929
-0.02736415058610545 0.10276226422052367 -0.07593983795851052
-0.016236145061611803 0.11992730405391985 -0.07122888005009176
-0.0051081395371181644 0.13709234388731603 -0.06651792214167299
-0.11110826810964591 -0.019114712342020727 -0.08882923502288254
-0.09998026258515227 -0.0019496725086245485 -0.08411827711446376
-0.08885225706065863 0.01521536732477163 -0.079407319206045
-0.077724251536165 0.03238040715816781 -0.07469636129762623
-0.06659624601167136 0.049545446991564 -0.06998540338920747
-0.05546824048717772 0.06671048682496018 -0.0652744454807887
-0.04434023496268408 0.08387552665835636 -0.06056348757236994
-0.03321222943819044 0.10104056649175255 -0.05585252966395118
-0.022084223913696795 0.11820560632514873 -0.05114157175553241
-0.010956218389203156 0.1353706461585449 -0.046430613847113646
-0.1169563469617309 -0.020836410070791844 -0.0687419267283232
-0.10582834143723727 -0.0036713702373956675 -0.06403096881990443
-0.09470033591274363 0.013493669596000511 -0.059320010911485664
-0.08357233038824999 0.030658709429396695 -0.0546090530030669
-0.07244432486375635 0.04782374926279288 -0.04989809509464813
-0.06131631933926271 0.06498878909618906 -0.04518713718622937
-0.05018831381476907 0.08215382892958524 -0.04047617927781061
-0.03906030829027543 0.09931886876298143 -0.03576522136939184
-0.027932302765781784 0.11648390859637761 -0.031054263460973074
-0.016804297241288145 0.1336489484297738 -0.02634330555255431
-0.1228044258138159 -0.022558107799562965 -0.048654618433763855
-0.11167642028932226 -0.005393067966166788 -0.04394366052534509
-0.10054841476482862 0.011771971867229392 -0.039232702616926324
-0.08942040924033498 0.028937011700625574 -0.03452174470850756
-0.07829240371584134 0.04610205153402176 -0.02981078680008879
-0.0671643981913477 0.06326709136741794 -0.025099828891670024
-0.05603639266685406 0.08043213120081412 -0.02038887098325126
-0.04490838714236042 0.09759717103421031 -0.015677913074832496
-0.03378038161786678 0.11476221086760649 -0.010966955166413729
-0.022652376093373137 0.13192725070100267 -0.006255997257994962
-0.1286525046659009 -0.024279805528334086 -0.02856731013920451
-0.11752449914140725 -0.007114765694937907 -0.023856352230785745
-0.10639649361691361 0.01005027413845827 -0.01914539432236698
-0.09526848809241997 0.027215313971854452 -0.014434436413948213
-0.08414048256792633 0.04438035380525064 -0.009723478505529447
-0.0730124770434327 0.06154539363864682 -0.005012520597110682
-0.061884471518939055 0.078710433472043 -0.0003015626886919184
-0.050756465994445416 0.09587547330543919 0.004409395219726847
-0.03962846046995177 0.11304051313883537 0.009120353128145615
-0.02850045494545813 0.13020555297223155 0.01383131103656438
-0.13450058351798588 -0.026001503257105204 -0.008480001844645178
-0.12337257799349224 -0.008836463423709025 -0.003769043936226412
-0.1122445724689986 0.008328576409687153 0.0009419139721923537
-0.10111656694450497 0.025493616243083335 0.005652871880611119
-0.08998856142001133 0.04265865607647952 0.010363829789029885
-0.07886055589551769 0.0598236959098757 0.01507478769744865
-0.06773255037102405 0.07698873574327188 0.019785745605867416
-0.0566045448465304 0.09415377557666807 0.02449670351428618
-0.045476539322036755 0.11131881541006425 0.029207661422704947
-0.034348533797543115 0.12848385524346043 0.033918619331123716
-0.14034866237007088 -0.027723200985876325 0.011607306449914164
-0.12922065684557724 -0.010558161152480146 0.016318264358332932
-0.1180926513210836 0.006606878680916033 0.021029222266751697
-0.10696464579658996 0.023771918514312214 0.025740180175170463
-0.09583664027209632 0.040936958347708406 0.03045113808358923
-0.08470863474760268 0.058101998181104585 0.035162095992007994
-0.07358062922310904 0.07526703801450076 0.03987305390042676
-0.062452623698615393 0.09243207784789695 0.044584011808845525
-0.05132461817412175 0.10959711768129313 0.04929496971726429
-0.04019661264962811 0.1267621575146893 0.054005927625683056
-0.14619674122215587 -0.029444898714647446 0.031694614744473514
-0.13506873569766223 -0.012279858881251266 0.03640557265289228
-0.12394073017316859 0.004885180952144913 0.041116530561311045
-0.11281272464867495 0.022050220785541093 0.04582748846972981
-0.10168471912418131 0.039215260618937285 0.050538446378148576
-0.09055671359968767 0.056380300452333464 0.05524940428656734
-0.07942870807519403 0.07354534028572964 0.05996036219498611
-0.06830070255070039 0.09071038011912583 0.06467132010340487
-0.05717269702620674 0.107875419952522 0.06938227801182364
-0.0460446915017131 0.12504045978591818 0.0740932359202424
-0.15204482007424086 -0.031166596443418564 0.05178192303903285
-0.14091681454974722 -0.014001556610022385 0.05649288094745161
-0.12978880902525358 0.0031634832233737933 0.06120383885587038
-0.11866080350075993 0.020328523056769975 0.06591479676428914
-0.10753279797626629 0.037493562890166164 0.07062575467270792
-0.09640479245177265 0.05465860272356234 0.07533671258112667
-0.08527678692727901 0.07182364255695851 0.08004767048954545
-0.07414878140278537 0.0889886823903547 0.0847586283979642
-0.06302077587829173 0.10615372222375088 0.08946958630638298
-0.05189277035379809 0.12331876205714706 0.09418054421480174
0.05189277035379809 -0.12331876205714706 -0.09418054421480174
0.06302077587829173 -0.10615372222375088 -0.08946958630638298
0.07414878140278537 -0.0889886823903547 -0.0847586283979642
0.08527678692727901 -0.07182364255695853 -0.08004767048954545
0.09640479245177265 -0.05465860272356234 -0.07533671258112667
0.10753279797626629 -0.037493562890166164 -0.07062575467270792
0.11866080350075993 -0.020328523056769986 -0.06591479676428914
0.12978880902525358 -0.0031634832233738003 -0.06120383885587038
0.14091681454974722 0.014001556610022385 -0.05649288094745161
0.15204482007424086 0.031166596443418564 -0.05178192303903285
0.0460446915017131 -0.12504045978591818 -0.0740932359202424
0.05717269702620674 -0.107875419952522 -0.06938227801182364
0.06830070255070039 -0.09071038011912583 -0.06467132010340487
0.07942870807519402 -0.07354534028572965 -0.05996036219498611
0.09055671359968767 -0.056380300452333464 -0.05524940428656734
0.10168471912418131 -0.039215260618937285 -0.050538446378148576
0.11281272464867495 -0.022050220785541103 -0.04582748846972981
0.12394073017316859 -0.00488518095214492 -0.041116530561311045
0.13506873569766223 0.012279858881251266 -0.03640557265289228
0.14619674122215587 0.029444898714647446 -0.031694614744473514
0.040196612649628115 -0.1267621575146893 -0.05400592762568306
0.051324618174121754 -0.10959711768129313 -0.0492949697172643
0.0624526236986154 -0.09243207784789695 -0.04458401180884553
0.07358062922310903 -0.07526703801450077 -0.039873053900426766
0.08470863474760268 -0.058101998181104585 -0.035162095992008
0.09583664027209632 -0.040936958347708406 -0.030451138083589235
0.10696464579658996 -0.023771918514312224 -0.02574018017517047
0.1180926513210836 -0.006606878680916039 -0.021029222266751704
0.12922065684557724 0.010558161152480146 -0.01631826435833294
0.14034866237007088 0.027723200985876325 -0.011607306449914171
0.03434853379754312 -0.12848385524346043 -0.03391861933112372
0.04547653932203676 -0.11131881541006425 -0.02920766142270496
0.05660454484653041 -0.09415377557666807 -0.024496703514286195
0.06773255037102403 -0.07698873574327189 -0.01978574560586743
0.07886055589551769 -0.0598236959098757 -0.015074787697448664
0.08998856142001133 -0.04265865607647952 -0.010363829789029898
0.10111656694450497 -0.025493616243083342 -0.005652871880611133
0.1122445724689986 -0.008328576409687158 -0.0009419139721923669
0.12337257799349224 0.008836463423709027 0.0037690439362263986
0.13450058351798588 0.026001503257105207 0.008480001844645164
0.02850045494545813 -0.13020555297223155 -0.01383131103656438
0.03962846046995177 -0.11304051313883537 -0.009120353128145615
0.050756465994445416 -0.09587547330543919 -0.004409395219726849
0.06188447151893905 -0.07871043347204301 0.00030156268869191666
0.0730124770434327 -0.06154539363864682 0.005012520597110682
0.08414048256792633 -0.04438035380525064 0.009723478505529447
0.09526848809241997 -0.027215313971854463 0.014434436413948213
0.10639649361691361 -0.010050274138458277 0.01914539432236698
0.11752449914140725 0.007114765694937907 0.023856352230785745
0.1286525046659009 0.024279805528334086 0.02856731013920451
0.022652376093373137 -0.13192725070100267 0.006255997257994962
0.03378038161786678 -0.11476221086760649 0.010966955166413729
0.04490838714236042 -0.09759717103421031 0.015677913074832493
0.056036392666854055 -0.08043213120081413 0.020388870983251258
0.0671643981913477 -0.06326709136741794 0.025099828891670024
0.07829240371584134 -0.04610205153402176 0.02981078680008879
0.08942040924033498 -0.028937011700625584 0.03452174470850756
0.10054841476482862 -0.011771971867229399 0.039232702616926324
0.11167642028932226 0.005393067966166788 0.04394366052534509
0.1228044258138159 0.022558107799562965 0.048654618433763855
0.01680429724128815 -0.1336489484297738 0.026343305552554295
0.027932302765781788 -0.11648390859637761 0.03105426346097306
0.03906030829027544 -0.09931886876298143 0.03576522136939183
0.05018831381476907 -0.08215382892958525 0.040476179277810595
0.061316319339262716 -0.06498878909618906 0.04518713718622936
0.07244432486375635 -0.04782374926279288 0.049898095094648126
0.08357233038824999 -0.0306587094293967 0.05460905300306689
0.09470033591274363 -0.013493669596000516 0.05932001091148566
0.10582834143723727 0.003671370237395669 0.06403096881990442
0.1169563469617309 0.020836410070791848 0.06874192672832319
0.010956218389203158 -0.1353706461585449 0.04643061384711364
0.022084223913696795 -0.11820560632514873 0.051141571755532404
0.033212229438190445 -0.10104056649175255 0.05585252966395117
0.04434023496268408 -0.08387552665835638 0.060563487572369935
0.055468240487177724 -0.06671048682496018 0.0652744454807887
0.06659624601167136 -0.049545446991564 0.06998540338920746
0.077724251536165 -0.03238040715816782 0.07469636129762623
0.08885225706065863 -0.015215367324771637 0.07940731920604499
0.09998026258515227 0.001949672508624549 0.08411827711446376
0.11110826810964591 0.019114712342020727 0.08882923502288252
0.0051081395371181644 -0.13709234388731603 0.06651792214167299
0.016236145061611803 -0.11992730405391985 0.07122888005009176
0.02736415058610545 -0.10276226422052367 0.07593983795851052
0.038492156110599085 -0.0855972243871275 0.08065079586692929
0.04962016163509273 -0.0684321845537313 0.08536175377534805
0.06074816715958637 -0.05126714472033512 0.09007271168376682
0.07187617268408 -0.03410210488693894 0.09478366959218558
0.08300417820857364 -0.016937065053542758 0.09949462750060435
0.09413218373306728 0.00022797477985342864 0.10420558540902311
0.10526018925756092 0.017393014613249606 0.10891654331744188
-0.0007399393149668254 -0.13881404161608715 0.08660523043623232
0.010388066209526814 -0.12164900178269097 0.09131618834465109
0.02151607173402046 -0.1044839619492948 0.09602714625306985
0.03264407725851409 -0.08731892211589862 0.10073810416148862
0.04377208278300774 -0.07015388228250242 0.10544906206990738
0.05490008830750138 -0.05298884244910624 0.11016001997832615
0.06602809383199502 -0.03582380261571006 0.11487097788674491
0.07715609935648866 -0.018658762782313876 0.11958193579516369
0.0882841048809823 -0.0014937229489176906 0.12429289370358244
0.09941211040547594 0.015671316884478488 0.1290038516120012
-0.09941211040547594 -0.015671316884478488 -0.1290038516120012
-0.08260045698777883 -0.027632144125886104 -0.1251345952345346
-0.06578880357008172 -0.03959297136729373 -0.121265338857068
-0.04897715015238461 -0.051553798608701344 -0.11739608247960139
-0.032165496734687486 -0.06351462585010896 -0.11352682610213478
-0.015353843316990363 -0.07547545309151658 -0.10965756972466817
0.0014578101007067454 -0.0874362803329242 -0.10578831334720157
0.01826946351840386 -0.09939710757433182 -0.10191905696973495
0.035081116936100984 -0.11135793481573944 -0.09804980059226835
0.05189277035379809 -0.12331876205714706 -0.09418054421480174
-0.10526018925756092 -0.017393014613249606 -0.10891654331744188
-0.08844853583986381 -0.029353841854657222 -0.10504728693997527
-0.0716368824221667 -0.04131466909606485 -0.10117803056250867
-0.0548252290044696 -0.053275496337472465 -0.09730877418504205
-0.03801357558677248 -0.06523632357888008 -0.09343951780757545
-0.021201922169075352 -0.0771971508202877 -0.08957026143010884
-0.0043902687513782445 -0.08915797806169531 -0.08570100505264223
0.012421384666318872 -0.10111880530310294 -0.08183174867517562
0.029233038084015995 -0.11307963254451056 -0.077962492297709
0.0460446915017131 -0.12504045978591818 -0.0740932359202424
-0.11110826810964591 -0.019114712342020727 -0.08882923502288254
-0.0942966146919488 -0.031075539583428343 -0.08495997864541592
-0.0774849612742517 -0.04303636682483597 -0.08109072226794932
-0.06067330785655459 -0.054997194066243586 -0.0772214658904827
-0.043861654438857464 -0.0669580213076512 -0.0733522095130161
-0.027050001021160345 -0.07891884854905883 -0.06948295313554949
-0.010238347603463236 -0.09087967579046644 -0.06561369675808289
0.00657330581423388 -0.10284050303187406 -0.06174444038061628
0.023384959231931002 -0.11480133027328168 -0.05787518400314967
0.040196612649628115 -0.1267621575146893 -0.05400592762568306
-0.1169563469617309 -0.020836410070791844 -0.0687419267283232
-0.1001446935440338 -0.03279723731219946 -0.06487267035085659
-0.08333304012633669 -0.044758064553607084 -0.06100341397338998
-0.06652138670863958 -0.0567188917950147 -0.05713415759592337
-0.04970973329094246 -0.06867971903642232 -0.05326490121845676
-0.032898079873245334 -0.08064054627782995 -0.049395644840990155
-0.016086426455548225 -0.09260137351923756 -0.04552638846352355
0.0007252269621488903 -0.10456220076064518 -0.04165713208605694
0.017536880379846014 -0.1165230280020528 -0.03778787570859033
0.03434853379754312 -0.12848385524346043 -0.03391861933112372
-0.1228044258138159 -0.022558107799562965 -0.048654618433763855
-0.10599277239611879 -0.03451893504097058 -0.04478536205629725
-0.08918111897842168 -0.046479762282378205 -0.04091610567883064
-0.07236946556072457 -0.05844058952378582 -0.03704684930136403
-0.05555781214302745 -0.07040141676519344 -0.03317759292389742
-0.038746158725330326 -0.08236224400660107 -0.02930833654643081
-0.021934505307633217 -0.09432307124800868 -0.025439080168964203
-0.0051228518899361026 -0.1062838984894163 -0.021569823791497595
0.011688801527761021 -0.11824472573082392 -0.017700567414030987
0.02850045494545813 -0.13020555297223155 -0.01383131103656438
-0.1286525046659009 -0.024279805528334086 -0.02856731013920451
-0.11184085124820378 -0.0362406327697417 -0.024698053761737903
-0.09502919783050667 -0.048201460011149326 -0.020828797384271295
-0.07821754441280956 -0.06016228725255694 -0.016959541006804687
-0.06140589099511244 -0.07212311449396457 -0.013090284629338077
-0.04459423757741532 -0.08408394173537219 -0.009221028251871469
-0.02778258415971821 -0.0960447689767798 -0.005351771874404862
-0.010970930742021094 -0.10800559621818742 -0.0014825154969382536
0.0058407226756760295 -0.11996642345959505 0.002386740880528356
0.022652376093373137 -0.13192725070100267 0.006255997257994962
-0.13450058351798588 -0.026001503257105204 -0.008480001844645178
-0.11768893010028877 -0.037962330498512824 -0.0046107454671785696
-0.10087727668259167 -0.04992315773992045 -0.0007414890897119613
-0.08406562326489456 -0.06188398498132806 0.0031277672877546465
-0.06725396984719743 -0.07384481222273569 0.006997023665221255
-0.050442316429500304 -0.08580563946414331 0.010866280042687863
-0.033630663011803195 -0.09776646670555092 0.01473553642015447
-0.016819009594106083 -0.10972729394695854 0.01860479279762108
-7.356176408959601e-06 -0.12168812118836617 0.02247404917508769
0.01680429724128815 -0.1336489484297738 0.026343305552554295
-0.14034866237007088 -0.027723200985876325 0.011607306449914164
-0.12353700895237377 -0.03968402822728394 0.015476562827380773
-0.10672535553467666 -0.05164485546869156 0.019345819204847382
-0.08991370211697955 -0.06360568271009918 0.02321507558231399
-0.07310204869928243 -0.07556650995150681 0.0270843319597806
-0.0562903952815853 -0.08752733719291443 0.030953588337247206
-0.03947874186388819 -0.09948816443432204 0.034822844714713815
-0.022667088446191076 -0.11144899167572966 0.03869210109218042
-0.005855435028493951 -0.12340981891713729 0.04256135746964703
0.010956218389203158 -0.1353706461585449 0.04643061384711364
-0.14619674122215587 -0.029444898714647446 0.031694614744473514
-0.12938508780445876 -0.04140572595605506 0.03556387112194012
-0.11257343438676165 -0.05336655319746268 0.03943312749940673
-0.09576178096906454 -0.0653273804388703 0.04330238387687334
-0.07895012755136742 -0.07728820768027793 0.047171640254339946
-0.06213847413367029 -0.08924903492168555 0.051040896631806554
-0.04532682071597318 -0.10120986216309316 0.05491015300927316
-0.028515167298276068 -0.11317068940450078 0.05877940938673977
-0.011703513880578945 -0.1251315166459084 0.06264866576420638
0.0051081395371181644 -0.13709234388731603 0.06651792214167299
-0.15204482007424086 -0.031166596443418564 0.05178192303903285
-0.13523316665654375 -0.04312742368482618 0.055651179416499455
-0.11842151323884663 -0.0550882509262338 0.05952043579396606
-0.10160985982114952 -0.06704907816764143 0.06338969217143267
-0.0847982064034524 -0.07900990540904905 0.06725894854889929
-0.06798655298575527 -0.09097073265045667 0.07112820492636589
-0.05117489956805817 -0.10293155989186428 0.0749974613038325
-0.03436324615036106 -0.1148923871332719 0.0788667176812991
-0.017551592732663934 -0.12685321437467953 0.08273597405876572
-0.0007399393149668254 -0.13881404161608715 0.08660523043623232
0.0007399393149668254 0.13881404161608715 -0.08660523043623232
0.017551592732663934 0.12685321437467953 -0.08273597405876572
0.03436324615036105 0.1148923871332719 -0.0788667176812991
0.05117489956805816 0.1029315598918643 -0.0749974613038325
0.06798655298575527 0.09097073265045667 -0.07112820492636589
0.0847982064034524 0.07900990540904905 -0.06725894854889929
0.1016098598211495 0.06704907816764143 -0.06338969217143267
0.11842151323884663 0.05508825092623381 -0.05952043579396606
0.13523316665654375 0.04312742368482618 -0.055651179416499455
0.15204482007424086 0.031166596443418564 -0.05178192303903285
-0.0051081395371181644 0.13709234388731603 -0.06651792214167299
0.011703513880578945 0.1251315166459084 -0.06264866576420638
0.02851516729827606 0.11317068940450078 -0.05877940938673977
0.04532682071597317 0.10120986216309318 -0.05491015300927316
0.06213847413367029 0.08924903492168555 -0.051040896631806554
0.07895012755136742 0.07728820768027793 -0.047171640254339946
0.09576178096906453 0.0653273804388703 -0.04330238387687334
0.11257343438676165 0.05336655319746269 -0.03943312749940673
0.12938508780445876 0.04140572595605506 -0.03556387112194012
0.14619674122215587 0.029444898714647446 -0.031694614744473514
-0.010956218389203156 0.1353706461585449 -0.046430613847113646
0.005855435028493953 0.12340981891713729 -0.04256135746964704
0.02266708844619107 0.11144899167572966 -0.03869210109218043
0.03947874186388818 0.09948816443432205 -0.03482284471471382
0.056290395281585304 0.08752733719291443 -0.030953588337247213
0.07310204869928243 0.07556650995150681 -0.027084331959780605
0.08991370211697954 0.06360568271009918 -0.023215075582313997
0.10672535553467666 0.05164485546869157 -0.01934581920484739
0.12353700895237377 0.03968402822728394 -0.01547656282738078
0.14034866237007088 0.027723200985876325 -0.011607306449914171
-0.016804297241288145 0.1336489484297738 -0.02634330555255431
7.356176408963467e-06 0.12168812118836617 -0.0224740491750877
0.01681900959410608 0.10972729394695854 -0.018604792797621093
0.03363066301180319 0.09776646670555093 -0.014735536420154486
0.05044231642950031 0.08580563946414331 -0.010866280042687877
0.06725396984719743 0.07384481222273569 -0.0069970236652212685
0.08406562326489454 0.06188398498132807 -0.00312776728775466
0.10087727668259167 0.049923157739920454 0.0007414890897119481
0.11768893010028877 0.037962330498512824 0.004610745467178556
0.13450058351798588 0.026001503257105207 0.008480001844645164
-0.022652376093373137 0.13192725070100267 -0.006255997257994962
-0.0058407226756760295 0.11996642345959505 -0.002386740880528356
0.010970930742021087 0.10800559621818742 0.0014825154969382536
0.0277825841597182 0.09604476897677981 0.00535177187440486
0.04459423757741532 0.08408394173537219 0.009221028251871469
0.06140589099511244 0.07212311449396457 0.013090284629338077
0.07821754441280955 0.06016228725255695 0.016959541006804687
0.09502919783050667 0.04820146001114933 0.020828797384271295
0.11184085124820378 0.0362406327697417 0.024698053761737903
0.1286525046659009 0.024279805528334086 0.02856731013920451
-0.02850045494545813 0.13020555297223155 0.01383131103656438
-0.011688801527761021 0.11824472573082392 0.017700567414030987
0.005122851889936096 0.1062838984894163 0.021569823791497595
0.021934505307633207 0.09432307124800869 0.025439080168964203
0.038746158725330326 0.08236224400660107 0.02930833654643081
0.05555781214302745 0.07040141676519344 0.03317759292389742
0.07236946556072456 0.05844058952378583 0.03704684930136403
0.08918111897842168 0.04647976228237821 0.04091610567883064
0.10599277239611879 0.03451893504097058 0.04478536205629725
0.1228044258138159 0.022558107799562965 0.048654618433763855
-0.034348533797543115 0.12848385524346043 0.033918619331123716
-0.01753688037984601 0.1165230280020528 0.03778787570859032
-0.0007252269621488935 0.10456220076064518 0.04165713208605693
0.016086426455548218 0.09260137351923757 0.04552638846352353
0.03289807987324534 0.08064054627782995 0.04939564484099015
0.049709733290942464 0.06867971903642232 0.053264901218456756
0.06652138670863957 0.05671889179501471 0.057134157595923364
0.08333304012633669 0.04475806455360709 0.06100341397338997
0.1001446935440338 0.03279723731219946 0.06487267035085657
0.1169563469617309 0.020836410070791848 0.06874192672832319
-0.04019661264962811 0.1267621575146893 0.054005927625683056
-0.023384959231931002 0.11480133027328168 0.057875184003149664
-0.006573305814233885 0.10284050303187406 0.06174444038061627
0.010238347603463227 0.09087967579046645 0.06561369675808287
0.027050001021160345 0.07891884854905883 0.06948295313554949
0.04386165443885747 0.0669580213076512 0.07335220951301609
0.06067330785655458 0.05499719406624359 0.0772214658904827
0.0774849612742517 0.04303636682483598 0.0810907222679493
0.0942966146919488 0.031075539583428343 0.08495997864541592
0.11110826810964591 0.019114712342020727 0.08882923502288252
-0.0460446915017131 0.12504045978591818 0.0740932359202424
-0.029233038084015995 0.11307963254451056 0.077962492297709
-0.01242138466631888 0.10111880530310294 0.08183174867517562
0.004390268751378234 0.08915797806169533 0.08570100505264222
0.021201922169075352 0.0771971508202877 0.08957026143010884
0.03801357558677248 0.06523632357888008 0.09343951780757545
0.05482522900446959 0.05327549633747247 0.09730877418504205
0.0716368824221667 0.041314669096064856 0.10117803056250867
0.08844853583986381 0.029353841854657222 0.10504728693997527
0.10526018925756092 0.017393014613249606 0.10891654331744188
-0.05189277035379809 0.12331876205714706 0.09418054421480174
-0.035081116936100984 0.11135793481573944 0.09804980059226835
-0.018269463518403868 0.09939710757433182 0.10191905696973495
-0.0014578101007067558 0.08743628033292421 0.10578831334720157
0.015353843316990363 0.07547545309151658 0.10965756972466817
0.032165496734687486 0.06351462585010896 0.11352682610213478
0.048977150152384595 0.05155379860870135 0.11739608247960139
0.06578880357008172 0.039592971367293735 0.121265338857068
0.08260045698777883 0.027632144125886104 0.1251345952345346
0.09941211040547594 0.015671316884478488 0.1290038516120012
-0.09941211040547594 -0.015671316884478488 -0.1290038516120012
-0.08260045698777883 -0.027632144125886104 -0.1251345952345346
-0.06578880357008172 -0.03959297136729373 -0.121265338857068
-0.04897715015238461 -0.051553798608701344 -0.11739608247960139
-0.032165496734687486 -0.06351462585010896 -0.11352682610213478
-0.015353843316990363 -0.07547545309151658 -0.10965756972466817
0.0014578101007067454 -0.0874362803329242 -0.10578831334720157
0.01826946351840386 -0.09939710757433182 -0.10191905696973495
0.035081116936100984 -0.11135793481573944 -0.09804980059226835
0.05189277035379809 -0.12331876205714706 -0.09418054421480174
-0.0882841048809823 0.0014937229489176906 -0.12429289370358244
-0.0714724514632852 -0.010467104292489926 -0.12042363732611584
-0.05466079804558808 -0.02242793153389755 -0.11655438094864923
-0.03784914462789097 -0.034388758775305166 -0.11268512457118263
-0.021037491210193847 -0.04634958601671279 -0.10881586819371601
-0.004225837792496724 -0.05831041325812041 -0.10494661181624941
0.012585815625200385 -0.07027124049952801 -0.1010773554387828
0.0293974690428975 -0.08223206774093564 -0.0972080990613162
0.04620912246059462 -0.09419289498234326 -0.09333884268384958
0.06302077587829173 -0.10615372222375088 -0.08946958630638298
-0.07715609935648866 0.01865876278231387 -0.11958193579516369
-0.06034444593879155 0.006697935540906252 -0.11571267941769707
-0.04353279252109444 -0.005262891700501371 -0.11184342304023047
-0.026721139103397323 -0.017223718941908987 -0.10797416666276385
-0.0099094856857002 -0.02918454618331661 -0.10410491028529725
0.006902167731996915 -0.041145373424724234 -0.10023565390783064
0.023713821149694028 -0.05310620066613185 -0.09636639753036404
0.04052547456739114 -0.06506702790753946 -0.09249714115289742
0.05733712798508826 -0.07702785514894708 -0.08862788477543082
0.07414878140278537 -0.0889886823903547 -0.0847586283979642
-0.06602809383199502 0.035823802615710054 -0.11487097788674491
-0.04921644041429791 0.023862975374302434 -0.11100172150927831
-0.0324047869966008 0.011902148132894811 -0.1071324651318117
-0.015593133578903691 -5.867910851280522e-05 -0.1032632087543451
0.0012185198387934318 -0.012019506349920429 -0.09939395237687848
0.01803017325649055 -0.02398033359132805 -0.09552469599941188
0.03484182667418766 -0.035941160832735665 -0.09165543962194526
0.05165348009188478 -0.04790198807414329 -0.08778618324447866
0.0684651335095819 -0.05986281531555091 -0.08391692686701205
0.08527678692727901 -0.07182364255695853 -0.08004767048954545
-0.05490008830750138 0.05298884244910624 -0.11016001997832615
-0.03808843488980427 0.041028015207698616 -0.10629076360085954
-0.021276781472107154 0.029067187966290996 -0.10242150722339294
-0.004465128054410041 0.01710636072488338 -0.09855225084592632
0.012346525363287078 0.005145533483475756 -0.09468299446845972
0.029158178780984197 -0.006815293757931867 -0.0908137380909931
0.04596983219868131 -0.018776120999339483 -0.0869444817135265
0.06278148561637842 -0.030736948240747103 -0.08307522533605989
0.07959313903407554 -0.04269777548215473 -0.07920596895859329
0.09640479245177265 -0.05465860272356234 -0.07533671258112667
-0.04377208278300774 0.07015388228250242 -0.10544906206990738
-0.02696042936531063 0.05819305504109481 -0.10157980569244078
-0.010148775947613514 0.046232227799687185 -0.09771054931497417
0.006662877470083598 0.03427140055827957 -0.09384129293750756
0.02347453088778072 0.022310573316871942 -0.08997203656004095
0.04028618430547784 0.01034974607546432 -0.08610278018257435
0.05709783772317495 -0.0016110811659432974 -0.08223352380510773
0.07390949114087206 -0.013571908407350917 -0.07836426742764113
0.09072114455856918 -0.02553273564875854 -0.07449501105017452
0.10753279797626629 -0.037493562890166164 -0.07062575467270792
-0.0326440772585141 0.0873189221158986 -0.10073810416148862
-0.01583242384081699 0.075358094874491 -0.09686884778402201
0.0009792295768801217 0.06339726763308336 -0.0929995914065554
0.017790882994577234 0.05143644039167574 -0.08913033502908879
0.03460253641227436 0.03947561315026812 -0.08526107865162219
0.05141418982997147 0.027514785908860494 -0.08139182227415558
0.06822584324766857 0.015553958667452877 -0.07752256589668897
0.0850374966653657 0.0035931314260452575 -0.07365330951922236
0.10184915008306282 -0.00836769581536237 -0.06978405314175576
0.11866080350075993 -0.020328523056769986 -0.06591479676428914
-0.02151607173402046 0.1044839619492948 -0.09602714625306985
-0.004704418316323351 0.09252313470788717 -0.09215788987560325
0.012107235101373764 0.08056230746647955 -0.08828863349813663
0.028918888519070877 0.06860148022507193 -0.08441937712067003
0.045730541936767996 0.0566406529836643 -0.08055012074320342
0.06254219535446512 0.04467982574225668 -0.07668086436573682
0.07935384877216223 0.03271899850084906 -0.0728116079882702
0.09616550218985934 0.020758171259441443 -0.0689423516108036
0.11297715560755646 0.008797344018033816 -0.06507309523333699
0.12978880902525358 -0.0031634832233738003 -0.06120383885587038
-0.010388066209526814 0.12164900178269097 -0.09131618834465109
0.006423587208170295 0.10968817454128335 -0.08744693196718448
0.02323524062586741 0.09772734729987573 -0.08357767558971788
0.04004689404356452 0.08576652005846812 -0.07970841921225126
0.05685854746126164 0.0738056928170605 -0.07583916283478466
0.07367020087895876 0.061844865575652865 -0.07196990645731804
0.09048185429665587 0.04988403833424525 -0.06810065007985144
0.10729350771435299 0.03792321109283763 -0.06423139370238483
0.1241051611320501 0.02596238385143 -0.06036213732491822
0.14091681454974722 0.014001556610022385 -0.05649288094745161
0.0007399393149668254 0.13881404161608715 -0.08660523043623232
0.017551592732663934 0.12685321437467953 -0.08273597405876572
0.03436324615036105 0.1148923871332719 -0.0788667176812991
0.05117489956805816 0.1029315598918643 -0.0749974613038325
0.06798655298575527 0.09097073265045667 -0.07112820492636589
0.0847982064034524 0.07900990540904905 -0.06725894854889929
0.1016098598211495 0.06704907816764143 -0.06338969217143267
0.11842151323884663 0.05508825092623381 -0.05952043579396606
0.13523316665654375 0.04312742368482618 -0.055651179416499455
0.15204482007424086 0.031166596443418564 -0.05178192303903285
-0.15204482007424086 -0.031166596443418564 0.05178192303903285
-0.13523316665654375 -0.04312742368482618 0.055651179416499455
-0.11842151323884663 -0.0550882509262338 0.05952043579396606
-0.10160985982114952 -0.06704907816764143 0.06338969217143267
-0.0847982064034524 -0.07900990540904905 0.06725894854889929
-0.06798655298575527 -0.09097073265045667 0.07112820492636589
-0.05117489956805817 -0.10293155989186428 0.0749974613038325
-0.03436324615036106 -0.1148923871332719 0.0788667176812991
-0.017551592732663934 -0.12685321437467953 0.08273597405876572
-0.0007399393149668254 -0.13881404161608715 0.08660523043623232
-0.14091681454974722 -0.014001556610022385 0.05649288094745161
-0.1241051611320501 -0.02596238385143 0.06036213732491822
-0.10729350771435299 -0.037923211092837625 0.06423139370238483
-0.09048185429665588 -0.04988403833424524 0.06810065007985144
-0.07367020087895876 -0.061844865575652865 0.07196990645731804
-0.05685854746126164 -0.0738056928170605 0.07583916283478466
-0.040046894043564533 -0.0857665200584681 0.07970841921225126
-0.023235240625867418 -0.09772734729987573 0.08357767558971788
-0.006423587208170295 -0.10968817454128335 0.08744693196718448
0.010388066209526814 -0.12164900178269097 0.09131618834465109
-0.12978880902525358 0.0031634832233737933 0.06120383885587038
-0.11297715560755646 -0.008797344018033823 0.06507309523333699
-0.09616550218985935 -0.020758171259441446 0.0689423516108036
-0.07935384877216224 -0.03271899850084906 0.0728116079882702
-0.06254219535446512 -0.044679825742256686 0.07668086436573682
-0.045730541936768 -0.05664065298366431 0.08055012074320342
-0.02891888851907089 -0.06860148022507193 0.08441937712067003
-0.012107235101373775 -0.08056230746647955 0.08828863349813663
0.004704418316323348 -0.09252313470788717 0.09215788987560325
0.02151607173402046 -0.1044839619492948 0.09602714625306985
-0.11866080350075993 0.020328523056769975 0.06591479676428914
-0.10184915008306282 0.008367695815362359 0.06978405314175574
-0.08503749666536571 -0.0035931314260452644 0.07365330951922236
-0.0682258432476686 -0.01555395866745288 0.07752256589668896
-0.051414189829971486 -0.027514785908860504 0.08139182227415558
-0.034602536412274364 -0.039475613150268124 0.08526107865162219
-0.017790882994577255 -0.05143644039167574 0.08913033502908879
-0.000979229576880139 -0.06339726763308337 0.0929995914065554
0.015832423840816984 -0.075358094874491 0.09686884778402201
0.03264407725851409 -0.08731892211589862 0.10073810416148862
-0.10753279797626629 0.037493562890166164 0.07062575467270792
-0.09072114455856918 0.02553273564875854 0.07449501105017452
-0.07390949114087207 0.013571908407350921 0.07836426742764113
-0.057097837723174956 0.0016110811659433043 0.08223352380510773
-0.04028618430547784 -0.01034974607546432 0.08610278018257435
-0.02347453088778072 -0.022310573316871942 0.08997203656004095
-0.0066628774700836085 -0.03427140055827956 0.09384129293750756
0.010148775947613507 -0.04623222779968718 0.09771054931497417
0.02696042936531063 -0.05819305504109481 0.10157980569244078
0.04377208278300774 -0.07015388228250242 0.10544906206990738
-0.09640479245177265 0.05465860272356234 0.07533671258112667
-0.07959313903407554 0.04269777548215473 0.07920596895859329
-0.06278148561637843 0.03073694824074711 0.08307522533605989
-0.04596983219868132 0.01877612099933949 0.0869444817135265
-0.029158178780984197 0.006815293757931867 0.0908137380909931
-0.012346525363287078 -0.005145533483475756 0.09468299446845972
0.004465128054410031 -0.017106360724883373 0.09855225084592632
0.021276781472107147 -0.029067187966290993 0.10242150722339294
0.03808843488980427 -0.041028015207698616 0.10629076360085954
0.05490008830750138 -0.05298884244910624 0.11016001997832615
-0.08527678692727901 0.07182364255695851 0.08004767048954545
-0.0684651335095819 0.05986281531555091 0.08391692686701205
-0.05165348009188479 0.04790198807414328 0.08778618324447866
-0.034841826674187684 0.035941160832735665 0.09165543962194526
-0.01803017325649056 0.02398033359132804 0.09552469599941188
-0.0012185198387934457 0.012019506349920418 0.09939395237687848
0.015593133578903663 5.867910851280175e-05 0.10326320875434508
0.032404786996600786 -0.011902148132894818 0.1071324651318117
0.04921644041429791 -0.023862975374302445 0.11100172150927831
0.06602809383199502 -0.03582380261571006 0.11487097788674491
-0.07414878140278537 0.0889886823903547 0.0847586283979642
-0.05733712798508827 0.07702785514894708 0.0886278847754308
-0.040525474567391154 0.06506702790753946 0.09249714115289742
-0.02371382114969404 0.05310620066613185 0.09636639753036402
-0.006902167731996922 0.04114537342472423 0.10023565390783064
0.0099094856857002 0.029184546183316604 0.10410491028529725
0.02672113910339731 0.017223718941908987 0.10797416666276385
0.043532792521094425 0.005262891700501367 0.11184342304023047
0.06034444593879155 -0.006697935540906259 0.11571267941769707
0.07715609935648866 -0.018658762782313876 0.11958193579516369
-0.06302077587829173 0.10615372222375088 0.08946958630638298
-0.04620912246059462 0.09419289498234326 0.09333884268384958
-0.029397469042897507 0.08223206774093564 0.0972080990613162
-0.012585815625200395 0.07027124049952803 0.1010773554387828
0.004225837792496724 0.05831041325812041 0.10494661181624941
0.021037491210193847 0.04634958601671279 0.10881586819371601
0.037849144627890956 0.03438875877530517 0.11268512457118263
0.05466079804558808 0.022427931533897553 0.11655438094864923
0.0714724514632852 0.010467104292489926 0.12042363732611584
0.0882841048809823 -0.0014937229489176906 0.12429289370358244
-0.05189277035379809 0.12331876205714706 0.09418054421480174
-0.035081116936100984 0.11135793481573944 0.09804980059226835
-0.018269463518403868 0.09939710757433182 0.10191905696973495
-0.0014578101007067558 0.08743628033292421 0.10578831334720157
0.015353843316990363 0.07547545309151658 0.10965756972466817
0.032165496734687486 0.06351462585010896 0.11352682610213478
0.048977150152384595 0.05155379860870135 0.11739608247960139
0.06578880357008172 0.039592971367293735 0.121265338857068
0.08260045698777883 0.027632144125886104 0.1251345952345346
0.09941211040547594 0.015671316884478488 0.1290038516120012
