# .PCD v0.7 - Point Cloud Data file format
VERSION 0.7
FIELDS x y z
SIZE 4 4 4
TYPE F F F
COUNT 1 1 1
WIDTH 600
HEIGHT 1
VIEWPOINT 0 0 0 1 0 0 0
POINTS 600
DATA ascii
-0.05774247437851937 -0.028989825592449937 -0.07035776954066637
-0.05940994197939517 -0.018959783338988363 -0.06351521247195194
-0.061077409580270976 -0.008929741085526788 -0.056672655403237494
-0.06274487718114678 0.001100301167934786 -0.049830098334523044
-0.06441234478202258 0.011130343421396363 -0.0429875412658086
-0.06607981238289838 0.02116038567485794 -0.03614498419709415
-0.0677472799837742 0.03119042792831951 -0.029302427128379716
-0.06941474758465 0.041220470181781085 -0.022459870059665266
-0.07108221518552581 0.05125051243524267 -0.015617312990950821
-0.0727496827864016 0.06128055468870425 -0.008774755922236371
-0.05509236495840241 -0.035429434167149255 -0.060272575218746974
-0.05675983255927821 -0.025399391913687678 -0.05343001815003253
-0.058427300160154017 -0.015369349660226106 -0.04658746108131808
-0.06009476776102982 -0.005339307406764531 -0.03974490401260364
-0.06176223536190563 0.004690734846697047 -0.032902346943889195
-0.06342970296278143 0.014720777100158624 -0.026059789875174745
-0.06509717056365723 0.024750819353620196 -0.019217232806460306
-0.06676463816453304 0.03478086160708177 -0.012374675737745857
-0.06843210576540884 0.04481090386054335 -0.005532118669031414
-0.07009957336628464 0.054840946114004925 0.0013104383996830357
-0.052442255538285444 -0.04186904274184857 -0.05018738089682756
-0.054109723139161243 -0.031839000488387 -0.04334482382811312
-0.05577719074003705 -0.021808958234925423 -0.036502266759398674
-0.057444658340912856 -0.01177891598146385 -0.029659709690684228
-0.05911212594178866 -0.0017488737280022721 -0.02281715262196978
-0.06077959354266446 0.008281168525459305 -0.015974595553255335
-0.06244706114354027 0.018311210778920877 -0.009132038484540897
-0.06411452874441607 0.02834125303238245 -0.002289481415826447
-0.06578199634529189 0.038371295285844036 0.004553075652887996
-0.06744946394616769 0.04840133753930561 0.011395632721602445
-0.049792146118168484 -0.048308651316547886 -0.040102186574908154
-0.051459613719044284 -0.03827860906308631 -0.03325962950619371
-0.05312708131992009 -0.02824856680962474 -0.026417072437479268
-0.054794548920795896 -0.018218524556163167 -0.01957451536876482
-0.0564620165216717 -0.00818848230270159 -0.012731958300050375
-0.0581294841225475 0.0018415599507599883 -0.005889401231335929
-0.05979695172342331 0.011871602204221558 0.0009531558373785104
-0.061464419324299115 0.021901644457683136 0.00779571290609296
-0.06313188692517492 0.03193168671114472 0.014638269974807404
-0.06479935452605072 0.041961728964606294 0.021480827043521854
-0.047142036698051525 -0.05474825989124721 -0.030016992252988747
-0.048809504298927324 -0.044718217637785634 -0.023174435184274304
-0.05047697189980313 -0.03468817538432406 -0.016331878115559858
-0.05214443950067894 -0.024658133130862486 -0.009489321046845411
-0.05381190710155474 -0.014628090877400907 -0.0026467639781309667
-0.05547937470243054 -0.0045980486239393294 0.00419579309058348
-0.05714684230330635 0.005431993629522241 0.01103835015929792
-0.058814309904182155 0.015462035882983817 0.017880907228012367
-0.06048177750505796 0.025492078136445398 0.02472346429672681
-0.06214924510593376 0.03552212038990697 0.03156602136544126
-0.04449192727793456 -0.061187868465946524 -0.019931797931069334
-0.04615939487881036 -0.05115782621248495 -0.013089240862354893
-0.047826862479686164 -0.041127783959023376 -0.006246683793640448
-0.04949433008056197 -0.0310977417055618 0.0005958732750739986
-0.051161797681437776 -0.021067699452100224 0.007438430343788443
-0.052829265282313576 -0.011037657198638648 0.01428098741250289
-0.05449673288318938 -0.0010076149451770777 0.02112354448121733
-0.05616420048406519 0.009022427308284498 0.02796610154993178
-0.057831668084940994 0.019052469561746083 0.034808658618646224
-0.059499135685816794 0.029082511815207657 0.041651215687360674
-0.0418418178578176 -0.06762747704064584 -0.009846603609149933
-0.0435092854586934 -0.057597434787184265 -0.0030040465404354896
-0.045176753059569204 -0.04756739253372269 0.003838510528278955
-0.04684422066044501 -0.03753735028026112 0.010681067596993402
-0.048511688261320816 -0.02750730802679954 0.017523624665707848
-0.050179155862196616 -0.017477265773337962 0.024366181734422294
-0.05184662346307242 -0.007447223519876392 0.031208738803136734
-0.05351409106394823 0.002582818733585184 0.03805129587185118
-0.055181558664824035 0.012612860987046767 0.04489385294056562
-0.056849026265699834 0.02264290324050834 0.05173641000928007
-0.03919170843770064 -0.07406708561534515 0.00023859071276947772
-0.04085917603857644 -0.06403704336188358 0.00708114778148392
-0.042526643639452244 -0.05400700110842201 0.013923704850198365
-0.04419411124032805 -0.04397695885496044 0.02076626191891281
-0.04586157884120386 -0.03394691660149886 0.027608818987627258
-0.047529046442079656 -0.02391687434803728 0.0344513760563417
-0.04919651404295546 -0.01388683209457571 0.041293933125056144
-0.05086398164383127 -0.0038567898411141347 0.048136490193770594
-0.052531449244707075 0.006173252412347448 0.05497904726248504
-0.054198916845582874 0.016203294665809023 0.06182160433119949
-0.03654159901758367 -0.08050669419004448 0.010323785034688891
-0.03820906661845947 -0.07047665193658291 0.017166342103403332
-0.03987653421933528 -0.06044660968312133 0.02400889917211778
-0.041544001820211084 -0.050416567429659755 0.030851456240832225
-0.04321146942108689 -0.04038652517619818 0.03769401330954667
-0.04487893702196269 -0.030356482922736603 0.044536570378261114
-0.046546404622838496 -0.020326440669275032 0.05137912744697556
-0.0482138722237143 -0.010296398415813455 0.05822168451569001
-0.04988133982459011 -0.00026635616235187265 0.06506424158440445
-0.05154880742546591 0.009763686091109702 0.0719067986531189
-0.03389148959746671 -0.0869463027647438 0.0204089793566083
-0.03555895719834251 -0.07691626051128223 0.027251536425322742
-0.03722642479921832 -0.06688621825782065 0.034094093494037185
-0.038893892400094124 -0.05685617600435908 0.040936650562751635
-0.04056136000096993 -0.046826133750897496 0.04777920763146608
-0.04222882760184573 -0.03679609149743592 0.05462176470018052
-0.043896295202721536 -0.026766049243974348 0.061464321768894964
-0.04556376280359734 -0.016736006990512774 0.06830687883760941
-0.04723123040447315 -0.006705964737051189 0.07514943590632385
-0.04889869800534895 0.0033240775164103844 0.0819919929750383
0.04889869800534895 -0.0033240775164103844 -0.0819919929750383
0.04723123040447315 0.006705964737051189 -0.07514943590632385
0.04556376280359734 0.01673600699051277 -0.06830687883760941
0.043896295202721536 0.026766049243974344 -0.06146432176889497
0.04222882760184573 0.03679609149743592 -0.05462176470018052
0.04056136000096993 0.046826133750897496 -0.04777920763146608
0.038893892400094124 0.05685617600435907 -0.040936650562751635
0.03722642479921832 0.06688621825782064 -0.03409409349403719
0.03555895719834251 0.07691626051128223 -0.027251536425322742
0.03389148959746671 0.0869463027647438 -0.0204089793566083
0.05154880742546591 -0.009763686091109702 -0.0719067986531189
0.04988133982459011 0.00026635616235187265 -0.06506424158440445
0.0482138722237143 0.010296398415813451 -0.05822168451569001
0.046546404622838496 0.020326440669275025 -0.051379127446975564
0.04487893702196269 0.030356482922736603 -0.044536570378261114
0.04321146942108689 0.04038652517619818 -0.03769401330954667
0.041544001820211084 0.05041656742965975 -0.03085145624083223
0.03987653421933528 0.06044660968312132 -0.024008899172117782
0.03820906661845947 0.07047665193658291 -0.017166342103403332
0.03654159901758367 0.08050669419004448 -0.010323785034688891
0.054198916845582874 -0.01620329466580902 -0.06182160433119949
0.052531449244707075 -0.006173252412347446 -0.05497904726248504
0.05086398164383127 0.003856789841114133 -0.048136490193770594
0.04919651404295546 0.013886832094575707 -0.04129393312505615
0.047529046442079656 0.023916874348037284 -0.03445137605634171
0.04586157884120386 0.03394691660149886 -0.027608818987627258
0.04419411124032805 0.04397695885496043 -0.02076626191891282
0.042526643639452244 0.054007001108422006 -0.013923704850198372
0.04085917603857644 0.06403704336188358 -0.007081147781483924
0.03919170843770064 0.07406708561534515 -0.0002385907127694806
0.056849026265699834 -0.022642903240508338 -0.05173641000928008
0.055181558664824035 -0.012612860987046764 -0.04489385294056563
0.05351409106394823 -0.0025828187335851837 -0.03805129587185119
0.05184662346307242 0.00744722351987639 -0.031208738803136744
0.050179155862196616 0.017477265773337965 -0.024366181734422298
0.048511688261320816 0.027507308026799543 -0.01752362466570785
0.04684422066044501 0.03753735028026112 -0.01068106759699341
0.045176753059569204 0.04756739253372269 -0.0038385105282789642
0.0435092854586934 0.05759743478718427 0.003004046540435484
0.0418418178578176 0.06762747704064584 0.009846603609149927
0.059499135685816794 -0.029082511815207657 -0.041651215687360674
0.057831668084940994 -0.019052469561746083 -0.034808658618646224
0.05616420048406519 -0.009022427308284502 -0.02796610154993178
0.05449673288318938 0.0010076149451770725 -0.021123544481217338
0.052829265282313576 0.011037657198638648 -0.01428098741250289
0.051161797681437776 0.021067699452100224 -0.007438430343788443
0.04949433008056197 0.031097741705561795 -0.0005958732750740021
0.047826862479686164 0.04112778395902337 0.006246683793640444
0.04615939487881036 0.05115782621248495 0.013089240862354893
0.04449192727793456 0.061187868465946524 0.019931797931069334
0.06214924510593376 -0.03552212038990697 -0.03156602136544126
0.06048177750505796 -0.025492078136445398 -0.02472346429672681
0.058814309904182155 -0.01546203588298382 -0.017880907228012367
0.05714684230330635 -0.005431993629522246 -0.011038350159297926
0.05547937470243054 0.0045980486239393294 -0.00419579309058348
0.05381190710155474 0.014628090877400907 0.0026467639781309667
0.05214443950067894 0.02465813313086248 0.009489321046845408
0.05047697189980313 0.03468817538432405 0.016331878115559854
0.048809504298927324 0.044718217637785634 0.023174435184274304
0.047142036698051525 0.05474825989124721 0.030016992252988747
0.06479935452605072 -0.04196172896460629 -0.021480827043521857
0.06313188692517492 -0.03193168671114471 -0.014638269974807409
0.061464419324299115 -0.021901644457683136 -0.007795712906092966
0.05979695172342331 -0.01187160220422156 -0.000953155837378523
0.0581294841225475 -0.0018415599507599848 0.005889401231335923
0.0564620165216717 0.008188482302701593 0.01273195830005037
0.054794548920795896 0.018218524556163164 0.01957451536876481
0.05312708131992009 0.028248566809624738 0.026417072437479257
0.051459613719044284 0.03827860906308632 0.033259629506193704
0.049792146118168484 0.04830865131654789 0.04010218657490815
0.06744946394616769 -0.04840133753930561 -0.011395632721602449
0.06578199634529189 -0.038371295285844036 -0.004553075652887999
0.06411452874441607 -0.028341253032382455 0.0022894814158264444
0.06244706114354027 -0.01831121077892088 0.009132038484540887
0.06077959354266446 -0.008281168525459303 0.015974595553255335
0.05911212594178866 0.001748873728002274 0.02281715262196978
0.057444658340912856 0.011778915981463845 0.02965970969068422
0.05577719074003705 0.02180895823492542 0.03650226675939867
0.054109723139161243 0.031839000488387 0.04334482382811312
0.052442255538285444 0.04186904274184857 0.05018738089682756
0.07009957336628464 -0.054840946114004925 -0.0013104383996830357
0.06843210576540884 -0.04481090386054335 0.005532118669031414
0.06676463816453304 -0.03478086160708178 0.012374675737745857
0.06509717056365723 -0.0247508193536202 0.0192172328064603
0.06342970296278143 -0.014720777100158624 0.026059789875174745
0.06176223536190563 -0.004690734846697047 0.032902346943889195
0.06009476776102982 0.005339307406764524 0.03974490401260363
0.058427300160154017 0.015369349660226099 0.04658746108131808
0.05675983255927821 0.025399391913687678 0.05343001815003253
0.05509236495840241 0.035429434167149255 0.060272575218746974
0.0727496827864016 -0.06128055468870425 0.008774755922236371
0.07108221518552581 -0.05125051243524267 0.015617312990950821
0.06941474758465 -0.04122047018178109 0.022459870059665266
0.0677472799837742 -0.031190427928319518 0.02930242712837971
0.06607981238289838 -0.02116038567485794 0.03614498419709415
0.06441234478202258 -0.011130343421396363 0.0429875412658086
0.06274487718114678 -0.001100301167934793 0.049830098334523044
0.061077409580270976 0.008929741085526782 0.05667265540323749
0.05940994197939517 0.018959783338988363 0.06351521247195194
0.05774247437851937 0.028989825592449937 0.07035776954066637
-0.05774247437851937 -0.028989825592449937 -0.07035776954066637
-0.04589345522475623 -0.026138075806223317 -0.07165046103337437
-0.03404443607099308 -0.023286326019996705 -0.07294315252608237
-0.02219541691722993 -0.020434576233770086 -0.07423584401879035
-0.010346397763466783 -0.017582826447543467 -0.07552853551149835
0.0015026213902963655 -0.014731076661316855 -0.07682122700420634
0.013351640544059502 -0.011879326875090235 -0.07811391849691433
0.025200659697822654 -0.009027577088863616 -0.07940660998962232
0.037049678851585804 -0.006175827302637004 -0.08069930148233032
0.04889869800534895 -0.0033240775164103844 -0.0819919929750383
-0.05509236495840241 -0.035429434167149255 -0.060272575218746974
-0.04324334580463927 -0.032577684380922636 -0.061565266711454965
-0.03139432665087612 -0.02972593459469602 -0.06285795820416296
-0.019545307497112967 -0.0268741848084694 -0.06415064969687095
-0.007696288343349822 -0.024022435022242782 -0.06544334118957894
0.004152730810413327 -0.02117068523601617 -0.06673603268228694
0.016001749964176464 -0.01831893544978955 -0.06802872417499492
0.027850769117939617 -0.015467185663562933 -0.06932141566770292
0.039699788271702764 -0.012615435877336321 -0.0706141071604109
0.05154880742546591 -0.009763686091109702 -0.0719067986531189
-0.052442255538285444 -0.04186904274184857 -0.05018738089682756
-0.0405932363845223 -0.03901729295562195 -0.05148007238953555
-0.02874421723075915 -0.03616554316939534 -0.05277276388224355
-0.016895198076996003 -0.03331379338316872 -0.05406545537495154
-0.005046178923232859 -0.0304620435969421 -0.05535814686765953
0.006802840230530289 -0.02761029381071549 -0.05665083836036752
0.018651859384293427 -0.02475854402448887 -0.057943529853075514
0.03050087853805658 -0.02190679423826225 -0.059236221345783505
0.04234989769181973 -0.019055044452035638 -0.060528912838491496
0.054198916845582874 -0.01620329466580902 -0.06182160433119949
-0.049792146118168484 -0.048308651316547886 -0.040102186574908154
-0.03794312696440534 -0.04545690153032127 -0.041394878067616145
-0.02609410781064219 -0.042605151744094655 -0.04268756956032414
-0.014245088656879044 -0.039753401957868036 -0.043980261053032134
-0.002396069503115898 -0.036901652171641416 -0.045272952545740125
0.00945294965064725 -0.034049902385414804 -0.046565644038448116
0.021301968804410387 -0.03119815259918819 -0.04785833553115611
0.03315098795817354 -0.02834640281296157 -0.0491510270238641
0.04500000711193669 -0.025494653026734957 -0.05044371851657209
0.056849026265699834 -0.022642903240508338 -0.05173641000928008
-0.047142036698051525 -0.05474825989124721 -0.030016992252988747
-0.03529301754428838 -0.05189651010502059 -0.03130968374569674
-0.023443998390525227 -0.04904476031879398 -0.03260237523840473
-0.011594979236762082 -0.04619301053256736 -0.03389506673111272
0.0002540399170010635 -0.04334126074634074 -0.03518775822382071
0.012103059070764212 -0.040489510960114126 -0.03648044971652871
0.02395207822452735 -0.03763776117388751 -0.0377731412092367
0.0358010973782905 -0.03478601138766089 -0.03906583270194469
0.04765011653205365 -0.031934261601434276 -0.04035852419465268
0.059499135685816794 -0.029082511815207657 -0.041651215687360674
-0.04449192727793456 -0.061187868465946524 -0.019931797931069334
-0.032642908124171414 -0.058336118679719905 -0.021224489423777325
-0.020793888970408268 -0.05548436889349329 -0.02251718091648532
-0.008944869816645119 -0.05263261910726667 -0.02380987240919331
0.0029041493371180257 -0.049780869321040054 -0.0251025639019013
0.014753168490881175 -0.04692911953481344 -0.026395255394609296
0.02660218764464431 -0.04407736974858682 -0.027687946887317287
0.03845120679840747 -0.041225619962360203 -0.028980638380025278
0.05030022595217062 -0.03837387017613359 -0.03027332987273327
0.06214924510593376 -0.03552212038990697 -0.03156602136544126
-0.0418418178578176 -0.06762747704064584 -0.009846603609149933
-0.029992798704054458 -0.06477572725441923 -0.011139295101857924
-0.018143779550291308 -0.06192397746819261 -0.012431986594565918
-0.006294760396528159 -0.05907222768196599 -0.01372467808727391
0.005554258757234986 -0.05622047789573937 -0.0150173695799819
0.017403277910998133 -0.05336872810951276 -0.016310061072689893
0.02925229706476127 -0.05051697832328614 -0.017602752565397884
0.04110131621852443 -0.04766522853705952 -0.018895444058105875
0.05295033537228758 -0.04481347875083291 -0.020188135550813866
0.06479935452605072 -0.04196172896460629 -0.021480827043521857
-0.03919170843770064 -0.07406708561534515 0.00023859071276947772
-0.027342689283937495 -0.07121533582911854 -0.0010541007799385134
-0.015493670130174345 -0.06836358604289193 -0.0023467922726465077
-0.0036446509764111973 -0.0655118362566653 -0.0036394837653544987
0.008204368177351947 -0.06266008647043869 -0.00493217525806249
0.020053387331115096 -0.05980833668421208 -0.006224866750770485
0.031902406484878236 -0.05695658689798546 -0.007517558243478476
0.043751425638641386 -0.05410483711175884 -0.008810249736186467
0.05560044479240454 -0.05125308732553223 -0.010102941228894458
0.06744946394616769 -0.04840133753930561 -0.011395632721602449
-0.03654159901758367 -0.08050669419004448 0.010323785034688891
-0.02469257986382053 -0.07765494440381786 0.0090310935419809
-0.012843560710057381 -0.07480319461759125 0.007738402049272905
-0.0009945415562942342 -0.07195144483136463 0.006445710556564914
0.01085447759746891 -0.06909969504513801 0.005153019063856923
0.02270349675123206 -0.0662479452589114 0.0038603275711489287
0.034552515904995196 -0.06339619547268478 0.0025676360784409376
0.04640153505875835 -0.060544445686458156 0.0012749445857329464
0.0582505542125215 -0.057692695900231544 -1.77469069750446e-05
0.07009957336628464 -0.054840946114004925 -0.0013104383996830357
-0.03389148959746671 -0.0869463027647438 0.0204089793566083
-0.02204247044370357 -0.08409455297851717 0.019116287863900308
-0.01019345128994042 -0.08124280319229056 0.017823596371192314
0.001655567863822727 -0.07839105340606395 0.016530904878484323
0.013504587017585872 -0.07553930361983732 0.01523821338577633
0.025353606171349023 -0.07268755383361071 0.013945521893068335
0.037202625325112156 -0.0698358040473841 0.012652830400360344
0.04905164447887531 -0.06698405426115747 0.011360138907652353
0.06090066363263846 -0.06413230447493086 0.010067447414944362
0.0727496827864016 -0.06128055468870425 0.008774755922236371
-0.0727496827864016 0.06128055468870425 -0.008774755922236371
-0.06090066363263846 0.06413230447493086 -0.010067447414944362
-0.04905164447887531 0.06698405426115747 -0.011360138907652353
-0.03720262532511216 0.0698358040473841 -0.012652830400360344
-0.025353606171349023 0.07268755383361071 -0.013945521893068335
-0.013504587017585872 0.07553930361983732 -0.01523821338577633
-0.001655567863822734 0.07839105340606395 -0.016530904878484323
0.010193451289940416 0.08124280319229056 -0.017823596371192314
0.02204247044370357 0.08409455297851717 -0.019116287863900308
0.03389148959746671 0.0869463027647438 -0.0204089793566083
-0.07009957336628464 0.054840946114004925 0.0013104383996830357
-0.0582505542125215 0.057692695900231544 1.77469069750446e-05
-0.04640153505875835 0.060544445686458156 -0.0012749445857329464
-0.0345525159049952 0.06339619547268478 -0.0025676360784409376
-0.02270349675123206 0.0662479452589114 -0.0038603275711489287
-0.01085447759746891 0.06909969504513801 -0.005153019063856923
0.0009945415562942273 0.07195144483136463 -0.006445710556564914
0.012843560710057378 0.07480319461759125 -0.007738402049272905
0.02469257986382053 0.07765494440381786 -0.0090310935419809
0.03654159901758367 0.08050669419004448 -0.010323785034688891
-0.06744946394616769 0.04840133753930561 0.011395632721602445
-0.05560044479240454 0.05125308732553223 0.010102941228894454
-0.043751425638641386 0.05410483711175884 0.008810249736186463
-0.03190240648487824 0.05695658689798546 0.007517558243478472
-0.020053387331115096 0.05980833668421208 0.006224866750770481
-0.00820436817735195 0.06266008647043869 0.004932175258062487
0.0036446509764111895 0.0655118362566653 0.003639483765354496
0.01549367013017434 0.06836358604289193 0.002346792272646505
0.027342689283937495 0.07121533582911854 0.0010541007799385106
0.03919170843770064 0.07406708561534515 -0.0002385907127694806
-0.06479935452605072 0.041961728964606294 0.021480827043521854
-0.05295033537228758 0.044813478750832914 0.020188135550813863
-0.04110131621852443 0.047665228537059526 0.01889544405810587
-0.02925229706476128 0.050516978323286145 0.01760275256539788
-0.017403277910998136 0.053368728109512764 0.01631006107268989
-0.005554258757234988 0.056220477895739376 0.015017369579981895
0.0062947603965281505 0.059072227681965996 0.013724678087273904
0.0181437795502913 0.061923977468192615 0.012431986594565913
0.029992798704054455 0.06477572725441923 0.011139295101857918
0.0418418178578176 0.06762747704064584 0.009846603609149927
-0.06214924510593376 0.03552212038990697 0.03156602136544126
-0.05030022595217062 0.03837387017613359 0.03027332987273327
-0.03845120679840747 0.041225619962360203 0.028980638380025278
-0.026602187644644316 0.04407736974858682 0.027687946887317287
-0.014753168490881175 0.04692911953481344 0.026395255394609296
-0.0029041493371180257 0.049780869321040054 0.0251025639019013
0.008944869816645112 0.05263261910726667 0.02380987240919331
0.020793888970408264 0.05548436889349329 0.02251718091648532
0.032642908124171414 0.058336118679719905 0.021224489423777325
0.04449192727793456 0.061187868465946524 0.019931797931069334
-0.059499135685816794 0.029082511815207657 0.041651215687360674
-0.04765011653205365 0.031934261601434276 0.04035852419465268
-0.0358010973782905 0.03478601138766089 0.03906583270194469
-0.023952078224527357 0.03763776117388751 0.0377731412092367
-0.012103059070764212 0.040489510960114126 0.03648044971652871
-0.0002540399170010635 0.04334126074634074 0.03518775822382071
0.011594979236762075 0.04619301053256736 0.03389506673111272
0.023443998390525224 0.04904476031879398 0.03260237523840473
0.03529301754428838 0.05189651010502059 0.03130968374569674
0.047142036698051525 0.05474825989124721 0.030016992252988747
-0.056849026265699834 0.02264290324050834 0.05173641000928007
-0.04500000711193669 0.02549465302673496 0.05044371851657208
-0.03315098795817354 0.028346402812961573 0.04915102702386409
-0.021301968804410397 0.031198152599188192 0.0478583355311561
-0.009452949650647252 0.03404990238541481 0.04656564403844811
0.002396069503115897 0.03690165217164142 0.04527295254574012
0.014245088656879035 0.03975340195786804 0.04398026105303213
0.026094107810642184 0.04260515174409466 0.042687569560324136
0.03794312696440534 0.045456901530321274 0.04139487806761614
0.049792146118168484 0.04830865131654789 0.04010218657490815
-0.054198916845582874 0.016203294665809023 0.06182160433119949
-0.04234989769181973 0.01905504445203564 0.060528912838491496
-0.03050087853805658 0.021906794238262254 0.059236221345783505
-0.018651859384293434 0.024758544024488873 0.057943529853075514
-0.006802840230530289 0.027610293810715492 0.05665083836036752
0.005046178923232859 0.030462043596942105 0.055358146867659525
0.016895198076995997 0.03331379338316872 0.054065455374951533
0.028744217230759147 0.03616554316939534 0.05277276388224354
0.0405932363845223 0.03901729295562195 0.05148007238953555
0.052442255538285444 0.04186904274184857 0.05018738089682756
-0.05154880742546591 0.009763686091109702 0.0719067986531189
-0.039699788271702764 0.012615435877336321 0.0706141071604109
-0.027850769117939617 0.015467185663562933 0.06932141566770292
-0.01600174996417647 0.01831893544978955 0.06802872417499492
-0.004152730810413327 0.02117068523601617 0.06673603268228694
0.007696288343349822 0.024022435022242782 0.06544334118957894
0.01954530749711296 0.0268741848084694 0.06415064969687095
0.03139432665087611 0.02972593459469602 0.06285795820416296
0.04324334580463927 0.032577684380922636 0.061565266711454965
0.05509236495840241 0.035429434167149255 0.060272575218746974
-0.04889869800534895 0.0033240775164103844 0.0819919929750383
-0.037049678851585804 0.006175827302637004 0.08069930148233032
-0.025200659697822654 0.009027577088863616 0.07940660998962232
-0.013351640544059509 0.011879326875090235 0.07811391849691433
-0.0015026213902963655 0.014731076661316855 0.07682122700420634
0.010346397763466783 0.017582826447543467 0.07552853551149835
0.022195416917229923 0.020434576233770086 0.07423584401879035
0.03404443607099307 0.023286326019996705 0.07294315252608237
0.04589345522475623 0.026138075806223317 0.07165046103337437
0.05774247437851937 0.028989825592449937 0.07035776954066637
-0.05774247437851937 -0.028989825592449937 -0.07035776954066637
-0.04589345522475623 -0.026138075806223317 -0.07165046103337437
-0.03404443607099308 -0.023286326019996705 -0.07294315252608237
-0.02219541691722993 -0.020434576233770086 -0.07423584401879035
-0.010346397763466783 -0.017582826447543467 -0.07552853551149835
0.0015026213902963655 -0.014731076661316855 -0.07682122700420634
0.013351640544059502 -0.011879326875090235 -0.07811391849691433
0.025200659697822654 -0.009027577088863616 -0.07940660998962232
0.037049678851585804 -0.006175827302637004 -0.08069930148233032
0.04889869800534895 -0.0033240775164103844 -0.0819919929750383
-0.05940994197939517 -0.018959783338988363 -0.06351521247195194
-0.04756092282563203 -0.016108033552761743 -0.06480790396465992
-0.035711903671868876 -0.013256283766535131 -0.06610059545736792
-0.023862884518105733 -0.010404533980308512 -0.0673932869500759
-0.012013865364342588 -0.007552784194081893 -0.0686859784427839
-0.00016484621057943734 -0.004701034407855281 -0.06997866993549189
0.0116841729431837 -0.001849284621628661 -0.07127136142819988
0.023533192096946848 0.0010024651645979548 -0.07256405292090787
0.035382211250710005 0.003854214950824574 -0.07385674441361587
0.04723123040447315 0.006705964737051189 -0.07514943590632385
-0.061077409580270976 -0.008929741085526788 -0.056672655403237494
-0.04922839042650783 -0.006077991299300169 -0.057965346895945485
-0.03737937127274468 -0.0032262415130735497 -0.059258038388653476
-0.025530352118981536 -0.00037449172684693406 -0.06055072988136147
-0.013681332965218392 0.0024772580593796817 -0.06184342137406946
-0.0018323138114552436 0.0053290078456063004 -0.06313611286677745
0.010016705342307893 0.008180757631832916 -0.06442880435948543
0.02186572449607104 0.011032507418059532 -0.06572149585219343
0.0337147436498342 0.013884257204286151 -0.06701418734490142
0.04556376280359734 0.01673600699051277 -0.06830687883760941
-0.06274487718114678 0.001100301167934786 -0.049830098334523044
-0.05089585802738364 0.003952050954161405 -0.051122789827231035
-0.03904683887362049 0.006803800740388024 -0.05241548131993903
-0.027197819719857342 0.00965555052661464 -0.05370817281264702
-0.015348800566094195 0.012507300312841255 -0.05500086430535501
-0.0034997814123310465 0.015359050099067875 -0.056293555798063
0.00834923774143209 0.01821079988529449 -0.05758624729077099
0.020198256895195242 0.021062549671521106 -0.05887893878347898
0.03204727604895839 0.023914299457747725 -0.06017163027618698
0.043896295202721536 0.026766049243974344 -0.06146432176889497
-0.06441234478202258 0.011130343421396363 -0.0429875412658086
-0.052563325628259445 0.01398209320762298 -0.04428023275851659
-0.04071430647449629 0.016833842993849598 -0.045572924251224584
-0.028865287320733145 0.019685592780076214 -0.046865615743932575
-0.01701626816697 0.022537342566302833 -0.048158307236640566
-0.005167249013206851 0.02538909235252945 -0.04945099872934856
0.006681770140556287 0.028240842138756064 -0.05074369022205655
0.018530789294319436 0.031092591924982683 -0.05203638171476454
0.030379808448082586 0.0339443417112093 -0.05332907320747253
0.04222882760184573 0.03679609149743592 -0.05462176470018052
-0.06607981238289838 0.02116038567485794 -0.03614498419709415
-0.054230793229135245 0.02401213546108456 -0.03743767568980214
-0.042381774075372095 0.026863885247311176 -0.038730367182510134
-0.03053275492160895 0.02971563503353779 -0.040023058675218125
-0.018683735767845804 0.03256738481976441 -0.04131575016792612
-0.006834716614082656 0.035419134605991026 -0.042608441660634114
0.005014302539680481 0.038270884392217645 -0.043901133153342105
0.01686332169344363 0.041122634178444264 -0.045193824646050096
0.028712340847206787 0.04397438396467088 -0.04648651613875809
0.04056136000096993 0.046826133750897496 -0.04777920763146608
-0.0677472799837742 0.03119042792831951 -0.029302427128379716
-0.05589826083001105 0.03404217771454613 -0.030595118621087703
-0.0440492416762479 0.03689392750077275 -0.0318878101137957
-0.03220022252248475 0.03974567728699936 -0.03318050160650369
-0.020351203368721607 0.04259742707322598 -0.03447319309921168
-0.008502184214958458 0.0454491768594526 -0.03576588459191967
0.003346834938804678 0.04830092664567921 -0.03705857608462766
0.015195854092567828 0.05115267643190583 -0.03835126757733565
0.02704487324633098 0.05400442621813245 -0.039643959070043644
0.038893892400094124 0.05685617600435907 -0.040936650562751635
-0.06941474758465 0.041220470181781085 -0.022459870059665266
-0.05756572843088686 0.044072219968007705 -0.023752561552373257
-0.04571670927712371 0.046923969754234324 -0.02504525304508125
-0.03386769012336056 0.04977571954046094 -0.026337944537789242
-0.022018670969597413 0.052627469326687555 -0.027630636030497233
-0.010169651815834263 0.055479219112914174 -0.028923327523205224
0.0016793673379288752 0.058330968899140793 -0.030216019015913215
0.013528386491692026 0.06118271868536741 -0.0315087105086212
0.025377405645455174 0.06403446847159402 -0.0328014020013292
0.03722642479921832 0.06688621825782064 -0.03409409349403719
-0.07108221518552581 0.05125051243524267 -0.015617312990950821
-0.059233196031762664 0.054102262221469286 -0.016910004483658814
-0.047384176877999507 0.056954012007695905 -0.018202695976366805
-0.03553515772423636 0.059805761793922524 -0.019495387469074796
-0.02368613857047322 0.06265751158014914 -0.020788078961782787
-0.01183711941671007 0.06550926136637575 -0.022080770454490778
1.1899737053068837e-05 0.06836101115260237 -0.02337346194719877
0.01186091889081622 0.07121276093882899 -0.02466615343990676
0.023709938044579368 0.0740645107250556 -0.02595884493261475
0.03555895719834251 0.07691626051128223 -0.027251536425322742
-0.0727496827864016 0.06128055468870425 -0.008774755922236371
-0.06090066363263846 0.06413230447493086 -0.010067447414944362
-0.04905164447887531 0.06698405426115747 -0.011360138907652353
-0.03720262532511216 0.0698358040473841 -0.012652830400360344
-0.025353606171349023 0.07268755383361071 -0.013945521893068335
-0.013504587017585872 0.07553930361983732 -0.01523821338577633
-0.001655567863822734 0.07839105340606395 -0.016530904878484323
0.010193451289940416 0.08124280319229056 -0.017823596371192314
0.02204247044370357 0.08409455297851717 -0.019116287863900308
0.03389148959746671 0.0869463027647438 -0.0204089793566083
-0.03389148959746671 -0.0869463027647438 0.0204089793566083
-0.02204247044370357 -0.08409455297851717 0.019116287863900308
-0.01019345128994042 -0.08124280319229056 0.017823596371192314
0.001655567863822727 -0.07839105340606395 0.016530904878484323
0.013504587017585872 -0.07553930361983732 0.01523821338577633
0.025353606171349023 -0.07268755383361071 0.013945521893068335
0.037202625325112156 -0.0698358040473841 0.012652830400360344
0.04905164447887531 -0.06698405426115747 0.011360138907652353
0.06090066363263846 -0.06413230447493086 0.010067447414944362
0.0727496827864016 -0.06128055468870425 0.008774755922236371
-0.03555895719834251 -0.07691626051128223 0.027251536425322742
-0.023709938044579368 -0.0740645107250556 0.02595884493261475
-0.011860918890816223 -0.07121276093882899 0.02466615343990676
-1.1899737053075776e-05 -0.06836101115260237 0.02337346194719877
0.01183711941671007 -0.06550926136637575 0.022080770454490778
0.02368613857047322 -0.06265751158014914 0.020788078961782787
0.035535157724236356 -0.059805761793922524 0.019495387469074796
0.047384176877999507 -0.056954012007695905 0.018202695976366805
0.059233196031762664 -0.054102262221469286 0.016910004483658814
0.07108221518552581 -0.05125051243524267 0.015617312990950821
-0.03722642479921832 -0.06688621825782065 0.034094093494037185
-0.025377405645455174 -0.06403446847159402 0.032801402001329194
-0.013528386491692026 -0.06118271868536741 0.0315087105086212
-0.0016793673379288804 -0.058330968899140793 0.030216019015913212
0.010169651815834265 -0.05547921911291418 0.02892332752320522
0.022018670969597413 -0.05262746932668756 0.02763063603049723
0.03386769012336055 -0.04977571954046094 0.02633794453778924
0.0457167092771237 -0.04692396975423433 0.025045253045081248
0.05756572843088686 -0.04407221996800771 0.023752561552373257
0.06941474758465 -0.04122047018178109 0.022459870059665266
-0.038893892400094124 -0.05685617600435908 0.040936650562751635
-0.02704487324633098 -0.05400442621813246 0.039643959070043644
-0.015195854092567832 -0.05115267643190584 0.03835126757733565
-0.003346834938804685 -0.04830092664567922 0.037058576084627655
0.00850218421495846 -0.04544917685945261 0.035765884591919664
0.02035120336872161 -0.04259742707322599 0.03447319309921167
0.032200222522484744 -0.03974567728699937 0.03318050160650368
0.0440492416762479 -0.03689392750077276 0.03188781011379569
0.05589826083001105 -0.03404217771454614 0.0305951186210877
0.0677472799837742 -0.031190427928319518 0.02930242712837971
-0.04056136000096993 -0.046826133750897496 0.04777920763146608
-0.028712340847206787 -0.04397438396467088 0.04648651613875809
-0.016863321693443633 -0.041122634178444264 0.045193824646050096
-0.005014302539680488 -0.038270884392217645 0.043901133153342105
0.006834716614082656 -0.035419134605991026 0.042608441660634114
0.018683735767845804 -0.03256738481976441 0.04131575016792612
0.030532754921608944 -0.029715635033537795 0.04002305867521813
0.042381774075372095 -0.026863885247311176 0.038730367182510134
0.054230793229135245 -0.02401213546108456 0.03743767568980214
0.06607981238289838 -0.02116038567485794 0.03614498419709415
-0.04222882760184573 -0.03679609149743592 0.05462176470018052
-0.030379808448082586 -0.0339443417112093 0.05332907320747253
-0.01853078929431944 -0.031092591924982683 0.05203638171476454
-0.006681770140556294 -0.028240842138756068 0.05074369022205655
0.005167249013206851 -0.02538909235252945 0.04945099872934856
0.01701626816697 -0.022537342566302833 0.048158307236640566
0.028865287320733138 -0.019685592780076217 0.046865615743932575
0.04071430647449629 -0.016833842993849598 0.045572924251224584
0.052563325628259445 -0.01398209320762298 0.04428023275851659
0.06441234478202258 -0.011130343421396363 0.0429875412658086
-0.043896295202721536 -0.026766049243974348 0.061464321768894964
-0.03204727604895839 -0.023914299457747732 0.06017163027618697
-0.020198256895195242 -0.021062549671521113 0.05887893878347898
-0.008349237741432097 -0.018210799885294497 0.05758624729077099
0.003499781412331048 -0.015359050099067878 0.056293555798063
0.015348800566094197 -0.012507300312841262 0.05500086430535501
0.027197819719857335 -0.009655550526614647 0.05370817281264702
0.03904683887362048 -0.006803800740388027 0.05241548131993903
0.05089585802738364 -0.003952050954161412 0.051122789827231035
0.06274487718114678 -0.001100301167934793 0.049830098334523044
-0.04556376280359734 -0.016736006990512774 0.06830687883760941
-0.0337147436498342 -0.013884257204286155 0.06701418734490142
-0.02186572449607105 -0.011032507418059539 0.06572149585219343
-0.0100167053423079 -0.00818075763183292 0.06442880435948543
0.0018323138114552436 -0.005329007845606304 0.06313611286677745
0.013681332965218392 -0.002477258059379685 0.06184342137406945
0.025530352118981532 0.0003744917268469306 0.06055072988136146
0.03737937127274468 0.0032262415130735497 0.05925803838865347
0.04922839042650783 0.006077991299300169 0.05796534689594548
0.061077409580270976 0.008929741085526782 0.05667265540323749
-0.04723123040447315 -0.006705964737051189 0.07514943590632385
-0.035382211250710005 -0.003854214950824574 0.07385674441361587
-0.023533192096946848 -0.0010024651645979582 0.07256405292090787
-0.011684172943183706 0.001849284621628661 0.07127136142819988
0.00016484621057943734 0.004701034407855281 0.06997866993549189
0.012013865364342588 0.007552784194081893 0.0686859784427839
0.023862884518105726 0.010404533980308512 0.0673932869500759
0.035711903671868876 0.013256283766535131 0.06610059545736792
0.04756092282563203 0.016108033552761743 0.06480790396465992
0.05940994197939517 0.018959783338988363 0.06351521247195194
-0.04889869800534895 0.0033240775164103844 0.0819919929750383
-0.037049678851585804 0.006175827302637004 0.08069930148233032
-0.025200659697822654 0.009027577088863616 0.07940660998962232
-0.013351640544059509 0.011879326875090235 0.07811391849691433
-0.0015026213902963655 0.014731076661316855 0.07682122700420634
0.010346397763466783 0.017582826447543467 0.07552853551149835
0.022195416917229923 0.020434576233770086 0.07423584401879035
0.03404443607099307 0.023286326019996705 0.07294315252608237
0.04589345522475623 0.026138075806223317 0.07165046103337437
0.05774247437851937 0.028989825592449937 0.07035776954066637
