# .PCD v0.7 - Point Cloud Data file format
VERSION 0.7
FIELDS x y z
SIZE 4 4 4
TYPE F F F
COUNT 1 1 1
WIDTH 600
HEIGHT 1
VIEWPOINT 0 0 0 1 0 0 0
POINTS 600
DATA ascii
-0.09136464837878637 -0.15479181170727047 -0.17819647851818995
-0.10656181120666207 -0.1285575365713523 -0.16656344856466745
-0.12175897403453777 -0.1023232614354341 -0.15493041861114498
-0.13695613686241345 -0.07608898629951592 -0.14329738865762248
-0.15215329969028915 -0.049854711163597736 -0.13166435870409998
-0.16735046251816485 -0.02362043602767954 -0.1200313287505775
-0.18254762534604055 0.002613839108238626 -0.10839829879705502
-0.19774478817391625 0.028848114244156807 -0.09676526884353252
-0.21294195100179195 0.055082389380075 -0.08513223889001002
-0.22813911382966764 0.08131666451599318 -0.07349920893648754
-0.0834486840737654 -0.1636125035723095 -0.1479631981806672
-0.0986458469016411 -0.13737822843639133 -0.1363301682271447
-0.1138430097295168 -0.11114395330047315 -0.1246971382736222
-0.1290401725573925 -0.08490967816455497 -0.11306410832009971
-0.1442373353852682 -0.05867540302863678 -0.10143107836657722
-0.15943449821314387 -0.03244112789271859 -0.08979804841305472
-0.17463166104101957 -0.00620685275680042 -0.07816501845953223
-0.18982882386889527 0.02002742237911776 -0.06653198850600975
-0.20502598669677097 0.046261697515035956 -0.05489895855248725
-0.22022314952464667 0.07249597265095413 -0.04326592859896476
-0.07553271976874446 -0.17243319543734856 -0.1177299178431444
-0.09072988259662015 -0.1461989203014304 -0.1060968878896219
-0.10592704542449585 -0.1199646451655122 -0.09446385793609942
-0.12112420825237154 -0.09373037002959402 -0.08283082798257693
-0.13632137108024722 -0.06749609489367583 -0.07119779802905443
-0.15151853390812292 -0.04126181975775763 -0.059564768075531946
-0.16671569673599862 -0.015027544621839466 -0.04793173812200946
-0.18191285956387432 0.011206730514078715 -0.03629870816848697
-0.19711002239175002 0.03744100564999691 -0.024665678214964473
-0.21230718521962572 0.06367528078591508 -0.013032648261441985
-0.06761675546372349 -0.1812538873023876 -0.08749663750562163
-0.08281391829159919 -0.15501961216646942 -0.07586360755209913
-0.09801108111947489 -0.12878533703055123 -0.06423057759857664
-0.11320824394735057 -0.10255106189463305 -0.05259754764505416
-0.12840540677522627 -0.07631678675871487 -0.040964517691531664
-0.14360256960310197 -0.05008251162279668 -0.029331487738009174
-0.15879973243097767 -0.023848236486878508 -0.01769845778448669
-0.17399689525885337 0.002386038649039671 -0.006065427830964202
-0.18919405808672907 0.028620313784957867 0.005567602122558298
-0.20439122091460477 0.054854588920876045 0.017200632076080784
-0.05970079115870253 -0.19007457916742665 -0.057263357168098855
-0.07489795398657823 -0.16384030403150848 -0.045630327214576355
-0.09009511681445392 -0.1376060288955903 -0.03399729726105387
-0.10529227964232961 -0.11137175375967209 -0.02236426730753138
-0.12048944247020531 -0.08513747862375391 -0.010731237354008888
-0.135686605298081 -0.058903203487835724 0.0009017925995136064
-0.1508837681259567 -0.03266892835191756 0.012534822553036088
-0.1660809309538324 -0.006434653215999376 0.02416785250655858
-0.1812780937817081 0.019799621919918818 0.03580088246008108
-0.1964752566095838 0.046033897055837 0.04743391241360356
-0.05178482685368157 -0.19889527103246568 -0.02703007683057607
-0.06698198968155727 -0.17266099589654751 -0.015397046877053571
-0.08217915250943297 -0.14642672076062932 -0.0037640169235310826
-0.09737631533730866 -0.12019244562471115 0.007869013029991405
-0.11257347816518436 -0.09395817048879297 0.019502042983513896
-0.12777064099306004 -0.06772389535287478 0.03113507293703639
-0.14296780382093574 -0.0414896202169566 0.04276810289055887
-0.15816496664881144 -0.015255345081038424 0.054401132844081365
-0.17336212947668714 0.01097893005487977 0.06603416279760387
-0.18855929230456284 0.03721320519079795 0.07766719275112635
-0.04386886254866061 -0.20771596289750474 0.003203203506946692
-0.05906602537653631 -0.18148168776158657 0.01483623346046919
-0.07426318820441201 -0.15524741262566838 0.026469263413991678
-0.0894603510322877 -0.12901313748975018 0.03810229336751417
-0.10465751386016339 -0.102778862353832 0.04973532332103666
-0.11985467668803908 -0.07654458721791381 0.061368353274559154
-0.1350518395159148 -0.05031031208199564 0.07300138322808164
-0.1502490023437905 -0.024076036946077465 0.08463441318160413
-0.1654461651716662 0.00215823818984073 0.09626744313512663
-0.1806433279995419 0.02839251332575891 0.10790047308864911
-0.035952898243639654 -0.21653665476254377 0.03343648384446947
-0.05115006107151535 -0.1903023796266256 0.04506951379799196
-0.06634722389939106 -0.1640681044907074 0.056702543751514456
-0.08154438672726674 -0.13783382935478924 0.06833557370503694
-0.09674154955514244 -0.11159955421887105 0.07996860365855943
-0.11193871238301813 -0.08536527908295286 0.09160163361208193
-0.1271358752108938 -0.05913100394703469 0.10323466356560441
-0.1423330380387695 -0.03289672881111651 0.1148676935191269
-0.1575302008666452 -0.006662453675198316 0.1265007234726494
-0.1727273636945209 0.019571821460719865 0.13813375342617187
-0.028036933938618693 -0.22535734662758283 0.06366976418199226
-0.04323409676649439 -0.19912307149166467 0.07530279413551476
-0.05843125959437009 -0.17288879635574647 0.08693582408903724
-0.07362842242224578 -0.14665452121982828 0.09856885404255973
-0.08882558525012148 -0.1204202460839101 0.11020188399608223
-0.10402274807799716 -0.0941859709479919 0.12183491394960472
-0.11921991090587286 -0.06795169581207373 0.1334679439031272
-0.13441707373374856 -0.04171742067615556 0.1451009738566497
-0.14961423656162426 -0.015483145540237366 0.1567340038101722
-0.16481139938949996 0.010751129595680815 0.1683670337636947
-0.020120969633597732 -0.23417803849262186 0.09390304451951503
-0.03531813246147343 -0.2079437633567037 0.10553607447303753
-0.05051529528934913 -0.1817094882207855 0.11716910442656002
-0.06571245811722481 -0.15547521308486734 0.1288021343800825
-0.08090962094510051 -0.12924093794894914 0.140435164333605
-0.0961067837729762 -0.10300666281303095 0.1520681942871275
-0.1113039466008519 -0.07677238767711278 0.16370122424064998
-0.12650110942872758 -0.050538112541194606 0.17533425419417248
-0.14169827225660328 -0.02430383740527641 0.18696728414769498
-0.15689543508447898 0.0019304377306417697 0.19860031410121745
0.15689543508447898 -0.0019304377306417697 -0.19860031410121745
0.14169827225660328 0.02430383740527641 -0.18696728414769498
0.12650110942872758 0.05053811254119459 -0.17533425419417248
0.1113039466008519 0.07677238767711277 -0.16370122424064998
0.0961067837729762 0.10300666281303095 -0.1520681942871275
0.08090962094510051 0.12924093794894914 -0.140435164333605
0.06571245811722483 0.1554752130848673 -0.12880213438008253
0.05051529528934913 0.1817094882207855 -0.11716910442656003
0.03531813246147343 0.2079437633567037 -0.10553607447303753
0.020120969633597732 0.23417803849262186 -0.09390304451951503
0.16481139938949996 -0.010751129595680815 -0.1683670337636947
0.14961423656162426 0.015483145540237366 -0.1567340038101722
0.13441707373374856 0.041717420676155546 -0.1451009738566497
0.11921991090587286 0.06795169581207372 -0.13346794390312722
0.10402274807799716 0.0941859709479919 -0.12183491394960472
0.08882558525012148 0.1204202460839101 -0.11020188399608223
0.07362842242224579 0.14665452121982828 -0.09856885404255974
0.05843125959437009 0.17288879635574647 -0.08693582408903724
0.04323409676649439 0.19912307149166467 -0.07530279413551476
0.028036933938618693 0.22535734662758283 -0.06366976418199226
0.1727273636945209 -0.01957182146071986 -0.1381337534261719
0.1575302008666452 0.00666245367519832 -0.1265007234726494
0.1423330380387695 0.0328967288111165 -0.11486769351912691
0.1271358752108938 0.05913100394703468 -0.10323466356560443
0.11193871238301811 0.08536527908295286 -0.09160163361208194
0.09674154955514243 0.11159955421887105 -0.07996860365855944
0.08154438672726674 0.13783382935478922 -0.06833557370503697
0.06634722389939104 0.1640681044907074 -0.05670254375151447
0.05115006107151535 0.1903023796266256 -0.04506951379799198
0.035952898243639654 0.21653665476254377 -0.03343648384446948
0.18064332799954186 -0.028392513325758904 -0.10790047308864913
0.16544616517166616 -0.0021582381898407246 -0.09626744313512664
0.15024900234379046 0.024076036946077458 -0.08463441318160415
0.13505183951591476 0.050310312081995635 -0.07300138322808167
0.11985467668803908 0.07654458721791382 -0.06136835327455917
0.10465751386016339 0.10277886235383202 -0.049735323321036674
0.08946035103228771 0.12901313748975018 -0.038102293367514195
0.07426318820441201 0.15524741262566838 -0.026469263413991702
0.05906602537653631 0.18148168776158657 -0.014836233460469209
0.04386886254866061 0.20771596289750474 -0.0032032035069467116
0.18855929230456284 -0.03721320519079795 -0.07766719275112635
0.17336212947668714 -0.01097893005487977 -0.06603416279760387
0.15816496664881144 0.01525534508103841 -0.05440113284408137
0.14296780382093574 0.04148962021695659 -0.042768102890558886
0.12777064099306004 0.06772389535287478 -0.03113507293703639
0.11257347816518436 0.09395817048879297 -0.019502042983513896
0.09737631533730867 0.12019244562471114 -0.007869013029991415
0.08217915250943297 0.14642672076062932 0.003764016923531079
0.06698198968155727 0.17266099589654751 0.015397046877053571
0.05178482685368157 0.19889527103246568 0.02703007683057607
0.1964752566095838 -0.046033897055837 -0.04743391241360356
0.1812780937817081 -0.019799621919918818 -0.03580088246008108
0.1660809309538324 0.006434653215999362 -0.024167852506558587
0.1508837681259567 0.032668928351917544 -0.012534822553036099
0.135686605298081 0.058903203487835724 -0.0009017925995136064
0.12048944247020531 0.08513747862375391 0.010731237354008888
0.10529227964232962 0.11137175375967208 0.02236426730753137
0.09009511681445392 0.1376060288955903 0.03399729726105386
0.07489795398657823 0.16384030403150848 0.045630327214576355
0.05970079115870253 0.19007457916742665 0.057263357168098855
0.20439122091460474 -0.05485458892087604 -0.017200632076080805
0.18919405808672904 -0.02862031378495786 -0.005567602122558318
0.17399689525885334 -0.0023860386490396793 0.006065427830964175
0.15879973243097764 0.0238482364868785 0.01769845778448666
0.14360256960310194 0.050082511622796685 0.029331487738009154
0.12840540677522627 0.07631678675871488 0.04096451769153165
0.11320824394735059 0.10255106189463305 0.05259754764505413
0.09801108111947489 0.12878533703055123 0.06423057759857663
0.08281391829159919 0.15501961216646942 0.07586360755209912
0.06761675546372349 0.1812538873023876 0.08749663750562162
0.21230718521962572 -0.06367528078591508 0.013032648261441973
0.19711002239175002 -0.0374410056499969 0.02466567821496446
0.18191285956387432 -0.011206730514078726 0.03629870816848695
0.16671569673599862 0.015027544621839455 0.04793173812200944
0.15151853390812292 0.04126181975775764 0.05956476807553193
0.13632137108024722 0.06749609489367583 0.07119779802905442
0.12112420825237154 0.093730370029594 0.0828308279825769
0.10592704542449584 0.1199646451655122 0.0944638579360994
0.09072988259662014 0.1461989203014304 0.10609688788962189
0.07553271976874444 0.17243319543734856 0.11772991784314439
0.22022314952464667 -0.07249597265095413 0.04326592859896476
0.20502598669677097 -0.046261697515035956 0.05489895855248725
0.18982882386889527 -0.020027422379117775 0.06653198850600975
0.17463166104101957 0.006206852756800406 0.07816501845953223
0.15943449821314387 0.03244112789271859 0.08979804841305472
0.1442373353852682 0.05867540302863678 0.10143107836657722
0.1290401725573925 0.08490967816455496 0.1130641083200997
0.1138430097295168 0.11114395330047315 0.1246971382736222
0.0986458469016411 0.13737822843639133 0.1363301682271447
0.0834486840737654 0.1636125035723095 0.1479631981806672
0.22813911382966764 -0.08131666451599318 0.07349920893648754
0.21294195100179195 -0.055082389380075 0.08513223889001002
0.19774478817391625 -0.02884811424415682 0.09676526884353252
0.18254762534604055 -0.00261383910823864 0.10839829879705501
0.16735046251816485 0.02362043602767954 0.1200313287505775
0.15215329969028915 0.049854711163597736 0.13166435870409998
0.13695613686241348 0.07608898629951591 0.14329738865762248
0.12175897403453777 0.1023232614354341 0.15493041861114498
0.10656181120666207 0.1285575365713523 0.16656344856466745
0.09136464837878637 0.15479181170727047 0.17819647851818995
-0.09136464837878637 -0.15479181170727047 -0.17819647851818995
-0.06378019466064577 -0.13780721459875617 -0.18046357136074856
-0.036195740942505175 -0.12082261749024187 -0.1827306642033072
-0.008611287224364585 -0.10383802038172757 -0.1849977570458658
0.018973166493776013 -0.08685342327321327 -0.1872648498884244
0.04655762021191662 -0.06986882616469897 -0.189531942730983
0.07414207393005719 -0.052884229056184666 -0.1917990355735416
0.1017265276481978 -0.03589963194767037 -0.19406612841610024
0.1293109813663384 -0.018915034839156068 -0.19633322125865885
0.15689543508447898 -0.0019304377306417697 -0.19860031410121745
-0.0834486840737654 -0.1636125035723095 -0.1479631981806672
-0.055864230355624815 -0.1466279064637952 -0.1502302910232258
-0.028279776637484214 -0.1296433093552809 -0.1524973838657844
-0.000695322919343625 -0.11265871224676662 -0.154764476708343
0.026889130798796974 -0.09567411513825232 -0.1570315695509016
0.054473584516937575 -0.07868951802973802 -0.15929866239346024
0.08205803823507815 -0.06170492092122371 -0.16156575523601885
0.10964249195321876 -0.04472032381270941 -0.16383284807857745
0.13722694567135937 -0.027735726704195114 -0.16609994092113609
0.16481139938949996 -0.010751129595680815 -0.1683670337636947
-0.07553271976874446 -0.17243319543734856 -0.1177299178431444
-0.04794826605060385 -0.15544859832883426 -0.11999701068570301
-0.020363812332463257 -0.13846400122031996 -0.12226410352826163
0.0072206413856773346 -0.12147940411180566 -0.12453119637082023
0.034805095103817935 -0.10449480700329136 -0.12679828921337885
0.06238954882195854 -0.08751020989477706 -0.12906538205593746
0.0899740025400991 -0.07052561278626276 -0.13133247489849606
0.11755845625823971 -0.05354101567774846 -0.13359956774105466
0.14514290997638032 -0.03655641856923416 -0.1358666605836133
0.1727273636945209 -0.01957182146071986 -0.1381337534261719
-0.06761675546372349 -0.1812538873023876 -0.08749663750562163
-0.04003230174558289 -0.1642692901938733 -0.08976373034818023
-0.012447848027442298 -0.147284693085359 -0.09203082319073885
0.015136605690698293 -0.1303000959768447 -0.09429791603329746
0.04272105940883889 -0.1133154988683304 -0.09656500887585608
0.0703055131269795 -0.0963309017598161 -0.0988321017184147
0.09788996684512007 -0.0793463046513018 -0.1010991945609733
0.12547442056326066 -0.062361707542787505 -0.1033662874035319
0.15305887428140127 -0.045377110434273206 -0.10563338024609052
0.18064332799954186 -0.028392513325758904 -0.10790047308864913
-0.05970079115870253 -0.19007457916742665 -0.057263357168098855
-0.032116337440561936 -0.17308998205891235 -0.05953045001065746
-0.004531883722421337 -0.15610538495039805 -0.06179754285321608
0.023052569995719252 -0.13912078784188375 -0.06406463569577468
0.05063702371385985 -0.12213619073336944 -0.06633172853833329
0.07822147743200046 -0.10515159362485514 -0.0685988213808919
0.10580593115014103 -0.08816699651634084 -0.07086591422345051
0.13339038486828164 -0.07118239940782654 -0.07313300706600913
0.16097483858642225 -0.05419780229931225 -0.07540009990856775
0.18855929230456284 -0.03721320519079795 -0.07766719275112635
-0.05178482685368157 -0.19889527103246568 -0.02703007683057607
-0.02420037313554097 -0.18191067392395138 -0.029297169673134674
0.0033840805825996246 -0.16492607681543708 -0.03156426251569329
0.030968534300740216 -0.14794147970692278 -0.033831355358251894
0.058552988018880814 -0.13095688259840849 -0.036098448200810505
0.08613744173702141 -0.1139722854898942 -0.038365541043369124
0.11372189545516198 -0.0969876883813799 -0.04063263388592773
0.1413063491733026 -0.0800030912728656 -0.04289972672848634
0.1688908028914432 -0.0630184941643513 -0.04516681957104496
0.1964752566095838 -0.046033897055837 -0.04743391241360356
-0.04386886254866061 -0.20771596289750474 0.003203203506946692
-0.016284408830520018 -0.19073136578899044 0.0009361106643880877
0.01130004488762058 -0.17374676868047614 -0.0013309821781705307
0.038884498605761174 -0.15676217157196184 -0.0035980750207291355
0.06646895232390176 -0.13977757446344755 -0.005865167863287747
0.09405340604204238 -0.12279297735493323 -0.008132260705846365
0.12163785976018295 -0.10580838024641893 -0.010399353548404969
0.14922231347832354 -0.08882378313790464 -0.01266644639096358
0.17680676719646415 -0.07183918602939034 -0.014933539233522199
0.20439122091460474 -0.05485458892087604 -0.017200632076080805
-0.035952898243639654 -0.21653665476254377 0.03343648384446947
-0.008368444525499058 -0.19955205765402947 0.031169391001910865
0.01921600919264154 -0.18256746054551518 0.028902298159352247
0.04680046291078213 -0.16558286343700088 0.026635205316793642
0.07438491662892273 -0.14859826632848658 0.02436811247423503
0.10196937034706333 -0.13161366921997228 0.022101019631676412
0.1295538240652039 -0.11462907211145798 0.019833926789117808
0.15713827778334452 -0.09764447500294368 0.017566833946559196
0.18472273150148513 -0.08065987789442938 0.015299741104000578
0.21230718521962572 -0.06367528078591508 0.013032648261441973
-0.028036933938618693 -0.22535734662758283 0.06366976418199226
-0.00045248022047809444 -0.20837274951906853 0.061402671339433654
0.0271319734976625 -0.19138815241055424 0.059135578496875035
0.054716427215803096 -0.17440355530203994 0.05686848565431643
0.0823008809339437 -0.15741895819352564 0.05460139281175782
0.10988533465208429 -0.14043436108501134 0.0523342999691992
0.13746978837022486 -0.12344976397649703 0.050067207126640596
0.16505424208836547 -0.10646516686798273 0.047800114284081985
0.19263869580650608 -0.08948056975946843 0.045533021441523366
0.22022314952464667 -0.07249597265095413 0.04326592859896476
-0.020120969633597732 -0.23417803849262186 0.09390304451951503
0.007463484084542865 -0.21719344138410757 0.09163595167695643
0.03504793780268346 -0.20020884427559327 0.08936885883439781
0.06263239152082406 -0.18322424716707897 0.0871017659918392
0.09021684523896466 -0.16623965005856467 0.0848346731492806
0.11780129895710525 -0.14925505295005037 0.08256758030672198
0.14538575267524584 -0.13227045584153607 0.08030048746416338
0.17297020639338645 -0.11528585873302177 0.07803339462160476
0.20055466011152706 -0.09830126162450747 0.07576630177904614
0.22813911382966764 -0.08131666451599318 0.07349920893648754
-0.22813911382966764 0.08131666451599318 -0.07349920893648754
-0.20055466011152706 0.09830126162450747 -0.07576630177904614
-0.17297020639338645 0.11528585873302177 -0.07803339462160476
-0.14538575267524587 0.13227045584153607 -0.08030048746416336
-0.11780129895710525 0.14925505295005037 -0.08256758030672198
-0.09021684523896466 0.16623965005856467 -0.0848346731492806
-0.06263239152082407 0.18322424716707897 -0.0871017659918392
-0.035047937802683476 0.20020884427559327 -0.08936885883439781
-0.007463484084542865 0.21719344138410757 -0.09163595167695643
0.020120969633597732 0.23417803849262186 -0.09390304451951503
-0.22022314952464667 0.07249597265095413 -0.04326592859896476
-0.19263869580650608 0.08948056975946843 -0.045533021441523366
-0.16505424208836547 0.10646516686798273 -0.047800114284081985
-0.1374697883702249 0.12344976397649703 -0.05006720712664059
-0.10988533465208429 0.14043436108501134 -0.0523342999691992
-0.0823008809339437 0.15741895819352564 -0.05460139281175782
-0.05471642721580311 0.17440355530203994 -0.056868485654316424
-0.027131973497662516 0.19138815241055424 -0.059135578496875035
0.00045248022047809444 0.20837274951906853 -0.061402671339433654
0.028036933938618693 0.22535734662758283 -0.06366976418199226
-0.21230718521962572 0.06367528078591508 -0.013032648261441985
-0.18472273150148513 0.08065987789442938 -0.01529974110400059
-0.15713827778334452 0.09764447500294368 -0.01756683394655921
-0.12955382406520394 0.11462907211145798 -0.019833926789117814
-0.10196937034706334 0.13161366921997228 -0.022101019631676426
-0.07438491662892273 0.14859826632848658 -0.024368112474235044
-0.046800462910782145 0.16558286343700088 -0.02663520531679365
-0.019216009192641558 0.18256746054551518 -0.02890229815935226
0.008368444525499055 0.19955205765402947 -0.03116939100191088
0.035952898243639654 0.21653665476254377 -0.03343648384446948
-0.20439122091460477 0.054854588920876045 0.017200632076080784
-0.17680676719646418 0.07183918602939035 0.01493353923352218
-0.14922231347832357 0.08882378313790465 0.012666446390963561
-0.12163785976018297 0.10580838024641895 0.010399353548404957
-0.09405340604204238 0.12279297735493325 0.008132260705846345
-0.06646895232390178 0.13977757446344755 0.005865167863287727
-0.03888449860576119 0.15676217157196184 0.003598075020729123
-0.011300044887620599 0.17374676868047614 0.0013309821781705114
0.01628440883052001 0.19073136578899044 -0.0009361106643881071
0.04386886254866061 0.20771596289750474 -0.0032032035069467116
-0.1964752566095838 0.046033897055837 0.04743391241360356
-0.1688908028914432 0.0630184941643513 0.04516681957104496
-0.1413063491733026 0.0800030912728656 0.04289972672848634
-0.11372189545516201 0.0969876883813799 0.040632633885927735
-0.08613744173702141 0.1139722854898942 0.038365541043369124
-0.058552988018880814 0.13095688259840849 0.036098448200810505
-0.03096853430074023 0.14794147970692278 0.0338313553582519
-0.0033840805825996385 0.16492607681543708 0.03156426251569329
0.02420037313554097 0.18191067392395138 0.029297169673134674
0.05178482685368157 0.19889527103246568 0.02703007683057607
-0.18855929230456284 0.03721320519079795 0.07766719275112635
-0.16097483858642225 0.05419780229931225 0.07540009990856775
-0.13339038486828164 0.07118239940782654 0.07313300706600913
-0.10580593115014106 0.08816699651634084 0.07086591422345052
-0.07822147743200046 0.10515159362485514 0.0685988213808919
-0.05063702371385985 0.12213619073336944 0.06633172853833329
-0.023052569995719266 0.13912078784188375 0.06406463569577468
0.004531883722421323 0.15610538495039805 0.06179754285321608
0.032116337440561936 0.17308998205891235 0.05953045001065746
0.05970079115870253 0.19007457916742665 0.057263357168098855
-0.1806433279995419 0.02839251332575891 0.10790047308864911
-0.1530588742814013 0.04537711043427321 0.10563338024609051
-0.1254744205632607 0.06236170754278751 0.10336628740353189
-0.0978899668451201 0.07934630465130181 0.10109919456097329
-0.0703055131269795 0.09633090175981611 0.09883210171841467
-0.04272105940883889 0.11331549886833041 0.09656500887585605
-0.015136605690698312 0.1303000959768447 0.09429791603329744
0.012447848027442279 0.147284693085359 0.09203082319073884
0.04003230174558289 0.1642692901938733 0.08976373034818022
0.06761675546372349 0.1812538873023876 0.08749663750562162
-0.1727273636945209 0.019571821460719865 0.13813375342617187
-0.14514290997638032 0.03655641856923417 0.13586666058361327
-0.11755845625823973 0.053541015677748466 0.13359956774105466
-0.08997400254009914 0.07052561278626276 0.13133247489849606
-0.06238954882195854 0.08751020989477706 0.12906538205593746
-0.034805095103817935 0.10449480700329136 0.12679828921337882
-0.007220641385677352 0.12147940411180566 0.12453119637082022
0.02036381233246324 0.13846400122031996 0.12226410352826161
0.04794826605060385 0.15544859832883426 0.119997010685703
0.07553271976874444 0.17243319543734856 0.11772991784314439
-0.16481139938949996 0.010751129595680815 0.1683670337636947
-0.13722694567135937 0.027735726704195114 0.16609994092113609
-0.10964249195321876 0.04472032381270941 0.16383284807857745
-0.08205803823507818 0.06170492092122371 0.16156575523601885
-0.054473584516937575 0.07868951802973802 0.15929866239346024
-0.026889130798796974 0.09567411513825232 0.1570315695509016
0.0006953229193436112 0.11265871224676662 0.154764476708343
0.0282797766374842 0.1296433093552809 0.1524973838657844
0.055864230355624815 0.1466279064637952 0.1502302910232258
0.0834486840737654 0.1636125035723095 0.1479631981806672
-0.15689543508447898 0.0019304377306417697 0.19860031410121745
-0.1293109813663384 0.018915034839156068 0.19633322125865885
-0.1017265276481978 0.03589963194767037 0.19406612841610024
-0.07414207393005721 0.052884229056184666 0.19179903557354164
-0.04655762021191662 0.06986882616469897 0.189531942730983
-0.018973166493776013 0.08685342327321327 0.1872648498884244
0.00861128722436457 0.10383802038172757 0.1849977570458658
0.03619574094250516 0.12082261749024187 0.1827306642033072
0.06378019466064577 0.13780721459875617 0.18046357136074856
0.09136464837878637 0.15479181170727047 0.17819647851818995
-0.09136464837878637 -0.15479181170727047 -0.17819647851818995
-0.06378019466064577 -0.13780721459875617 -0.18046357136074856
-0.036195740942505175 -0.12082261749024187 -0.1827306642033072
-0.008611287224364585 -0.10383802038172757 -0.1849977570458658
0.018973166493776013 -0.08685342327321327 -0.1872648498884244
0.04655762021191662 -0.06986882616469897 -0.189531942730983
0.07414207393005719 -0.052884229056184666 -0.1917990355735416
0.1017265276481978 -0.03589963194767037 -0.19406612841610024
0.1293109813663384 -0.018915034839156068 -0.19633322125865885
0.15689543508447898 -0.0019304377306417697 -0.19860031410121745
-0.10656181120666207 -0.1285575365713523 -0.16656344856466745
-0.07897735748852147 -0.111572939462838 -0.1688305414072261
-0.051392903770380874 -0.0945883423543237 -0.1710976342497847
-0.023808450052240283 -0.07760374524580939 -0.1733647270923433
0.003776003665900314 -0.06061914813729508 -0.1756318199349019
0.03136045738404092 -0.043634551028780784 -0.17789891277746053
0.05894491110218149 -0.0266499539202665 -0.18016600562001914
0.08652936482032209 -0.009665356811752193 -0.18243309846257774
0.11411381853846271 0.007319240296762113 -0.18470019130513635
0.14169827225660328 0.02430383740527641 -0.18696728414769498
-0.12175897403453777 -0.1023232614354341 -0.15493041861114498
-0.09417452031639717 -0.0853386643269198 -0.1571975114537036
-0.06659006659825657 -0.0683540672184055 -0.1594646042962622
-0.03900561288011598 -0.0513694701098912 -0.1617316971388208
-0.011421159161975385 -0.0343848730013769 -0.16399878998137943
0.016163294556165213 -0.017400275892862603 -0.16626588282393803
0.04374774827430579 -0.0004156787843483114 -0.16853297566649664
0.07133220199244639 0.016568918324165988 -0.17080006850905524
0.09891665571058701 0.03355351543268029 -0.17306716135161387
0.12650110942872758 0.05053811254119459 -0.17533425419417248
-0.13695613686241345 -0.07608898629951592 -0.14329738865762248
-0.10937168314427285 -0.05910438919100162 -0.1455644815001811
-0.08178722942613226 -0.04211979208248732 -0.14783157434273972
-0.054202775707991674 -0.02513519497397302 -0.15009866718529832
-0.026618321989851076 -0.008150597865458721 -0.15236576002785693
0.0009661317282895277 0.008833999243055578 -0.15463285287041553
0.028550585446430105 0.02581859635156987 -0.15689994571297416
0.0561350391645707 0.04280319346008417 -0.15916703855553277
0.08371949288271131 0.059787790568598474 -0.16143413139809137
0.1113039466008519 0.07677238767711277 -0.16370122424064998
-0.15215329969028915 -0.049854711163597736 -0.13166435870409998
-0.12456884597214855 -0.03287011405508344 -0.13393145154665861
-0.09698439225400796 -0.015885516946569138 -0.13619854438921722
-0.06939993853586737 0.0010990801619451607 -0.13846563723177582
-0.04181548481772677 0.01808367727045946 -0.14073273007433443
-0.01423103109958617 0.035068274378973766 -0.14299982291689306
0.013353422618554413 0.05205287148748805 -0.14526691575945166
0.040937876336695 0.06903746859600235 -0.14753400860201027
0.06852233005483561 0.08602206570451665 -0.14980110144456887
0.0961067837729762 0.10300666281303095 -0.1520681942871275
-0.16735046251816485 -0.02362043602767954 -0.1200313287505775
-0.13976600880002427 -0.006635838919165242 -0.12229842159313611
-0.11218155508188365 0.010348758189349053 -0.12456551443569472
-0.08459710136374307 0.02733335529786335 -0.12683260727825332
-0.05701264764560247 0.04431795240637765 -0.12909970012081196
-0.029428193927461866 0.06130254951489195 -0.13136679296337056
-0.0018437402093212862 0.07828714662340623 -0.13363388580592916
0.025740713508819305 0.09527174373192053 -0.13590097864848777
0.053325167226959916 0.11225634084043484 -0.1381680714910464
0.08090962094510051 0.12924093794894914 -0.140435164333605
-0.18254762534604055 0.002613839108238626 -0.10839829879705502
-0.15496317162789994 0.019598436216752925 -0.11066539163961363
-0.12737871790975935 0.036583033325267224 -0.11293248448217225
-0.09979426419161876 0.053567630433781516 -0.11519957732473085
-0.07220981047347816 0.07055222754229581 -0.11746667016728947
-0.044625356755337554 0.08753682465081011 -0.11973376300984807
-0.01704090303719697 0.10452142175932441 -0.12200085585240668
0.01054355068094362 0.12150601886783871 -0.1242679486949653
0.03812800439908423 0.138490615976353 -0.1265350415375239
0.06571245811722483 0.1554752130848673 -0.12880213438008253
-0.19774478817391625 0.028848114244156807 -0.09676526884353252
-0.17016033445577566 0.045832711352671106 -0.09903236168609113
-0.14257588073763505 0.0628173084611854 -0.10129945452864975
-0.11499142701949445 0.0798019055696997 -0.10356654737120835
-0.08740697330135386 0.096786502678214 -0.10583364021376697
-0.05982251958321325 0.1137710997867283 -0.10810073305632559
-0.03223806586507267 0.13075569689524258 -0.11036782589888419
-0.004653612146932079 0.14774029400375688 -0.11263491874144281
0.022930841571208532 0.1647248911122712 -0.11490201158400142
0.05051529528934913 0.1817094882207855 -0.11716910442656003
-0.21294195100179195 0.055082389380075 -0.08513223889001002
-0.18535749728365136 0.0720669864885893 -0.08739933173256864
-0.15777304356551075 0.08905158359710359 -0.08966642457512725
-0.13018858984737017 0.10603618070561789 -0.09193351741768586
-0.10260413612922956 0.12302077781413219 -0.09420061026024447
-0.07501968241108896 0.1400053749226465 -0.09646770310280309
-0.04743522869294837 0.15698997203116077 -0.09873479594536169
-0.019850774974807778 0.17397456913967507 -0.10100188878792031
0.0077336787433328336 0.1909591662481894 -0.10326898163047891
0.03531813246147343 0.2079437633567037 -0.10553607447303753
-0.22813911382966764 0.08131666451599318 -0.07349920893648754
-0.20055466011152706 0.09830126162450747 -0.07576630177904614
-0.17297020639338645 0.11528585873302177 -0.07803339462160476
-0.14538575267524587 0.13227045584153607 -0.08030048746416336
-0.11780129895710525 0.14925505295005037 -0.08256758030672198
-0.09021684523896466 0.16623965005856467 -0.0848346731492806
-0.06263239152082407 0.18322424716707897 -0.0871017659918392
-0.035047937802683476 0.20020884427559327 -0.08936885883439781
-0.007463484084542865 0.21719344138410757 -0.09163595167695643
0.020120969633597732 0.23417803849262186 -0.09390304451951503
-0.020120969633597732 -0.23417803849262186 0.09390304451951503
0.007463484084542865 -0.21719344138410757 0.09163595167695643
0.03504793780268346 -0.20020884427559327 0.08936885883439781
0.06263239152082406 -0.18322424716707897 0.0871017659918392
0.09021684523896466 -0.16623965005856467 0.0848346731492806
0.11780129895710525 -0.14925505295005037 0.08256758030672198
0.14538575267524584 -0.13227045584153607 0.08030048746416338
0.17297020639338645 -0.11528585873302177 0.07803339462160476
0.20055466011152706 -0.09830126162450747 0.07576630177904614
0.22813911382966764 -0.08131666451599318 0.07349920893648754
-0.03531813246147343 -0.2079437633567037 0.10553607447303753
-0.0077336787433328336 -0.1909591662481894 0.10326898163047891
0.019850774974807764 -0.1739745691396751 0.10100188878792031
0.047435228692948354 -0.1569899720311608 0.0987347959453617
0.07501968241108896 -0.1400053749226465 0.09646770310280309
0.10260413612922956 -0.12302077781413219 0.09420061026024447
0.13018858984737014 -0.1060361807056179 0.09193351741768586
0.15777304356551072 -0.0890515835971036 0.08966642457512726
0.18535749728365136 -0.0720669864885893 0.08739933173256864
0.21294195100179195 -0.055082389380075 0.08513223889001002
-0.05051529528934913 -0.1817094882207855 0.11716910442656002
-0.022930841571208532 -0.1647248911122712 0.11490201158400142
0.004653612146932065 -0.1477402940037569 0.1126349187414428
0.032238065865072656 -0.1307556968952426 0.11036782589888419
0.05982251958321325 -0.11377109978672831 0.10810073305632557
0.08740697330135386 -0.09678650267821401 0.10583364021376697
0.11499142701949443 -0.07980190556969972 0.10356654737120835
0.14257588073763502 -0.06281730846118543 0.10129945452864975
0.17016033445577566 -0.04583271135267112 0.09903236168609113
0.19774478817391625 -0.02884811424415682 0.09676526884353252
-0.06571245811722481 -0.15547521308486734 0.1288021343800825
-0.03812800439908422 -0.13849061597635304 0.1265350415375239
-0.01054355068094362 -0.12150601886783872 0.12426794869496528
0.017040903037196967 -0.10452142175932443 0.12200085585240668
0.04462535675533756 -0.08753682465081013 0.11973376300984806
0.07220981047347817 -0.07055222754229583 0.11746667016728946
0.09979426419161874 -0.05356763043378154 0.11519957732473084
0.12737871790975935 -0.036583033325267245 0.11293248448217223
0.15496317162789996 -0.01959843621675294 0.11066539163961361
0.18254762534604055 -0.00261383910823864 0.10839829879705501
-0.08090962094510051 -0.12924093794894914 0.140435164333605
-0.053325167226959916 -0.11225634084043484 0.1381680714910464
-0.02574071350881932 -0.09527174373192054 0.13590097864848777
0.0018437402093212723 -0.07828714662340625 0.13363388580592916
0.029428193927461866 -0.06130254951489195 0.13136679296337056
0.05701264764560247 -0.04431795240637765 0.12909970012081196
0.08459710136374306 -0.02733335529786336 0.12683260727825332
0.11218155508188364 -0.01034875818934906 0.12456551443569472
0.13976600880002427 0.006635838919165242 0.12229842159313611
0.16735046251816485 0.02362043602767954 0.1200313287505775
-0.0961067837729762 -0.10300666281303095 0.1520681942871275
-0.06852233005483561 -0.08602206570451665 0.14980110144456887
-0.04093787633669502 -0.06903746859600236 0.14753400860201027
-0.013353422618554427 -0.052052871487488064 0.14526691575945166
0.01423103109958617 -0.035068274378973766 0.14299982291689306
0.04181548481772677 -0.01808367727045946 0.14073273007433443
0.06939993853586736 -0.0010990801619451746 0.13846563723177582
0.09698439225400794 0.015885516946569124 0.13619854438921722
0.12456884597214855 0.03287011405508344 0.13393145154665861
0.15215329969028915 0.049854711163597736 0.13166435870409998
-0.1113039466008519 -0.07677238767711278 0.16370122424064998
-0.0837194928827113 -0.05978779056859849 0.16143413139809137
-0.0561350391645707 -0.04280319346008419 0.15916703855553277
-0.02855058544643012 -0.025818596351569894 0.15689994571297414
-0.0009661317282895138 -0.008833999243055592 0.15463285287041553
0.026618321989851087 0.008150597865458707 0.15236576002785693
0.05420277570799167 0.025135194973973006 0.15009866718529832
0.08178722942613226 0.042119792082487305 0.1478315743427397
0.10937168314427287 0.059104389191001604 0.1455644815001811
0.13695613686241348 0.07608898629951591 0.14329738865762248
-0.12650110942872758 -0.050538112541194606 0.17533425419417248
-0.09891665571058701 -0.03355351543268031 0.17306716135161387
-0.0713322019924464 -0.01656891832416601 0.17080006850905524
-0.04374774827430582 0.0004156787843482906 0.16853297566649664
-0.016163294556165213 0.01740027589286259 0.16626588282393803
0.011421159161975385 0.03438487300137689 0.16399878998137943
0.03900561288011597 0.05136947010989117 0.1617316971388208
0.06659006659825656 0.06835406721840548 0.1594646042962622
0.09417452031639717 0.0853386643269198 0.1571975114537036
0.12175897403453777 0.1023232614354341 0.15493041861114498
-0.14169827225660328 -0.02430383740527641 0.18696728414769498
-0.11411381853846271 -0.007319240296762113 0.18470019130513635
-0.0865293648203221 0.009665356811752186 0.18243309846257774
-0.058944911102181516 0.026649953920266485 0.18016600562001914
-0.03136045738404092 0.043634551028780784 0.17789891277746053
-0.003776003665900314 0.06061914813729508 0.1756318199349019
0.02380845005224027 0.07760374524580937 0.1733647270923433
0.05139290377038086 0.09458834235432367 0.1710976342497847
0.07897735748852147 0.111572939462838 0.1688305414072261
0.10656181120666207 0.1285575365713523 0.16656344856466745
-0.15689543508447898 0.0019304377306417697 0.19860031410121745
-0.1293109813663384 0.018915034839156068 0.19633322125865885
-0.1017265276481978 0.03589963194767037 0.19406612841610024
-0.07414207393005721 0.052884229056184666 0.19179903557354164
-0.04655762021191662 0.06986882616469897 0.189531942730983
-0.018973166493776013 0.08685342327321327 0.1872648498884244
0.00861128722436457 0.10383802038172757 0.1849977570458658
0.03619574094250516 0.12082261749024187 0.1827306642033072
0.06378019466064577 0.13780721459875617 0.18046357136074856
0.09136464837878637 0.15479181170727047 0.17819647851818995
