# .PCD v0.7 - Point Cloud Data file format
VERSION 0.7
FIELDS x y z
SIZE 4 4 4
TYPE F F F
COUNT 1 1 1
WIDTH 600
HEIGHT 1
VIEWPOINT 0 0 0 1 0 0 0
POINTS 600
DATA ascii
-0.06896932241289103 -0.24560928521914838 0.01466845525234069
-0.08551628488573457 -0.22222189721454613 -0.0012707089271738303
-0.10206324735857811 -0.1988345092099439 -0.01720987310668835
-0.11861020983142165 -0.17544712120534164 -0.03314903728620286
-0.1351571723042652 -0.1520597332007394 -0.04908820146571738
-0.15170413477710873 -0.12867234519613716 -0.0650273656452319
-0.16825109724995227 -0.10528495719153493 -0.0809665298247464
-0.1847980597227958 -0.08189756918693267 -0.09690569400426093
-0.20134502219563935 -0.05851018118233042 -0.11284485818377545
-0.2178919846684829 -0.035122793177728165 -0.12878402236328995
-0.06513769681273972 -0.22546474274996006 0.04024862126947899
-0.08168465928558326 -0.20207735474535782 0.02430945708996447
-0.0982316217584268 -0.17868996674075557 0.00837029291044995
-0.11477858423127034 -0.15530257873615333 -0.007568871269064557
-0.13132554670411387 -0.13191519073155109 -0.023508035448579077
-0.1478725091769574 -0.10852780272694881 -0.03944719962809359
-0.16441947164980095 -0.08514041472234658 -0.0553863638076081
-0.1809664341226445 -0.06175302671774433 -0.07132552798712262
-0.19751339659548803 -0.03836563871314209 -0.08726469216663714
-0.21406035906833157 -0.014978250708539833 -0.10320385634615166
-0.061306071212588395 -0.20532020028077172 0.06582878728661729
-0.07785303368543194 -0.18193281227616948 0.04988962310710277
-0.09439999615827548 -0.15854542427156723 0.03395045892758825
-0.11094695863111902 -0.135158036266965 0.018011294748073742
-0.12749392110396254 -0.11177064826236274 0.0020721305685592233
-0.14404088357680608 -0.08838326025776048 -0.013867033610955298
-0.16058784604964962 -0.06499587225315825 -0.029806197790469804
-0.17713480852249316 -0.041608484248555996 -0.04574536196998432
-0.1936817709953367 -0.018221096243953756 -0.06168452614949884
-0.21022873346818025 0.0051662917606485025 -0.07762369032901337
-0.05747444561243708 -0.1851756578115834 0.09140895330375558
-0.07402140808528061 -0.16178826980698116 0.07546978912424106
-0.09056837055812415 -0.13840088180237892 0.05953062494472653
-0.1071153330309677 -0.11501349379777666 0.043591460765212024
-0.12366229550381123 -0.09162610579317441 0.027652296585697508
-0.1402092579766548 -0.06823871778857216 0.011713132406182986
-0.15675622044949833 -0.044851329783969926 -0.004226031773331519
-0.17330318292234187 -0.02146394177936768 -0.02016519595284604
-0.1898501453951854 0.0019234462252345666 -0.03610436013236056
-0.20639710786802895 0.025310834229836824 -0.05204352431187508
-0.05364282001228576 -0.16503111534239506 0.11698911932089387
-0.0701897824851293 -0.14164372733779282 0.10104995514137935
-0.08673674495797284 -0.11825633933319057 0.08511079096186483
-0.10328370743081638 -0.09486895132858833 0.06917162678235032
-0.11983066990365993 -0.07148156332398609 0.0532324626028358
-0.13637763237650347 -0.04809417531938382 0.03729329842332128
-0.152924594849347 -0.024706787314781594 0.02135413424380678
-0.16947155732219055 -0.0013193993101793427 0.005414970064292261
-0.1860185197950341 0.0220679886944229 -0.01052419411522226
-0.20256548226787763 0.04545537669902516 -0.02646335829473678
-0.04981119441213444 -0.14488657287320672 0.14256928533803218
-0.06635815688497798 -0.12149918486860448 0.12663012115851766
-0.08290511935782152 -0.09811179686400223 0.11069095697900314
-0.09945208183066506 -0.07472440885939999 0.09475179279948863
-0.1159990443035086 -0.05133702085479775 0.07881262861997411
-0.13254600677635214 -0.02794963285019549 0.06287346444045959
-0.14909296924919568 -0.004562244845593259 0.04693430026094508
-0.16563993172203922 0.018825143159008993 0.03099513608143056
-0.18218689419488276 0.04221253116361123 0.01505597190191604
-0.1987338566677263 0.06559991916821349 -0.00088319227759848
-0.045979568811983125 -0.1247420304040184 0.16814945135517045
-0.06252653128482667 -0.10135464239941616 0.15221028717565593
-0.07907349375767021 -0.07796725439481392 0.13627112299614141
-0.09562045623051375 -0.054579866390211666 0.12033195881662691
-0.1121674187033573 -0.031192478385609426 0.10439279463711239
-0.12871438117620082 -0.007805090381007167 0.08845363045759787
-0.14526134364904436 0.015582297623595063 0.07251446627808336
-0.1618083061218879 0.03896968562819732 0.05657530209856884
-0.17835526859473144 0.06235707363279956 0.04063613791905432
-0.19490223106757498 0.08574446163740182 0.024696973739539805
-0.04214794321183181 -0.10459748793483006 0.19372961737230876
-0.05869490568467535 -0.08121009993022782 0.17779045319279424
-0.07524186815751889 -0.05782271192562558 0.16185128901327972
-0.09178883063036243 -0.03443532392102334 0.1459121248337652
-0.10833579310320597 -0.01104793591642109 0.12997296065425068
-0.12488275557604951 0.012339452088181168 0.11403379647473617
-0.14142971804889307 0.035726840092783395 0.09809463229522167
-0.1579766805217366 0.059114228097385646 0.08215546811570715
-0.17452364299458015 0.08250161610198789 0.06621630393619263
-0.1910706054674237 0.10588900410659015 0.0502771397566781
-0.038316317611680493 -0.08445294546564173 0.21930978338944707
-0.054863280084524034 -0.06106555746103949 0.20337061920993255
-0.07141024255736757 -0.03767816945643725 0.18743145503041803
-0.08795720503021111 -0.014290781451834999 0.1714922908509035
-0.10450416750305465 0.009096606552767245 0.15555312667138899
-0.12105112997589819 0.0324839945573695 0.13961396249187447
-0.13759809244874174 0.05587138256197173 0.12367479831235996
-0.15414505492158528 0.07925877056657399 0.10773563413284544
-0.17069201739442882 0.10264615857117623 0.09179646995333092
-0.18723897986727236 0.12603354657577848 0.0758573057738164
-0.03448469201152918 -0.06430840299645339 0.24488994940658534
-0.05103165448437272 -0.040921014991851155 0.22895078522707082
-0.06757861695721626 -0.017533626987248908 0.2130116210475563
-0.0841255794300598 0.005853761017353336 0.1970724568680418
-0.10067254190290334 0.02924114902195558 0.1811332926885273
-0.11721950437574688 0.052628537026557835 0.16519412850901277
-0.13376646684859042 0.07601592503116007 0.14925496432949825
-0.15031342932143396 0.09940331303576232 0.13331580014998373
-0.1668603917942775 0.12279070104036456 0.11737663597046923
-0.18340735426712104 0.14617808904496682 0.1014374717909547
0.18340735426712104 -0.14617808904496682 -0.1014374717909547
0.1668603917942775 -0.12279070104036456 -0.11737663597046923
0.15031342932143396 -0.09940331303576232 -0.13331580014998373
0.13376646684859042 -0.07601592503116009 -0.14925496432949825
0.11721950437574688 -0.052628537026557835 -0.16519412850901277
0.10067254190290334 -0.02924114902195558 -0.1811332926885273
0.08412557943005981 -0.0058537610173533495 -0.19707245686804178
0.06757861695721626 0.017533626987248908 -0.2130116210475563
0.05103165448437272 0.040921014991851155 -0.22895078522707082
0.03448469201152918 0.06430840299645339 -0.24488994940658534
0.18723897986727236 -0.12603354657577848 -0.0758573057738164
0.17069201739442882 -0.10264615857117623 -0.09179646995333092
0.15414505492158528 -0.07925877056657399 -0.10773563413284544
0.13759809244874174 -0.055871382561971744 -0.12367479831235995
0.12105112997589819 -0.0324839945573695 -0.13961396249187447
0.10450416750305465 -0.009096606552767245 -0.15555312667138899
0.08795720503021112 0.014290781451834985 -0.1714922908509035
0.07141024255736757 0.03767816945643725 -0.18743145503041803
0.054863280084524034 0.06106555746103949 -0.20337061920993255
0.038316317611680493 0.08445294546564173 -0.21930978338944707
0.1910706054674237 -0.10588900410659015 -0.0502771397566781
0.17452364299458015 -0.08250161610198789 -0.06621630393619263
0.1579766805217366 -0.059114228097385646 -0.08215546811570715
0.14142971804889307 -0.03572684009278341 -0.09809463229522165
0.12488275557604951 -0.012339452088181168 -0.11403379647473617
0.10833579310320597 0.01104793591642109 -0.12997296065425068
0.09178883063036244 0.034435323921023324 -0.1459121248337652
0.07524186815751889 0.05782271192562558 -0.16185128901327972
0.05869490568467535 0.08121009993022782 -0.17779045319279424
0.04214794321183181 0.10459748793483006 -0.19372961737230876
0.19490223106757498 -0.08574446163740183 -0.02469697373953982
0.17835526859473144 -0.06235707363279957 -0.04063613791905434
0.1618083061218879 -0.038969685628197324 -0.05657530209856886
0.14526134364904436 -0.01558229762359509 -0.07251446627808336
0.12871438117620082 0.007805090381007154 -0.08845363045759788
0.1121674187033573 0.03119247838560941 -0.1043927946371124
0.09562045623051377 0.054579866390211645 -0.12033195881662691
0.07907349375767021 0.0779672543948139 -0.13627112299614144
0.06252653128482667 0.10135464239941615 -0.15221028717565596
0.045979568811983125 0.12474203040401839 -0.16814945135517048
0.1987338566677263 -0.06559991916821349 0.00088319227759848
0.18218689419488276 -0.04221253116361123 -0.01505597190191604
0.16563993172203922 -0.018825143159008993 -0.03099513608143056
0.14909296924919568 0.004562244845593245 -0.04693430026094507
0.13254600677635214 0.02794963285019549 -0.06287346444045959
0.1159990443035086 0.05133702085479775 -0.07881262861997411
0.09945208183066508 0.07472440885939997 -0.09475179279948862
0.08290511935782152 0.09811179686400223 -0.11069095697900314
0.06635815688497798 0.12149918486860448 -0.12663012115851766
0.04981119441213444 0.14488657287320672 -0.14256928533803218
0.20256548226787763 -0.04545537669902516 0.02646335829473678
0.1860185197950341 -0.0220679886944229 0.01052419411522226
0.16947155732219055 0.0013193993101793427 -0.005414970064292261
0.152924594849347 0.02470678731478158 -0.021354134243806767
0.13637763237650347 0.04809417531938382 -0.03729329842332128
0.11983066990365993 0.07148156332398609 -0.0532324626028358
0.1032837074308164 0.09486895132858832 -0.06917162678235031
0.08673674495797284 0.11825633933319057 -0.08511079096186483
0.0701897824851293 0.14164372733779282 -0.10104995514137935
0.05364282001228576 0.16503111534239506 -0.11698911932089387
0.20639710786802895 -0.025310834229836838 0.05204352431187506
0.1898501453951854 -0.0019234462252345793 0.03610436013236054
0.17330318292234187 0.021463941779367664 0.020165195952846025
0.15675622044949833 0.044851329783969905 0.004226031773331517
0.1402092579766548 0.06823871778857214 -0.011713132406183003
0.12366229550381123 0.0916261057931744 -0.02765229658569752
0.10711533303096771 0.11501349379777663 -0.04359146076521203
0.09056837055812415 0.1384008818023789 -0.05953062494472655
0.07402140808528061 0.16178826980698113 -0.07546978912424107
0.05747444561243708 0.18517565781158338 -0.09140895330375559
0.21022873346818025 -0.0051662917606485025 0.07762369032901337
0.1936817709953367 0.018221096243953756 0.06168452614949884
0.17713480852249316 0.041608484248555996 0.04574536196998432
0.16058784604964962 0.06499587225315824 0.029806197790469818
0.14404088357680608 0.08838326025776048 0.013867033610955298
0.12749392110396254 0.11177064826236274 -0.0020721305685592233
0.11094695863111903 0.13515803626696496 -0.01801129474807373
0.09439999615827548 0.15854542427156723 -0.03395045892758825
0.07785303368543194 0.18193281227616948 -0.04988962310710277
0.061306071212588395 0.20532020028077172 -0.06582878728661729
0.21406035906833157 0.014978250708539833 0.10320385634615166
0.19751339659548803 0.03836563871314209 0.08726469216663714
0.1809664341226445 0.06175302671774433 0.07132552798712262
0.16441947164980095 0.08514041472234657 0.05538636380760811
0.1478725091769574 0.10852780272694881 0.03944719962809359
0.13132554670411387 0.13191519073155109 0.023508035448579077
0.11477858423127035 0.1553025787361533 0.0075688712690645706
0.0982316217584268 0.17868996674075557 -0.00837029291044995
0.08168465928558326 0.20207735474535782 -0.02430945708996447
0.06513769681273972 0.22546474274996006 -0.04024862126947899
0.2178919846684829 0.035122793177728165 0.12878402236328995
0.20134502219563935 0.05851018118233042 0.11284485818377545
0.1847980597227958 0.08189756918693267 0.09690569400426093
0.16825109724995227 0.10528495719153491 0.08096652982474642
0.15170413477710873 0.12867234519613716 0.0650273656452319
0.1351571723042652 0.1520597332007394 0.04908820146571738
0.11861020983142166 0.17544712120534164 0.03314903728620287
0.10206324735857811 0.1988345092099439 0.01720987310668835
0.08551628488573457 0.22222189721454613 0.0012707089271738303
0.06896932241289103 0.24560928521914838 -0.01466845525234069
-0.06896932241289103 -0.24560928521914838 0.01466845525234069
-0.04092746944844523 -0.2345613745331282 0.001767796691974538
-0.012885616483999456 -0.22351346384710805 -0.011132861868391613
0.015156236480446323 -0.21246555316108787 -0.024033520428757765
0.04319808944489211 -0.2014176424750677 -0.036934178989123934
0.0712399424093379 -0.1903697317890475 -0.049834837549490085
0.09928179537378368 -0.17932182110302736 -0.06273549610985624
0.12732364833822946 -0.16827391041700718 -0.07563615467022239
0.15536550130267524 -0.157225999730987 -0.08853681323058854
0.18340735426712104 -0.14617808904496682 -0.1014374717909547
-0.06513769681273972 -0.22546474274996006 0.04024862126947899
-0.03709584384829392 -0.21441683206393988 0.027347962709112838
-0.009053990883848138 -0.20336892137791973 0.014447304148746686
0.01898786208059764 -0.19232101069189955 0.0015466455883805345
0.04702971504504343 -0.18127310000587937 -0.011354012971985631
0.0750715680094892 -0.1702251893198592 -0.024254671532351783
0.10311342097393499 -0.15917727863383901 -0.03715533009271793
0.13115527393838078 -0.14812936794781884 -0.05005598865308409
0.15919712690282656 -0.13708145726179868 -0.06295664721345025
0.18723897986727236 -0.12603354657577848 -0.0758573057738164
-0.061306071212588395 -0.20532020028077172 0.06582878728661729
-0.0332642182481426 -0.19427228959475154 0.05292812872625114
-0.005222365283696821 -0.1832243789087314 0.04002747016588499
0.022819487680748957 -0.1721764682227112 0.027126811605518834
0.05086134064519474 -0.16112855753669103 0.014226153045152668
0.07890319360964053 -0.15008064685067085 0.0013254944847865171
0.10694504657408631 -0.13903273616465067 -0.011575164075579635
0.1349868995385321 -0.1279848254786305 -0.024475822635945794
0.16302875250297788 -0.11693691479261034 -0.03737648119631194
0.1910706054674237 -0.10588900410659015 -0.0502771397566781
-0.05747444561243708 -0.1851756578115834 0.09140895330375558
-0.029432592647991286 -0.17412774712556323 0.07850829474338943
-0.001390739683545506 -0.16307983643954307 0.06560763618302327
0.026651113280900272 -0.1520319257535229 0.052706977622657115
0.05469296624534606 -0.14098401506750272 0.03980631906229095
0.08273481920979185 -0.12993610438148254 0.0269056605019248
0.11077667217423763 -0.11888819369546236 0.014005001941558648
0.1388185251386834 -0.10784028300944218 0.0011043433811924904
0.16686037810312918 -0.09679237232342201 -0.011796315179173662
0.19490223106757498 -0.08574446163740183 -0.02469697373953982
-0.05364282001228576 -0.16503111534239506 0.11698911932089387
-0.025600967047839967 -0.15398320465637488 0.10408846076052772
0.0024408859166058115 -0.14293529397035473 0.09118780220016157
0.03048273888105159 -0.13188738328433455 0.07828714363979541
0.058524591845497374 -0.12083947259831437 0.06538648507942925
0.08656644480994316 -0.1097915619122942 0.0524858265190631
0.11460829777438894 -0.09874365122627403 0.039585167958696946
0.14265015073883472 -0.08769574054025385 0.02668450939833079
0.1706920037032805 -0.07664782985423368 0.013783850837964639
0.1987338566677263 -0.06559991916821349 0.00088319227759848
-0.04981119441213444 -0.14488657287320672 0.14256928533803218
-0.02176934144768865 -0.13383866218718654 0.12966862677766602
0.006272511516757129 -0.12279075150116639 0.11676796821729987
0.03431436448120291 -0.11174284081514621 0.10386730965693372
0.0623562174456487 -0.10069493012912603 0.09096665109656756
0.09039807041009448 -0.08964701944310585 0.0780659925362014
0.11843992337454026 -0.07859910875708569 0.06516533397583525
0.14648177633898604 -0.06755119807106551 0.05226467541546909
0.17452362930343182 -0.05650328738504535 0.03936401685510294
0.20256548226787763 -0.04545537669902516 0.02646335829473678
-0.045979568811983125 -0.1247420304040184 0.16814945135517045
-0.017937715847537335 -0.11369411971799823 0.1552487927948043
0.010104137116908444 -0.10264620903197808 0.14234813423443815
0.03814599008135423 -0.0915982983459579 0.129447475674072
0.06618784304580001 -0.08055038765993772 0.11654681711370583
0.09422969601024579 -0.06950247697391754 0.10364615855333968
0.12227154897469157 -0.058454566287897365 0.09074549999297353
0.15031340193913736 -0.047406655601877186 0.07784484143260738
0.17835525490358314 -0.03635874491585702 0.06494418287224123
0.20639710786802895 -0.025310834229836838 0.05204352431187506
-0.04214794321183181 -0.10459748793483006 0.19372961737230876
-0.014106090247386018 -0.09354957724880988 0.1808289588119426
0.013935762717059761 -0.08250166656278973 0.16792830025157646
0.04197761568150554 -0.07145375587676955 0.1550276416912103
0.07001946864595132 -0.06040584519074938 0.14212698313084413
0.09806132161039711 -0.0493579345047292 0.12922632457047797
0.12610317457484288 -0.03831002381870904 0.11632566601011184
0.15414502753928866 -0.027262113132688854 0.10342500744974567
0.18218688050373444 -0.01621420244666869 0.09052434888937952
0.21022873346818025 -0.0051662917606485025 0.07762369032901337
-0.038316317611680493 -0.08445294546564173 0.21930978338944707
-0.0102744646472347 -0.07340503477962156 0.20640912482908091
0.01776738831721108 -0.062357124093601404 0.19350846626871476
0.04580924128165686 -0.051309213407581225 0.1806078077083486
0.07385109424610264 -0.040261302721561046 0.16770714914798243
0.10189294721054844 -0.029213392035540863 0.15480649058761628
0.1299348001749942 -0.018165481349520698 0.14190583202725013
0.15797665313943998 -0.007117570663500519 0.12900517346688398
0.18601850610388576 0.003930340022519646 0.11610451490651783
0.21406035906833157 0.014978250708539833 0.10320385634615166
-0.03448469201152918 -0.06430840299645339 0.24488994940658534
-0.006442839047083383 -0.05326049231043322 0.2319892908462192
0.021599013917362398 -0.04221258162441307 0.21908863228585304
0.049640866881808174 -0.031164670938392886 0.2061879737254869
0.07768271984625397 -0.020116760252372707 0.19328731516512074
0.10572457281069975 -0.00906884956635253 0.18038665660475459
0.13376642577514553 0.0019790611196676368 0.16748599804438843
0.1618082787395913 0.013026971805687815 0.15458533948402228
0.18985013170403708 0.024074882491707982 0.14168468092365613
0.2178919846684829 0.035122793177728165 0.12878402236328995
-0.2178919846684829 -0.035122793177728165 -0.12878402236328995
-0.18985013170403708 -0.024074882491707982 -0.14168468092365613
-0.1618082787395913 -0.013026971805687815 -0.15458533948402228
-0.13376642577514555 -0.0019790611196676506 -0.16748599804438843
-0.10572457281069975 0.00906884956635253 -0.18038665660475459
-0.07768271984625397 0.020116760252372707 -0.19328731516512074
-0.04964086688180819 0.031164670938392872 -0.2061879737254869
-0.021599013917362398 0.04221258162441307 -0.21908863228585304
0.006442839047083383 0.05326049231043322 -0.2319892908462192
0.03448469201152918 0.06430840299645339 -0.24488994940658534
-0.21406035906833157 -0.014978250708539833 -0.10320385634615166
-0.18601850610388576 -0.003930340022519646 -0.11610451490651783
-0.15797665313943998 0.007117570663500519 -0.12900517346688398
-0.12993480017499423 0.018165481349520684 -0.14190583202725013
-0.10189294721054844 0.029213392035540863 -0.15480649058761628
-0.07385109424610264 0.040261302721561046 -0.16770714914798243
-0.04580924128165687 0.05130921340758121 -0.18060780770834858
-0.01776738831721108 0.062357124093601404 -0.19350846626871476
0.0102744646472347 0.07340503477962156 -0.20640912482908091
0.038316317611680493 0.08445294546564173 -0.21930978338944707
-0.21022873346818025 0.0051662917606485025 -0.07762369032901337
-0.18218688050373444 0.01621420244666869 -0.09052434888937952
-0.15414502753928866 0.027262113132688854 -0.10342500744974567
-0.1261031745748429 0.03831002381870902 -0.11632566601011182
-0.09806132161039711 0.0493579345047292 -0.12922632457047797
-0.07001946864595132 0.06040584519074938 -0.14212698313084413
-0.041977615681505556 0.07145375587676954 -0.15502764169121028
-0.013935762717059761 0.08250166656278973 -0.16792830025157646
0.014106090247386018 0.09354957724880988 -0.1808289588119426
0.04214794321183181 0.10459748793483006 -0.19372961737230876
-0.20639710786802895 0.025310834229836824 -0.05204352431187508
-0.17835525490358314 0.036358744915857014 -0.06494418287224124
-0.15031340193913736 0.04740665560187718 -0.07784484143260739
-0.12227154897469159 0.058454566287897344 -0.09074549999297354
-0.09422969601024579 0.06950247697391752 -0.1036461585533397
-0.06618784304580001 0.0805503876599377 -0.11654681711370585
-0.03814599008135424 0.09159829834595787 -0.129447475674072
-0.010104137116908447 0.10264620903197806 -0.14234813423443818
0.017937715847537332 0.11369411971799821 -0.15524879279480433
0.045979568811983125 0.12474203040401839 -0.16814945135517048
-0.20256548226787763 0.04545537669902516 -0.02646335829473678
-0.17452362930343182 0.05650328738504535 -0.03936401685510294
-0.14648177633898604 0.06755119807106551 -0.05226467541546909
-0.11843992337454028 0.07859910875708567 -0.06516533397583524
-0.09039807041009448 0.08964701944310585 -0.0780659925362014
-0.0623562174456487 0.10069493012912603 -0.09096665109656756
-0.034314364481202925 0.1117428408151462 -0.1038673096569337
-0.006272511516757129 0.12279075150116639 -0.11676796821729987
0.02176934144768865 0.13383866218718654 -0.12966862677766602
0.04981119441213444 0.14488657287320672 -0.14256928533803218
-0.1987338566677263 0.06559991916821349 -0.00088319227759848
-0.1706920037032805 0.07664782985423368 -0.013783850837964639
-0.14265015073883472 0.08769574054025385 -0.02668450939833079
-0.11460829777438895 0.09874365122627402 -0.03958516795869694
-0.08656644480994316 0.1097915619122942 -0.0524858265190631
-0.058524591845497374 0.12083947259831437 -0.06538648507942925
-0.030482738881051605 0.13188738328433453 -0.0782871436397954
-0.0024408859166058115 0.14293529397035473 -0.09118780220016157
0.025600967047839967 0.15398320465637488 -0.10408846076052772
0.05364282001228576 0.16503111534239506 -0.11698911932089387
-0.19490223106757498 0.08574446163740182 0.024696973739539805
-0.16686037810312918 0.096792372323422 0.011796315179173645
-0.1388185251386834 0.10784028300944216 -0.0011043433811925066
-0.11077667217423764 0.11888819369546233 -0.014005001941558659
-0.08273481920979185 0.1299361043814825 -0.026905660501924816
-0.05469296624534606 0.1409840150675027 -0.03980631906229097
-0.02665111328090029 0.15203192575352287 -0.05270697762265712
0.0013907396835455036 0.16307983643954305 -0.06560763618302329
0.029432592647991283 0.1741277471255632 -0.07850829474338944
0.05747444561243708 0.18517565781158338 -0.09140895330375559
-0.1910706054674237 0.10588900410659015 0.0502771397566781
-0.16302875250297788 0.11693691479261034 0.03737648119631194
-0.1349868995385321 0.1279848254786305 0.024475822635945794
-0.10694504657408632 0.13903273616465067 0.011575164075579642
-0.07890319360964053 0.15008064685067085 -0.0013254944847865171
-0.05086134064519474 0.16112855753669103 -0.014226153045152668
-0.02281948768074897 0.17217646822271118 -0.02712681160551882
0.005222365283696821 0.1832243789087314 -0.04002747016588499
0.0332642182481426 0.19427228959475154 -0.05292812872625114
0.061306071212588395 0.20532020028077172 -0.06582878728661729
-0.18723897986727236 0.12603354657577848 0.0758573057738164
-0.15919712690282656 0.13708145726179868 0.06295664721345025
-0.13115527393838078 0.14812936794781884 0.05005598865308409
-0.103113420973935 0.15917727863383901 0.03715533009271794
-0.0750715680094892 0.1702251893198592 0.024254671532351783
-0.04702971504504343 0.18127310000587937 0.011354012971985631
-0.018987862080597655 0.19232101069189952 -0.0015466455883805207
0.009053990883848138 0.20336892137791973 -0.014447304148746686
0.03709584384829392 0.21441683206393988 -0.027347962709112838
0.06513769681273972 0.22546474274996006 -0.04024862126947899
-0.18340735426712104 0.14617808904496682 0.1014374717909547
-0.15536550130267524 0.157225999730987 0.08853681323058854
-0.12732364833822946 0.16827391041700718 0.07563615467022239
-0.09928179537378369 0.17932182110302733 0.06273549610985624
-0.0712399424093379 0.1903697317890475 0.049834837549490085
-0.04319808944489211 0.2014176424750677 0.036934178989123934
-0.015156236480446337 0.21246555316108787 0.02403352042875778
0.012885616483999456 0.22351346384710805 0.011132861868391613
0.04092746944844523 0.2345613745331282 -0.001767796691974538
0.06896932241289103 0.24560928521914838 -0.01466845525234069
-0.06896932241289103 -0.24560928521914838 0.01466845525234069
-0.04092746944844523 -0.2345613745331282 0.001767796691974538
-0.012885616483999456 -0.22351346384710805 -0.011132861868391613
0.015156236480446323 -0.21246555316108787 -0.024033520428757765
0.04319808944489211 -0.2014176424750677 -0.036934178989123934
0.0712399424093379 -0.1903697317890475 -0.049834837549490085
0.09928179537378368 -0.17932182110302736 -0.06273549610985624
0.12732364833822946 -0.16827391041700718 -0.07563615467022239
0.15536550130267524 -0.157225999730987 -0.08853681323058854
0.18340735426712104 -0.14617808904496682 -0.1014374717909547
-0.08551628488573457 -0.22222189721454613 -0.0012707089271738303
-0.05747443192128878 -0.21117398652852595 -0.014171367487539981
-0.029432578956843005 -0.20012607584250577 -0.027072026047906133
-0.0013907259923972243 -0.18907816515648562 -0.03997268460827229
0.02665112697204856 -0.17803025447046544 -0.052873343168638454
0.05469297993649436 -0.16698234378444526 -0.0657740017290046
0.08273483290094014 -0.15593443309842508 -0.07867466028937076
0.11077668586538592 -0.1448865224124049 -0.09157531884973691
0.1388185388298317 -0.13383861172638475 -0.10447597741010306
0.1668603917942775 -0.12279070104036456 -0.11737663597046923
-0.10206324735857811 -0.1988345092099439 -0.01720987310668835
-0.07402139439413233 -0.1877865985239237 -0.0301105316670545
-0.04597954142968654 -0.17673868783790353 -0.043011190227420656
-0.017937688465240766 -0.16569077715188338 -0.055911848787786815
0.010104164499205022 -0.1546428664658632 -0.06881250734815297
0.038146017463650816 -0.14359495577984302 -0.08171316590851913
0.0661878704280966 -0.13254704509382284 -0.09461382446888528
0.09422972339254237 -0.12149913440780268 -0.10751448302925143
0.12227157635698815 -0.1104512237217825 -0.12041514158961758
0.15031342932143396 -0.09940331303576232 -0.13331580014998373
-0.11861020983142165 -0.17544712120534164 -0.03314903728620286
-0.09056835686697585 -0.16439921051932146 -0.046049695846569025
-0.06252650390253008 -0.15335129983330129 -0.05895035440693517
-0.034484650938084296 -0.14230338914728113 -0.07185101296730131
-0.00644279797363851 -0.13125547846126095 -0.08475167152766748
0.02159905499080728 -0.12020756777524078 -0.09765233008803363
0.049640907955253055 -0.10915965708922061 -0.11055298864839978
0.07768276091969885 -0.09811174640320043 -0.12345364720876593
0.10572461388414463 -0.08706383571718027 -0.1363543057691321
0.13376646684859042 -0.07601592503116009 -0.14925496432949825
-0.1351571723042652 -0.1520597332007394 -0.04908820146571738
-0.1071153193398194 -0.14101182251471922 -0.06198886002608354
-0.07907346637537362 -0.12996391182869904 -0.07488951858644968
-0.05103161341092784 -0.11891600114267889 -0.08779017714681583
-0.02298976044648205 -0.10786809045665871 -0.100690835707182
0.005052092517963741 -0.09682017977063853 -0.11359149426754815
0.033093945482409515 -0.08577226908461837 -0.1264921528279143
0.06113579844685531 -0.07472435839859819 -0.13939281138828047
0.08917765141130109 -0.06367644771257801 -0.15229346994864662
0.11721950437574688 -0.052628537026557835 -0.16519412850901277
-0.15170413477710873 -0.12867234519613716 -0.0650273656452319
-0.12366228181266294 -0.11762443451011698 -0.07792802420559805
-0.09562042884821716 -0.1065765238240968 -0.0908286827659642
-0.06757857588377138 -0.09552861313807663 -0.10372934132633035
-0.03953672291932559 -0.08448070245205645 -0.11662999988669652
-0.011494869954879802 -0.07343279176603629 -0.12953065844706269
0.01654698300956597 -0.06238488108001611 -0.1424313170074288
0.04458883597401177 -0.051336970393995936 -0.155331975567795
0.07263068893845755 -0.040289059707975756 -0.16823263412816114
0.10067254190290334 -0.02924114902195558 -0.1811332926885273
-0.16825109724995227 -0.10528495719153493 -0.0809665298247464
-0.14020924428550646 -0.09423704650551475 -0.09386718838511257
-0.11216739132106068 -0.08318913581949457 -0.10676784694547872
-0.0841255383566149 -0.0721412251334744 -0.11966850550584487
-0.05608368539216912 -0.06109331444745422 -0.13256916406621103
-0.02804183242772333 -0.05004540376143404 -0.14546982262657718
2.0536722442223826e-08 -0.03899749307541387 -0.15837048118694333
0.028041873501168237 -0.027949582389393695 -0.17127113974730948
0.05608372646561402 -0.01690167170337353 -0.18417179830767563
0.08412557943005981 -0.0058537610173533495 -0.19707245686804178
-0.1847980597227958 -0.08189756918693267 -0.09690569400426093
-0.15675620675835 -0.07084965850091249 -0.10980635256462708
-0.12871435379390422 -0.059801747814892316 -0.12270701112499323
-0.10067250082945844 -0.04875383712887215 -0.1356076696853594
-0.07263064786501267 -0.03770592644285197 -0.14850832824572555
-0.04458879490056687 -0.026658015756831795 -0.1614089868060917
-0.016546941936121103 -0.015610105070811628 -0.17430964536645785
0.011494911028324692 -0.00456219438479145 -0.187210303926824
0.03953676399277047 0.006485716301228729 -0.20011096248719015
0.06757861695721626 0.017533626987248908 -0.2130116210475563
-0.20134502219563935 -0.05851018118233042 -0.11284485818377545
-0.17330316923119354 -0.047462270496310244 -0.1257455167441416
-0.14526131626674776 -0.03641435981029007 -0.13864617530450776
-0.11721946330230198 -0.02536644912426991 -0.15154683386487391
-0.0891776103378562 -0.014318538438249729 -0.16444749242524007
-0.06113575737341041 -0.0032706277522295503 -0.17734815098560622
-0.03309390440896464 0.007777282933790615 -0.19024880954597237
-0.005052051444518849 0.018825193619810793 -0.20314946810633852
0.02298980151992693 0.029873104305830973 -0.21605012666670467
0.05103165448437272 0.040921014991851155 -0.22895078522707082
-0.2178919846684829 -0.035122793177728165 -0.12878402236328995
-0.18985013170403708 -0.024074882491707982 -0.14168468092365613
-0.1618082787395913 -0.013026971805687815 -0.15458533948402228
-0.13376642577514555 -0.0019790611196676506 -0.16748599804438843
-0.10572457281069975 0.00906884956635253 -0.18038665660475459
-0.07768271984625397 0.020116760252372707 -0.19328731516512074
-0.04964086688180819 0.031164670938392872 -0.2061879737254869
-0.021599013917362398 0.04221258162441307 -0.21908863228585304
0.006442839047083383 0.05326049231043322 -0.2319892908462192
0.03448469201152918 0.06430840299645339 -0.24488994940658534
-0.03448469201152918 -0.06430840299645339 0.24488994940658534
-0.006442839047083383 -0.05326049231043322 0.2319892908462192
0.021599013917362398 -0.04221258162441307 0.21908863228585304
0.049640866881808174 -0.031164670938392886 0.2061879737254869
0.07768271984625397 -0.020116760252372707 0.19328731516512074
0.10572457281069975 -0.00906884956635253 0.18038665660475459
0.13376642577514553 0.0019790611196676368 0.16748599804438843
0.1618082787395913 0.013026971805687815 0.15458533948402228
0.18985013170403708 0.024074882491707982 0.14168468092365613
0.2178919846684829 0.035122793177728165 0.12878402236328995
-0.05103165448437272 -0.040921014991851155 0.22895078522707082
-0.02298980151992693 -0.029873104305830973 0.21605012666670467
0.005052051444518849 -0.018825193619810793 0.20314946810633852
0.033093904408964626 -0.007777282933790629 0.19024880954597237
0.06113575737341041 0.0032706277522295503 0.17734815098560622
0.0891776103378562 0.014318538438249729 0.16444749242524007
0.11721946330230198 0.025366449124269896 0.15154683386487391
0.14526131626674776 0.03641435981029007 0.13864617530450776
0.17330316923119354 0.047462270496310244 0.1257455167441416
0.20134502219563935 0.05851018118233042 0.11284485818377545
-0.06757861695721626 -0.017533626987248908 0.2130116210475563
-0.03953676399277047 -0.006485716301228729 0.20011096248719015
-0.011494911028324692 0.00456219438479145 0.187210303926824
0.01654694193612109 0.015610105070811614 0.17430964536645785
0.04458879490056687 0.026658015756831795 0.1614089868060917
0.07263064786501267 0.03770592644285197 0.14850832824572555
0.10067250082945844 0.048753837128872136 0.1356076696853594
0.12871435379390422 0.059801747814892316 0.12270701112499323
0.15675620675835 0.07084965850091249 0.10980635256462708
0.1847980597227958 0.08189756918693267 0.09690569400426093
-0.0841255794300598 0.005853761017353336 0.1970724568680418
-0.056083726465614006 0.016901671703373516 0.18417179830767563
-0.028041873501168223 0.027949582389393695 0.1712711397473095
-2.0536722445693273e-08 0.03899749307541386 0.15837048118694336
0.028041832427723342 0.05004540376143403 0.1454698226265772
0.05608368539216913 0.06109331444745421 0.13256916406621103
0.0841255383566149 0.07214122513347437 0.11966850550584489
0.1121673913210607 0.08318913581949455 0.10676784694547872
0.1402092442855065 0.09423704650551473 0.09386718838511257
0.16825109724995227 0.10528495719153491 0.08096652982474642
-0.10067254190290334 0.02924114902195558 0.1811332926885273
-0.07263068893845755 0.040289059707975756 0.16823263412816114
-0.04458883597401177 0.051336970393995936 0.155331975567795
-0.016546983009565985 0.0623848810800161 0.14243131700742884
0.011494869954879802 0.07343279176603629 0.12953065844706269
0.03953672291932559 0.08448070245205645 0.11662999988669652
0.06757857588377136 0.09552861313807663 0.10372934132633037
0.09562042884821716 0.1065765238240968 0.0908286827659642
0.12366228181266294 0.11762443451011698 0.07792802420559805
0.15170413477710873 0.12867234519613716 0.0650273656452319
-0.11721950437574688 0.052628537026557835 0.16519412850901277
-0.08917765141130109 0.06367644771257801 0.15229346994864662
-0.06113579844685531 0.07472435839859819 0.13939281138828047
-0.03309394548240953 0.08577226908461835 0.12649215282791432
-0.005052092517963741 0.09682017977063853 0.11359149426754815
0.02298976044648205 0.10786809045665871 0.100690835707182
0.05103161341092782 0.11891600114267888 0.08779017714681585
0.07907346637537362 0.12996391182869904 0.07488951858644968
0.1071153193398194 0.14101182251471922 0.06198886002608354
0.1351571723042652 0.1520597332007394 0.04908820146571738
-0.13376646684859042 0.07601592503116007 0.14925496432949825
-0.10572461388414461 0.08706383571718025 0.1363543057691321
-0.07768276091969883 0.09811174640320042 0.12345364720876595
-0.049640907955253055 0.10915965708922058 0.1105529886483998
-0.021599054990807266 0.12020756777524076 0.09765233008803365
0.006442797973638521 0.13125547846126095 0.08475167152766748
0.034484650938084296 0.1423033891472811 0.07185101296730134
0.06252650390253009 0.15335129983330129 0.058950354406935176
0.09056835686697587 0.16439921051932146 0.046049695846569025
0.11861020983142166 0.17544712120534164 0.03314903728620287
-0.15031342932143396 0.09940331303576232 0.13331580014998373
-0.12227157635698815 0.1104512237217825 0.12041514158961758
-0.09422972339254237 0.12149913440780268 0.10751448302925143
-0.0661878704280966 0.13254704509382284 0.09461382446888528
-0.038146017463650816 0.14359495577984302 0.08171316590851913
-0.010104164499205022 0.1546428664658632 0.06881250734815297
0.017937688465240752 0.16569077715188335 0.05591184878778682
0.04597954142968654 0.17673868783790353 0.043011190227420656
0.07402139439413233 0.1877865985239237 0.0301105316670545
0.10206324735857811 0.1988345092099439 0.01720987310668835
-0.1668603917942775 0.12279070104036456 0.11737663597046923
-0.1388185388298317 0.13383861172638475 0.10447597741010306
-0.11077668586538592 0.1448865224124049 0.09157531884973691
-0.08273483290094014 0.15593443309842508 0.07867466028937076
-0.05469297993649436 0.16698234378444526 0.0657740017290046
-0.02665112697204856 0.17803025447046544 0.052873343168638454
0.0013907259923972104 0.1890781651564856 0.0399726846082723
0.029432578956843005 0.20012607584250577 0.027072026047906133
0.05747443192128878 0.21117398652852595 0.014171367487539981
0.08551628488573457 0.22222189721454613 0.0012707089271738303
-0.18340735426712104 0.14617808904496682 0.1014374717909547
-0.15536550130267524 0.157225999730987 0.08853681323058854
-0.12732364833822946 0.16827391041700718 0.07563615467022239
-0.09928179537378369 0.17932182110302733 0.06273549610985624
-0.0712399424093379 0.1903697317890475 0.049834837549490085
-0.04319808944489211 0.2014176424750677 0.036934178989123934
-0.015156236480446337 0.21246555316108787 0.02403352042875778
0.012885616483999456 0.22351346384710805 0.011132861868391613
0.04092746944844523 0.2345613745331282 -0.001767796691974538
0.06896932241289103 0.24560928521914838 -0.01466845525234069
