# .PCD v0.7 - Point Cloud Data file format
VERSION 0.7
FIELDS x y z
SIZE 4 4 4
TYPE F F F
COUNT 1 1 1
WIDTH 600
HEIGHT 1
VIEWPOINT 0 0 0 1 0 0 0
POINTS 600
DATA ascii
-0.09575622990055659 -0.0977805308668508 -0.05738661474751172
-0.10048132712220775 -0.0811471544120639 -0.04941596988708893
-0.10520642434385892 -0.06451377795727699 -0.04144532502666613
-0.10993152156551009 -0.04788040150249008 -0.03347468016624334
-0.11465661878716127 -0.03124702504770317 -0.02550403530582054
-0.11938171600881244 -0.014613648592916263 -0.01753339044539774
-0.1241068132304636 0.002019727861870639 -0.009562745584974953
-0.12883191045211478 0.018653104316657555 -0.001592100724552158
-0.13355700767376594 0.035286480771444466 0.006378544135870644
-0.13828210489541712 0.05191985722623137 0.014349188996293444
-0.08377626400730326 -0.10126906384190054 -0.04300476888509972
-0.08850136122895444 -0.08463568738711363 -0.035034124024676934
-0.0932264584506056 -0.06800231093232673 -0.027063479164254133
-0.09795155567225677 -0.05136893447753981 -0.019092834303831338
-0.10267665289390794 -0.0347355580227529 -0.011122189443408545
-0.10740175011555912 -0.018102181567966 -0.0031515445829857435
-0.11212684733721029 -0.0014688051131790975 0.0048191002774370445
-0.11685194455886146 0.015164571341607817 0.012789745137859838
-0.12157704178051262 0.031797947796394735 0.02076038999828264
-0.1263021390021638 0.048431324251181636 0.028731034858705443
-0.07179629811404993 -0.10475759681695028 -0.02862292302268772
-0.07652139533570111 -0.08812422036216337 -0.02065227816226493
-0.08124649255735228 -0.07149084390737646 -0.012681633301842132
-0.08597158977900345 -0.05485746745258955 -0.004710988441419338
-0.09069668700065461 -0.03822409099780264 0.003259656419003457
-0.0954217842223058 -0.021590714543015737 0.011230301279426258
-0.10014688144395696 -0.004957338088228835 0.019200946139849046
-0.10487197866560813 0.01167603836655808 0.02717159100027184
-0.1095970758872593 0.028309414821344994 0.03514223586069464
-0.11432217310891048 0.0449427912761319 0.04311288072111744
-0.05981633222079662 -0.10824612979200002 -0.014241077160275726
-0.06454142944244778 -0.09161275333721311 -0.006270432299852936
-0.06926652666409895 -0.0749793768824262 0.001700212560569862
-0.07399162388575012 -0.05834600042763929 0.009670857420992657
-0.0787167211074013 -0.04171262397285238 0.01764150228141545
-0.08344181832905247 -0.02507924751806547 0.02561214714183825
-0.08816691555070363 -0.00844587106327857 0.03358279200226104
-0.0928920127723548 0.008187505391508344 0.04155343686268383
-0.09761710999400597 0.02482088184629526 0.049524081723106635
-0.10234220721565715 0.04145425830108216 0.057494726583529436
-0.04783636632754329 -0.11173466276704976 0.00014076870213627487
-0.05256146354919446 -0.09510128631226285 0.008111413562559067
-0.05728656077084563 -0.07846790985747594 0.016082058422981865
-0.0620116579924968 -0.061834533402689025 0.02405270328340466
-0.06673675521414797 -0.04520115694790212 0.03202334814382745
-0.07146185243579914 -0.02856778049311521 0.03999399300425025
-0.0761869496574503 -0.011934404038328308 0.04796463786467304
-0.08091204687910147 0.004698972416458606 0.05593528272509583
-0.08563714410075264 0.02133234887124552 0.06390592758551863
-0.09036224132240382 0.03796572532603242 0.07187657244594144
-0.03585640043428996 -0.11522319574209948 0.014522614564548276
-0.040581497655941136 -0.09858981928731257 0.022493259424971067
-0.0453065948775923 -0.08195644283252566 0.030463904285393865
-0.05003169209924347 -0.06532306637773876 0.03843454914581666
-0.054756789320894644 -0.048689689922951855 0.04640519400623946
-0.05948188654254582 -0.03205631346816495 0.05437583886666226
-0.06420698376419699 -0.015422937013378046 0.062346483727085046
-0.06893208098584816 0.0012104394414088687 0.07031712858750784
-0.07365717820749933 0.017843815896195783 0.07828777344793064
-0.07838227542915051 0.034477192350982684 0.08625841830835344
-0.023876434541036645 -0.11871172871714922 0.02890446042696027
-0.02860153176268782 -0.10207835226236231 0.03687510528738306
-0.03332662898433899 -0.0854449758075754 0.044845750147805855
-0.038051726205990156 -0.0688115993527885 0.05281639500822865
-0.04277682342764133 -0.05217822289800159 0.060787039868651443
-0.047501920649292505 -0.035544846443214685 0.06875768472907424
-0.05222701787094367 -0.01891146998842778 0.07672832958949703
-0.05695211509259484 -0.0022780935336408664 0.08469897444991983
-0.061677212314246006 0.014355282921146049 0.09266961931034264
-0.06640230953589718 0.03098865937593295 0.10064026417076544
-0.011896468647783317 -0.12220026169219896 0.04328630628937227
-0.01662156586943449 -0.10556688523741205 0.05125695114979506
-0.021346663091085658 -0.08893350878262514 0.05922759601021786
-0.026071760312736825 -0.07230013232783823 0.06719824087064065
-0.030796857534388 -0.05566675587305133 0.07516888573106345
-0.03552195475603917 -0.03903337941826442 0.08313953059148625
-0.04024705197769034 -0.02240000296347752 0.09111017545190904
-0.044972149199341505 -0.005766626508690605 0.09908082031233183
-0.04969724642099267 0.01086674994609631 0.10705146517275463
-0.05442234364264385 0.027500126400883212 0.11502211003317743
8.349724547000991e-05 -0.1256887946672487 0.05766815215178427
-0.004641599976181164 -0.10905541821246179 0.06563879701220707
-0.00936669719783233 -0.09242204175767488 0.07360944187262987
-0.014091794419483498 -0.07578866530288797 0.08158008673305266
-0.018816891641134672 -0.05915528884810107 0.08955073159347546
-0.023541988862785846 -0.04252191239331416 0.09752137645389826
-0.028267086084437013 -0.025888535938527257 0.10549202131432105
-0.032992183306088184 -0.009255159483740342 0.11346266617474383
-0.03771728052773935 0.007378216971046572 0.12143331103516664
-0.04244237774939053 0.024011593425833474 0.12940395589558945
0.012063463138723331 -0.12917732764229845 0.07204999801419627
0.007338365917072157 -0.11254395118751152 0.08002064287461906
0.0026132686954209905 -0.09591057473272462 0.08799128773504186
-0.0021118285262301767 -0.07927719827793771 0.09596193259546465
-0.006836925747881351 -0.0626438218231508 0.10393257745588745
-0.011562022969532525 -0.04601044536836389 0.11190322231631025
-0.016287120191183693 -0.029377068913576995 0.11987386717673304
-0.02101221741283486 -0.012743692458790078 0.12784451203715583
-0.025737314634486027 0.003889683995996836 0.13581515689757864
-0.030462411856137208 0.020523060450783736 0.14378580175800143
0.030462411856137208 -0.020523060450783736 -0.14378580175800143
0.025737314634486027 -0.003889683995996836 -0.13581515689757864
0.02101221741283486 0.012743692458790078 -0.12784451203715583
0.016287120191183693 0.02937706891357698 -0.11987386717673304
0.011562022969532525 0.04601044536836389 -0.11190322231631025
0.006836925747881351 0.0626438218231508 -0.10393257745588745
0.0021118285262301836 0.07927719827793771 -0.09596193259546466
-0.0026132686954209905 0.09591057473272462 -0.08799128773504186
-0.007338365917072157 0.11254395118751152 -0.08002064287461906
-0.012063463138723331 0.12917732764229845 -0.07204999801419627
0.04244237774939053 -0.024011593425833474 -0.12940395589558945
0.03771728052773935 -0.007378216971046572 -0.12143331103516664
0.032992183306088184 0.009255159483740342 -0.11346266617474383
0.028267086084437013 0.025888535938527243 -0.10549202131432105
0.023541988862785846 0.04252191239331416 -0.09752137645389826
0.018816891641134672 0.05915528884810107 -0.08955073159347546
0.014091794419483505 0.07578866530288797 -0.08158008673305267
0.00936669719783233 0.09242204175767488 -0.07360944187262987
0.004641599976181164 0.10905541821246179 -0.06563879701220707
-8.349724547000991e-05 0.1256887946672487 -0.05766815215178427
0.05442234364264385 -0.027500126400883212 -0.11502211003317743
0.04969724642099267 -0.01086674994609631 -0.10705146517275463
0.044972149199341505 0.005766626508690605 -0.09908082031233183
0.04024705197769034 0.022400002963477505 -0.09111017545190904
0.03552195475603917 0.03903337941826442 -0.08313953059148625
0.030796857534388 0.05566675587305133 -0.07516888573106345
0.026071760312736832 0.07230013232783823 -0.06719824087064066
0.021346663091085658 0.08893350878262514 -0.05922759601021786
0.01662156586943449 0.10556688523741205 -0.05125695114979506
0.011896468647783317 0.12220026169219896 -0.04328630628937227
0.06640230953589718 -0.030988659375932946 -0.10064026417076544
0.06167721231424599 -0.014355282921146045 -0.09266961931034264
0.056952115092594825 0.002278093533640869 -0.08469897444991983
0.05222701787094366 0.01891146998842777 -0.07672832958949705
0.04750192064929249 0.035544846443214685 -0.06875768472907426
0.04277682342764132 0.05217822289800159 -0.06078703986865146
0.03805172620599015 0.0688115993527885 -0.05281639500822867
0.033326628984338975 0.0854449758075754 -0.04484575014780587
0.02860153176268781 0.10207835226236231 -0.03687510528738307
0.023876434541036638 0.11871172871714922 -0.02890446042696028
0.07838227542915051 -0.034477192350982684 -0.08625841830835344
0.07365717820749933 -0.017843815896195783 -0.07828777344793064
0.06893208098584816 -0.0012104394414088687 -0.07031712858750784
0.06420698376419699 0.015422937013378032 -0.06234648372708505
0.05948188654254582 0.03205631346816495 -0.05437583886666226
0.054756789320894644 0.048689689922951855 -0.04640519400623946
0.05003169209924348 0.06532306637773876 -0.03843454914581667
0.0453065948775923 0.08195644283252566 -0.030463904285393865
0.040581497655941136 0.09858981928731257 -0.022493259424971067
0.03585640043428996 0.11522319574209948 -0.014522614564548276
0.09036224132240382 -0.03796572532603242 -0.07187657244594144
0.08563714410075264 -0.02133234887124552 -0.06390592758551863
0.08091204687910147 -0.004698972416458606 -0.05593528272509583
0.0761869496574503 0.011934404038328295 -0.047964637864673046
0.07146185243579914 0.02856778049311521 -0.03999399300425025
0.06673675521414797 0.04520115694790212 -0.03202334814382745
0.062011657992496805 0.061834533402689025 -0.024052703283404666
0.05728656077084563 0.07846790985747594 -0.016082058422981865
0.05256146354919446 0.09510128631226285 -0.008111413562559067
0.04783636632754329 0.11173466276704976 -0.00014076870213627487
0.10234220721565715 -0.04145425830108216 -0.05749472658352945
0.09761710999400597 -0.024820881846295256 -0.04952408172310665
0.0928920127723548 -0.00818750539150834 -0.04155343686268385
0.08816691555070363 0.00844587106327856 -0.03358279200226106
0.08344181832905247 0.025079247518065475 -0.02561214714183826
0.07871672110740129 0.04171262397285238 -0.01764150228141546
0.07399162388575012 0.05834600042763929 -0.009670857420992674
0.06926652666409895 0.0749793768824262 -0.0017002125605698724
0.06454142944244778 0.09161275333721311 0.006270432299852926
0.0598163322207966 0.10824612979200002 0.014241077160275716
0.11432217310891048 -0.0449427912761319 -0.04311288072111744
0.1095970758872593 -0.028309414821344994 -0.03514223586069464
0.10487197866560813 -0.01167603836655808 -0.02717159100027184
0.10014688144395696 0.004957338088228821 -0.019200946139849052
0.0954217842223058 0.021590714543015737 -0.011230301279426258
0.09069668700065461 0.03822409099780264 -0.003259656419003457
0.08597158977900345 0.05485746745258955 0.004710988441419331
0.08124649255735228 0.07149084390737646 0.012681633301842132
0.07652139533570111 0.08812422036216337 0.02065227816226493
0.07179629811404993 0.10475759681695028 0.02862292302268772
0.1263021390021638 -0.048431324251181636 -0.028731034858705443
0.12157704178051262 -0.031797947796394735 -0.02076038999828264
0.11685194455886146 -0.015164571341607817 -0.012789745137859838
0.11212684733721029 0.0014688051131790836 -0.004819100277437051
0.10740175011555912 0.018102181567966 0.0031515445829857435
0.10267665289390794 0.0347355580227529 0.011122189443408545
0.09795155567225677 0.05136893447753981 0.01909283430383133
0.0932264584506056 0.06800231093232673 0.027063479164254133
0.08850136122895444 0.08463568738711363 0.035034124024676934
0.08377626400730326 0.10126906384190054 0.04300476888509972
0.13828210489541712 -0.05191985722623137 -0.014349188996293444
0.13355700767376594 -0.035286480771444466 -0.006378544135870644
0.12883191045211478 -0.018653104316657555 0.001592100724552158
0.1241068132304636 -0.0020197278618706528 0.009562745584974946
0.11938171600881244 0.014613648592916263 0.01753339044539774
0.11465661878716127 0.03124702504770317 0.02550403530582054
0.1099315215655101 0.04788040150249008 0.03347468016624333
0.10520642434385892 0.06451377795727699 0.04144532502666613
0.10048132712220775 0.0811471544120639 0.04941596988708893
0.09575622990055659 0.0977805308668508 0.05738661474751172
-0.09575622990055659 -0.0977805308668508 -0.05738661474751172
-0.08173193637203505 -0.0891963674872878 -0.0669865244153439
-0.06770764284351352 -0.0806122041077248 -0.0765864340831761
-0.053683349314991996 -0.07202804072816178 -0.08618634375100828
-0.03965905578647046 -0.06344387734859877 -0.09578625341884048
-0.025634762257948925 -0.05485971396903577 -0.10538616308667267
-0.011610468729427396 -0.04627555058947276 -0.11498607275450486
0.002413824799094136 -0.03769138720990975 -0.12458598242233704
0.01643811832761567 -0.02910722383034674 -0.13418589209016923
0.030462411856137208 -0.020523060450783736 -0.14378580175800143
-0.08377626400730326 -0.10126906384190054 -0.04300476888509972
-0.06975197047878173 -0.09268490046233754 -0.05260467855293191
-0.055727676950260194 -0.08410073708277453 -0.06220458822076411
-0.04170338342173867 -0.07551657370321152 -0.07180449788859629
-0.027679089893217136 -0.06693241032364851 -0.08140440755642848
-0.013654796364695604 -0.058348246944085504 -0.09100431722426068
0.00036949716382592574 -0.04976408356452249 -0.10060422689209286
0.014393790692347457 -0.04117992018495948 -0.11020413655992504
0.02841808422086899 -0.032595756805396475 -0.11980404622775724
0.04244237774939053 -0.024011593425833474 -0.12940395589558945
-0.07179629811404993 -0.10475759681695028 -0.02862292302268772
-0.057772004585528405 -0.09617343343738728 -0.03822283269051991
-0.04374771105700687 -0.08758927005782427 -0.0478227423583521
-0.029723417528485344 -0.07900510667826126 -0.05742265202618429
-0.01569912399996381 -0.07042094329869825 -0.06702256169401648
-0.0016748304714422767 -0.06183677991913524 -0.07662247136184867
0.012349463057079253 -0.05325261653957223 -0.08622238102968086
0.026373756585600785 -0.04466845316000922 -0.09582229069751304
0.040398050114122314 -0.03608428978044621 -0.10542220036534523
0.05442234364264385 -0.027500126400883212 -0.11502211003317743
-0.05981633222079662 -0.10824612979200002 -0.014241077160275726
-0.045792038692275085 -0.09966196641243702 -0.023840986828107917
-0.03176774516375355 -0.09107780303287401 -0.033440896495940106
-0.017743451635232024 -0.082493639653311 -0.043040806163772295
-0.003719158106710489 -0.07390947627374798 -0.052640715831604484
0.010305135421811043 -0.06532531289418499 -0.06224062549943668
0.024329428950332573 -0.05674114951462197 -0.07184053516726886
0.0383537224788541 -0.048156986135058956 -0.08144044483510104
0.052378016007375634 -0.03957282275549595 -0.09104035450293324
0.06640230953589718 -0.030988659375932946 -0.10064026417076544
-0.04783636632754329 -0.11173466276704976 0.00014076870213627487
-0.03381207279902176 -0.10315049938748676 -0.009459140965695913
-0.019787779270500225 -0.09456633600792375 -0.019059050633528106
-0.005763485741978699 -0.08598217262836073 -0.02865896030136029
0.008260807786542836 -0.07739800924879772 -0.038258869969192484
0.02228510131506437 -0.06881384586923472 -0.04785877963702468
0.0363093948435859 -0.060229682489671706 -0.05745868930485686
0.05033368837210743 -0.051645519110108694 -0.06705859897268905
0.06435798190062897 -0.04306135573054569 -0.07665850864052125
0.07838227542915051 -0.034477192350982684 -0.08625841830835344
-0.03585640043428996 -0.11522319574209948 0.014522614564548276
-0.02183210690576843 -0.10663903236253648 0.004922704896716088
-0.007807813377246898 -0.09805486898297347 -0.004677204771116105
0.006216480151274627 -0.08947070560341046 -0.014277114438948291
0.020240773679796164 -0.08088654222384745 -0.023877024106780484
0.03426506720831769 -0.07230237884428445 -0.03347693377461267
0.048289360736839225 -0.06371821546472144 -0.043076843442444855
0.06231365426536076 -0.05513405208515843 -0.052676753110277044
0.07633794779388228 -0.04654988870559543 -0.06227666277810924
0.09036224132240382 -0.03796572532603242 -0.07187657244594144
-0.023876434541036645 -0.11871172871714922 0.02890446042696027
-0.009852141012515112 -0.11012756533758622 0.01930455075912808
0.00417215251600642 -0.10154340195802321 0.009704641091295886
0.018196446044527945 -0.0929592385784602 0.00010473142346370072
0.03222073957304948 -0.08437507519889718 -0.009495178244368492
0.04624503310157101 -0.07579091181933419 -0.019095087912200683
0.06026932663009254 -0.06720674843977117 -0.028694997580032865
0.07429362015861407 -0.05862258506020817 -0.03829490724786506
0.08831791368713561 -0.050038421680645165 -0.047894816915697254
0.10234220721565715 -0.04145425830108216 -0.05749472658352945
-0.011896468647783317 -0.12220026169219896 0.04328630628937227
0.002127824880738216 -0.11361609831263596 0.033686396621540084
0.016152118409259748 -0.10503193493307295 0.02408648695370789
0.030176411937781273 -0.09644777155350993 0.014486577285875706
0.04420070546630281 -0.08786360817394692 0.004886667618043513
0.05822499899482434 -0.07927944479438392 -0.0047132420497886796
0.07224929252334587 -0.07069528141482091 -0.014313151717620862
0.0862735860518674 -0.06211111803525791 -0.02391306138545305
0.10029787958038894 -0.0535269546556949 -0.03351297105328525
0.11432217310891048 -0.0449427912761319 -0.04311288072111744
8.349724547000991e-05 -0.1256887946672487 0.05766815215178427
0.014107790773991543 -0.1171046312876857 0.048068242483952084
0.028132084302513075 -0.10852046790812268 0.038468332816119895
0.0421563778310346 -0.09993630452855967 0.028868423148287706
0.056180671359556136 -0.09135214114899666 0.019268513480455513
0.07020496488807766 -0.08276797776943366 0.009668603812623322
0.0842292584165992 -0.07418381438987065 6.86941447911397e-05
0.09825355194512073 -0.06559965101030764 -0.009531215523041049
0.11227784547364227 -0.05701548763074464 -0.019131125190873247
0.1263021390021638 -0.048431324251181636 -0.028731034858705443
0.012063463138723331 -0.12917732764229845 0.07204999801419627
0.026087756667244864 -0.12059316426273543 0.062450088346364084
0.0401120501957664 -0.11200900088317242 0.05285017867853189
0.054136343724287925 -0.10342483750360941 0.043250269010699706
0.06816063725280946 -0.0948406741240464 0.03365035934286751
0.08218493078133099 -0.0862565107444834 0.024050449675035317
0.09620922430985251 -0.07767234736492039 0.014450540007203137
0.11023351783837405 -0.06908818398535738 0.004850630339370947
0.12425781136689558 -0.06050402060579437 -0.004749279328461249
0.13828210489541712 -0.05191985722623137 -0.014349188996293444
-0.13828210489541712 0.05191985722623137 0.014349188996293444
-0.12425781136689558 0.06050402060579437 0.004749279328461249
-0.11023351783837405 0.06908818398535738 -0.004850630339370947
-0.09620922430985253 0.07767234736492039 -0.01445054000720313
-0.08218493078133099 0.0862565107444834 -0.024050449675035317
-0.06816063725280946 0.0948406741240464 -0.03365035934286751
-0.05413634372428793 0.10342483750360941 -0.0432502690106997
-0.0401120501957664 0.11200900088317242 -0.05285017867853189
-0.026087756667244864 0.12059316426273543 -0.062450088346364084
-0.012063463138723331 0.12917732764229845 -0.07204999801419627
-0.1263021390021638 0.048431324251181636 0.028731034858705443
-0.11227784547364227 0.05701548763074464 0.019131125190873247
-0.09825355194512073 0.06559965101030764 0.009531215523041049
-0.0842292584165992 0.07418381438987065 -6.869414479113277e-05
-0.07020496488807766 0.08276797776943366 -0.009668603812623322
-0.056180671359556136 0.09135214114899666 -0.019268513480455513
-0.04215637783103461 0.09993630452855967 -0.0288684231482877
-0.028132084302513075 0.10852046790812268 -0.038468332816119895
-0.014107790773991543 0.1171046312876857 -0.048068242483952084
-8.349724547000991e-05 0.1256887946672487 -0.05766815215178427
-0.11432217310891048 0.0449427912761319 0.04311288072111744
-0.10029787958038894 0.0535269546556949 0.03351297105328525
-0.0862735860518674 0.06211111803525791 0.02391306138545305
-0.07224929252334587 0.07069528141482091 0.014313151717620869
-0.05822499899482434 0.07927944479438392 0.0047132420497886796
-0.04420070546630281 0.08786360817394692 -0.004886667618043513
-0.030176411937781283 0.09644777155350993 -0.014486577285875699
-0.016152118409259748 0.10503193493307295 -0.02408648695370789
-0.002127824880738216 0.11361609831263596 -0.033686396621540084
0.011896468647783317 0.12220026169219896 -0.04328630628937227
-0.10234220721565715 0.04145425830108216 0.057494726583529436
-0.08831791368713561 0.050038421680645165 0.04789481691569724
-0.07429362015861408 0.05862258506020817 0.038294907247865044
-0.06026932663009256 0.06720674843977117 0.028694997580032862
-0.04624503310157102 0.07579091181933419 0.019095087912200673
-0.03222073957304949 0.08437507519889718 0.009495178244368482
-0.018196446044527963 0.0929592385784602 -0.00010473142346370427
-0.004172152516006429 0.10154340195802321 -0.009704641091295896
0.009852141012515104 0.11012756533758622 -0.01930455075912809
0.023876434541036638 0.11871172871714922 -0.02890446042696028
-0.09036224132240382 0.03796572532603242 0.07187657244594144
-0.07633794779388228 0.04654988870559543 0.06227666277810924
-0.06231365426536076 0.05513405208515843 0.052676753110277044
-0.04828936073683923 0.06371821546472144 0.04307684344244486
-0.03426506720831769 0.07230237884428445 0.03347693377461267
-0.020240773679796164 0.08088654222384745 0.023877024106780484
-0.006216480151274638 0.08947070560341046 0.014277114438948298
0.007807813377246898 0.09805486898297347 0.004677204771116105
0.02183210690576843 0.10663903236253648 -0.004922704896716088
0.03585640043428996 0.11522319574209948 -0.014522614564548276
-0.07838227542915051 0.034477192350982684 0.08625841830835344
-0.06435798190062897 0.04306135573054569 0.07665850864052125
-0.05033368837210743 0.051645519110108694 0.06705859897268905
-0.036309394843585904 0.060229682489671706 0.05745868930485687
-0.02228510131506437 0.06881384586923472 0.04785877963702468
-0.008260807786542836 0.07739800924879772 0.038258869969192484
0.005763485741978688 0.08598217262836073 0.0286589603013603
0.019787779270500225 0.09456633600792375 0.019059050633528106
0.03381207279902176 0.10315049938748676 0.009459140965695913
0.04783636632754329 0.11173466276704976 -0.00014076870213627487
-0.06640230953589718 0.03098865937593295 0.10064026417076544
-0.05237801600737565 0.03957282275549595 0.09104035450293324
-0.038353722478854116 0.048156986135058956 0.08144044483510104
-0.024329428950332587 0.05674114951462197 0.07184053516726886
-0.010305135421811051 0.06532531289418499 0.062240625499436666
0.0037191581067104805 0.07390947627374798 0.05264071583160448
0.017743451635232006 0.082493639653311 0.04304080616377229
0.03176774516375354 0.09107780303287401 0.0334408964959401
0.04579203869227507 0.09966196641243702 0.023840986828107907
0.0598163322207966 0.10824612979200002 0.014241077160275716
-0.05442234364264385 0.027500126400883212 0.11502211003317743
-0.040398050114122314 0.03608428978044621 0.10542220036534523
-0.026373756585600785 0.04466845316000922 0.09582229069751304
-0.01234946305707926 0.05325261653957223 0.08622238102968086
0.0016748304714422767 0.06183677991913524 0.07662247136184867
0.01569912399996381 0.07042094329869825 0.06702256169401648
0.029723417528485334 0.07900510667826126 0.057422652026184295
0.04374771105700687 0.08758927005782427 0.0478227423583521
0.057772004585528405 0.09617343343738728 0.03822283269051991
0.07179629811404993 0.10475759681695028 0.02862292302268772
-0.04244237774939053 0.024011593425833474 0.12940395589558945
-0.02841808422086899 0.032595756805396475 0.11980404622775724
-0.014393790692347457 0.04117992018495948 0.11020413655992504
-0.0003694971638259327 0.04976408356452249 0.10060422689209286
0.013654796364695604 0.058348246944085504 0.09100431722426068
0.027679089893217136 0.06693241032364851 0.08140440755642848
0.04170338342173866 0.07551657370321152 0.0718044978885963
0.055727676950260194 0.08410073708277453 0.06220458822076411
0.06975197047878173 0.09268490046233754 0.05260467855293191
0.08377626400730326 0.10126906384190054 0.04300476888509972
-0.030462411856137208 0.020523060450783736 0.14378580175800143
-0.01643811832761567 0.02910722383034674 0.13418589209016923
-0.002413824799094136 0.03769138720990975 0.12458598242233704
0.011610468729427389 0.04627555058947276 0.11498607275450486
0.025634762257948925 0.05485971396903577 0.10538616308667267
0.03965905578647046 0.06344387734859877 0.09578625341884048
0.05368334931499198 0.07202804072816178 0.0861863437510083
0.06770764284351352 0.0806122041077248 0.0765864340831761
0.08173193637203505 0.0891963674872878 0.0669865244153439
0.09575622990055659 0.0977805308668508 0.05738661474751172
-0.09575622990055659 -0.0977805308668508 -0.05738661474751172
-0.08173193637203505 -0.0891963674872878 -0.0669865244153439
-0.06770764284351352 -0.0806122041077248 -0.0765864340831761
-0.053683349314991996 -0.07202804072816178 -0.08618634375100828
-0.03965905578647046 -0.06344387734859877 -0.09578625341884048
-0.025634762257948925 -0.05485971396903577 -0.10538616308667267
-0.011610468729427396 -0.04627555058947276 -0.11498607275450486
0.002413824799094136 -0.03769138720990975 -0.12458598242233704
0.01643811832761567 -0.02910722383034674 -0.13418589209016923
0.030462411856137208 -0.020523060450783736 -0.14378580175800143
-0.10048132712220775 -0.0811471544120639 -0.04941596988708893
-0.08645703359368621 -0.0725629910325009 -0.059015879554921116
-0.07243274006516469 -0.06397882765293789 -0.06861578922275331
-0.05840844653664316 -0.05539466427337489 -0.0782156988905855
-0.04438415300812163 -0.04681050089381188 -0.08781560855841769
-0.030359859479600095 -0.038226337514248865 -0.09741551822624987
-0.01633556595107857 -0.029642174134685863 -0.10701542789408205
-0.002311272422557038 -0.02105801075512285 -0.11661533756191425
0.011713021105964502 -0.012473847375559842 -0.12621524722974645
0.025737314634486027 -0.003889683995996836 -0.13581515689757864
-0.10520642434385892 -0.06451377795727699 -0.04144532502666613
-0.0911821308153374 -0.05592961457771399 -0.05104523469449832
-0.07715783728681586 -0.04734545119815098 -0.06064514436233051
-0.06313354375829433 -0.03876128781858797 -0.07024505403016269
-0.0491092502297728 -0.03017712443902496 -0.07984496369799489
-0.035084956701251266 -0.021592961059461947 -0.08944487336582709
-0.021060663172729744 -0.013008797679898947 -0.09904478303365927
-0.007036369644208205 -0.004424634300335934 -0.10864469270149145
0.0069879238843133275 0.004159529079227074 -0.11824460236932365
0.02101221741283486 0.012743692458790078 -0.12784451203715583
-0.10993152156551009 -0.04788040150249008 -0.03347468016624334
-0.09590722803698856 -0.03929623812292708 -0.04307458983407553
-0.08188293450846702 -0.030712074743364067 -0.052674499501907716
-0.0678586409799455 -0.02212791136380107 -0.062274409169739905
-0.053834347451423965 -0.01354374798423806 -0.0718743188375721
-0.03981005392290243 -0.0049595846046750465 -0.08147422850540428
-0.025785760394380908 0.003624578774887955 -0.09107413817323647
-0.011761466865859372 0.012208742154450966 -0.10067404784106866
0.00226282666266216 0.020792905534013976 -0.11027395750890086
0.016287120191183693 0.02937706891357698 -0.11987386717673304
-0.11465661878716127 -0.03124702504770317 -0.02550403530582054
-0.10063232525863973 -0.022662861668140164 -0.03510394497365273
-0.0866080317301182 -0.014078698288577161 -0.04470385464148492
-0.07258373820159668 -0.005494534909014155 -0.054303764309317104
-0.05855944467307514 0.0030896284705488565 -0.0639036739771493
-0.04453515114455361 0.011673791850111866 -0.0735035836449815
-0.03051085761603208 0.020257955229674867 -0.08310349331281368
-0.016486564087510546 0.02884211860923788 -0.09270340298064586
-0.0024622705589890143 0.03742628198880089 -0.10230331264847806
0.011562022969532525 0.04601044536836389 -0.11190322231631025
-0.11938171600881244 -0.014613648592916263 -0.01753339044539774
-0.1053574224802909 -0.006029485213353257 -0.027133300113229928
-0.09133312895176937 0.002554678166209753 -0.03673320978106213
-0.07730883542324785 0.011138841545772757 -0.04633311944889431
-0.0632845418947263 0.019723004925335765 -0.0559330291167265
-0.049260248366204774 0.028307168304898777 -0.0655329387845587
-0.035235954837683256 0.03689133168446178 -0.07513284845239088
-0.021211661309161713 0.04547549506402479 -0.08473275812022307
-0.007187367780640181 0.054059658443587795 -0.09433266778805525
0.006836925747881351 0.0626438218231508 -0.10393257745588745
-0.1241068132304636 0.002019727861870639 -0.009562745584974953
-0.11008251970194206 0.010603891241433643 -0.01916265525280714
-0.09605822617342054 0.019188054620996653 -0.02876256492063933
-0.08203393264489901 0.027772218000559658 -0.03836247458847152
-0.06800963911637747 0.03635638138012266 -0.04796238425630371
-0.05398534558785594 0.044940544759685674 -0.0575622939241359
-0.03996105205933442 0.05352470813924867 -0.06716220359196809
-0.025936758530812884 0.062108871518811684 -0.07676211325980027
-0.011912465002291348 0.0706930348983747 -0.08636202292763247
0.0021118285262301836 0.07927719827793771 -0.09596193259546466
-0.12883191045211478 0.018653104316657555 -0.001592100724552158
-0.11480761692359324 0.02723726769622056 -0.01119201039238434
-0.1007833233950717 0.03582143107578357 -0.020791920060216535
-0.08675902986655018 0.04440559445534657 -0.030391829728048717
-0.07273473633802865 0.05298975783490958 -0.03999173939588091
-0.058710442809507116 0.06157392121447259 -0.0495916490637131
-0.04468614928098559 0.0701580845940356 -0.05919155873154529
-0.030661855752464055 0.0787422479735986 -0.06879146839937748
-0.016637562223942522 0.08732641135316162 -0.07839137806720967
-0.0026132686954209905 0.09591057473272462 -0.08799128773504186
-0.13355700767376594 0.035286480771444466 0.006378544135870644
-0.11953271414524441 0.04387064415100747 -0.0032213655319615385
-0.10550842061672287 0.05245480753057048 -0.012821275199793735
-0.09148412708820135 0.06103897091013348 -0.022421184867625916
-0.07745983355967982 0.06962313428969649 -0.032021094535458115
-0.06343554003115828 0.0782072976692595 -0.041621004203290304
-0.049411246502636764 0.0867914610488225 -0.051220913871122487
-0.035386952974115225 0.09537562442838551 -0.06082082353895468
-0.021362659445593696 0.10395978780794853 -0.07042073320678688
-0.007338365917072157 0.11254395118751152 -0.08002064287461906
-0.13828210489541712 0.05191985722623137 0.014349188996293444
-0.12425781136689558 0.06050402060579437 0.004749279328461249
-0.11023351783837405 0.06908818398535738 -0.004850630339370947
-0.09620922430985253 0.07767234736492039 -0.01445054000720313
-0.08218493078133099 0.0862565107444834 -0.024050449675035317
-0.06816063725280946 0.0948406741240464 -0.03365035934286751
-0.05413634372428793 0.10342483750360941 -0.0432502690106997
-0.0401120501957664 0.11200900088317242 -0.05285017867853189
-0.026087756667244864 0.12059316426273543 -0.062450088346364084
-0.012063463138723331 0.12917732764229845 -0.07204999801419627
0.012063463138723331 -0.12917732764229845 0.07204999801419627
0.026087756667244864 -0.12059316426273543 0.062450088346364084
0.0401120501957664 -0.11200900088317242 0.05285017867853189
0.054136343724287925 -0.10342483750360941 0.043250269010699706
0.06816063725280946 -0.0948406741240464 0.03365035934286751
0.08218493078133099 -0.0862565107444834 0.024050449675035317
0.09620922430985251 -0.07767234736492039 0.014450540007203137
0.11023351783837405 -0.06908818398535738 0.004850630339370947
0.12425781136689558 -0.06050402060579437 -0.004749279328461249
0.13828210489541712 -0.05191985722623137 -0.014349188996293444
0.007338365917072157 -0.11254395118751152 0.08002064287461906
0.021362659445593696 -0.10395978780794853 0.07042073320678688
0.035386952974115225 -0.09537562442838551 0.06082082353895468
0.04941124650263675 -0.08679146104882252 0.05122091387112249
0.06343554003115828 -0.0782072976692595 0.041621004203290304
0.07745983355967982 -0.06962313428969649 0.032021094535458115
0.09148412708820135 -0.061038970910133494 0.02242118486762593
0.10550842061672287 -0.05245480753057048 0.012821275199793735
0.11953271414524441 -0.04387064415100747 0.0032213655319615385
0.13355700767376594 -0.035286480771444466 -0.006378544135870644
0.0026132686954209905 -0.09591057473272462 0.08799128773504186
0.016637562223942522 -0.08732641135316162 0.07839137806720967
0.030661855752464055 -0.0787422479735986 0.06879146839937748
0.04468614928098558 -0.0701580845940356 0.059191558731545295
0.058710442809507116 -0.06157392121447259 0.0495916490637131
0.07273473633802865 -0.05298975783490958 0.03999173939588091
0.08675902986655017 -0.04440559445534658 0.030391829728048724
0.1007833233950717 -0.03582143107578357 0.020791920060216535
0.11480761692359324 -0.02723726769622056 0.01119201039238434
0.12883191045211478 -0.018653104316657555 0.001592100724552158
-0.0021118285262301767 -0.07927719827793771 0.09596193259546465
0.011912465002291355 -0.07069303489837471 0.08636202292763247
0.025936758530812887 -0.0621088715188117 0.07676211325980027
0.039961052059334416 -0.0535247081392487 0.06716220359196809
0.05398534558785595 -0.04494054475968569 0.05756229392413589
0.06800963911637749 -0.036356381380122677 0.047962384256303704
0.08203393264489901 -0.02777221800055968 0.03836247458847152
0.09605822617342054 -0.019188054620996667 0.028762564920639323
0.11008251970194208 -0.010603891241433657 0.019162655252807134
0.1241068132304636 -0.0020197278618706528 0.009562745584974946
-0.006836925747881351 -0.0626438218231508 0.10393257745588745
0.007187367780640181 -0.054059658443587795 0.09433266778805525
0.021211661309161713 -0.04547549506402479 0.08473275812022307
0.03523595483768324 -0.036891331684461785 0.07513284845239088
0.049260248366204774 -0.028307168304898777 0.0655329387845587
0.0632845418947263 -0.019723004925335765 0.0559330291167265
0.07730883542324783 -0.011138841545772764 0.04633311944889432
0.09133312895176937 -0.002554678166209753 0.03673320978106213
0.1053574224802909 0.006029485213353257 0.027133300113229928
0.11938171600881244 0.014613648592916263 0.01753339044539774
-0.011562022969532525 -0.04601044536836389 0.11190322231631025
0.0024622705589890143 -0.03742628198880089 0.10230331264847806
0.016486564087510546 -0.02884211860923788 0.09270340298064586
0.03051085761603207 -0.020257955229674874 0.08310349331281368
0.04453515114455361 -0.011673791850111866 0.0735035836449815
0.05855944467307514 -0.0030896284705488565 0.0639036739771493
0.07258373820159666 0.005494534909014148 0.05430376430931711
0.0866080317301182 0.014078698288577161 0.04470385464148492
0.10063232525863973 0.022662861668140164 0.03510394497365273
0.11465661878716127 0.03124702504770317 0.02550403530582054
-0.016287120191183693 -0.029377068913576995 0.11987386717673304
-0.002262826662662153 -0.02079290553401399 0.11027395750890084
0.011761466865859379 -0.01220874215445098 0.10067404784106866
0.0257857603943809 -0.0036245787748879757 0.09107413817323647
0.03981005392290244 0.004959584604675033 0.08147422850540428
0.05383434745142397 0.013543747984238045 0.07187431883757209
0.0678586409799455 0.02212791136380104 0.062274409169739905
0.08188293450846704 0.030712074743364053 0.05267449950190771
0.09590722803698856 0.03929623812292707 0.04307458983407552
0.1099315215655101 0.04788040150249008 0.03347468016624333
-0.02101221741283486 -0.012743692458790078 0.12784451203715583
-0.0069879238843133275 -0.004159529079227074 0.11824460236932365
0.007036369644208205 0.004424634300335934 0.10864469270149145
0.02106066317272973 0.01300879767989894 0.09904478303365927
0.035084956701251266 0.021592961059461947 0.08944487336582709
0.0491092502297728 0.03017712443902496 0.07984496369799489
0.06313354375829433 0.03876128781858797 0.0702450540301627
0.07715783728681586 0.04734545119815098 0.06064514436233051
0.0911821308153374 0.05592961457771399 0.05104523469449832
0.10520642434385892 0.06451377795727699 0.04144532502666613
-0.025737314634486027 0.003889683995996836 0.13581515689757864
-0.011713021105964502 0.012473847375559842 0.12621524722974645
0.002311272422557038 0.02105801075512285 0.11661533756191425
0.016335565951078563 0.02964217413468585 0.10701542789408207
0.030359859479600095 0.038226337514248865 0.09741551822624987
0.04438415300812163 0.04681050089381188 0.08781560855841769
0.058408446536643156 0.055394664273374875 0.07821569889058551
0.07243274006516469 0.06397882765293789 0.06861578922275331
0.08645703359368621 0.0725629910325009 0.059015879554921116
0.10048132712220775 0.0811471544120639 0.04941596988708893
-0.030462411856137208 0.020523060450783736 0.14378580175800143
-0.01643811832761567 0.02910722383034674 0.13418589209016923
-0.002413824799094136 0.03769138720990975 0.12458598242233704
0.011610468729427389 0.04627555058947276 0.11498607275450486
0.025634762257948925 0.05485971396903577 0.10538616308667267
0.03965905578647046 0.06344387734859877 0.09578625341884048
0.05368334931499198 0.07202804072816178 0.0861863437510083
0.06770764284351352 0.0806122041077248 0.0765864340831761
0.08173193637203505 0.0891963674872878 0.0669865244153439
0.09575622990055659 0.0977805308668508 0.05738661474751172
