# .PCD v0.7 - Point Cloud Data file format
VERSION 0.7
FIELDS x y z
SIZE 4 4 4
TYPE F F F
COUNT 1 1 1
WIDTH 600
HEIGHT 1
VIEWPOINT 0 0 0 1 0 0 0
POINTS 600
DATA ascii
0.03963815748008153 -0.11284857075876546 -0.11407681769298363
0.028511664836937234 -0.09516280213384921 -0.11769876684050685
0.017385172193792944 -0.07747703350893297 -0.1213207159880301
0.006258679550648643 -0.059791264884016725 -0.12494266513555333
-0.004867813092495647 -0.04210549625910048 -0.12856461428307656
-0.015994305735639952 -0.02441972763418424 -0.1321865634305998
-0.02712079837878424 -0.006733959009268009 -0.13580851257812304
-0.03824729102192853 0.010951809615648239 -0.13943046172564627
-0.049373783665072835 0.02863757824056448 -0.14305241087316953
-0.06050027630821714 0.04632334686548073 -0.14667436002069276
0.028084604644686567 -0.11655538674558791 -0.09668490295829052
0.01695811200154227 -0.09886961812067166 -0.10030685210581376
0.005831619358397981 -0.08118384949575541 -0.10392880125333699
-0.005294873284746322 -0.06349808087083918 -0.10755075040086023
-0.016421365927890612 -0.04581231224592294 -0.11117269954838346
-0.027547858571034915 -0.02812654362100669 -0.1147946486959067
-0.038674351214179205 -0.010440774996090465 -0.11841659784342994
-0.049800843857323494 0.007244993628825783 -0.12203854699095318
-0.0609273365004678 0.024930762253742026 -0.12566049613847644
-0.0720538291436121 0.04261653087865827 -0.12928244528599966
0.01653105180929161 -0.12026220273241037 -0.07929298822359744
0.0054045591661473135 -0.10257643410749412 -0.08291493737112067
-0.005721933476996976 -0.08489066548257787 -0.08653688651864391
-0.01684842612014128 -0.06720489685766164 -0.09015883566616714
-0.027974918763285568 -0.049519128232745395 -0.09378078481369038
-0.03910141140642987 -0.03183335960782915 -0.09740273396121363
-0.05022790404957416 -0.014147590982912918 -0.10102468310873686
-0.06135439669271845 0.0035381776420033303 -0.1046466322562601
-0.07248088933586276 0.02122394626691957 -0.10826858140378334
-0.08360738197900706 0.03890971489183582 -0.11189053055130657
0.004977498973896649 -0.12396901871923283 -0.06190107348890435
-0.006148993669247647 -0.10628325009431658 -0.06552302263642758
-0.017275486312391935 -0.08859748146940033 -0.06914497178395082
-0.02840197895553624 -0.0709117128444841 -0.07276692093147405
-0.03952847159868053 -0.05322594421956785 -0.07638887007899729
-0.050654964241824835 -0.0355401755946516 -0.08001081922652054
-0.061781456884969124 -0.01785440696973537 -0.08363276837404376
-0.07290794952811341 -0.00016863834481912365 -0.08725471752156701
-0.08403444217125772 0.017517130280097118 -0.09087666666909025
-0.09516093481440202 0.035202898905013366 -0.09449861581661348
-0.006576053861498312 -0.12767583470605529 -0.044509158754211256
-0.01770254650464261 -0.10999006608113902 -0.04813110790173449
-0.028829039147786898 -0.09230429745622278 -0.05175305704925773
-0.039955531790931205 -0.07461852883130654 -0.055375006196780964
-0.051082024434075494 -0.0569327602063903 -0.0589969553443042
-0.0622085170772198 -0.03924699158147405 -0.06261890449182744
-0.07333500972036408 -0.021561222956557827 -0.06624085363935067
-0.08446150236350837 -0.003875454331641578 -0.06986280278687391
-0.09558799500665267 0.013810314293274664 -0.07348475193439716
-0.10671448764979698 0.031496082918190914 -0.07710670108192039
-0.018129606696893275 -0.13138265069287772 -0.027117244019518164
-0.02925609934003757 -0.11369688206796148 -0.0307391931670414
-0.04038259198318186 -0.09601111344304523 -0.034361142314564636
-0.05150908462632616 -0.078325344818129 -0.03798309146208787
-0.06263557726947046 -0.06063957619321276 -0.04160504060961111
-0.07376206991261476 -0.04295380756829651 -0.04522698975713435
-0.08488856255575905 -0.02526803894338028 -0.04884893890465758
-0.09601505519890334 -0.007582270318464032 -0.05247088805218082
-0.10714154784204764 0.010103498306452208 -0.056092837199704065
-0.11826804048519195 0.027789266931368458 -0.059714786347227294
-0.029683159532288228 -0.13508946667970018 -0.009725329284825083
-0.040809652175432524 -0.11740369805478393 -0.01334727843234832
-0.051936144818576814 -0.09971792942986768 -0.016969227579871553
-0.06306263746172112 -0.08203216080495145 -0.02059117672739479
-0.07418913010486541 -0.06434639218003521 -0.024213125874918025
-0.08531562274800972 -0.04666062355511896 -0.02783507502244127
-0.096442115391154 -0.028974854930202732 -0.0314570241699645
-0.1075686080342983 -0.011289086305286484 -0.035078973317487744
-0.1186951006774426 0.006396682319629757 -0.03870092246501099
-0.1298215933205869 0.024082450944546006 -0.042322871612534216
-0.04123671236768319 -0.13879628266652264 0.007666585449868014
-0.05236320501082749 -0.12111051404160639 0.004044636302344778
-0.06348969765397178 -0.10342474541669014 0.0004226871548215415
-0.07461619029711608 -0.0857389767917739 -0.0031992619927016944
-0.08574268294026037 -0.06805320816685767 -0.00682121114022493
-0.09686917558340467 -0.050367439541941415 -0.010443160287748174
-0.10799566822654896 -0.03268167091702519 -0.014065109435271403
-0.11912216086969325 -0.01499590229210894 -0.017687058582794644
-0.13024865351283757 0.002689866332807301 -0.021309007730317887
-0.14137514615598187 0.02037563495772355 -0.024930956877841116
-0.052790265203078154 -0.1425030986533451 0.025058500184561103
-0.06391675784622246 -0.12481733002842885 0.021436551037037867
-0.07504325048936675 -0.1071315614035126 0.01781460188951463
-0.08616974313251105 -0.08944579277859636 0.014192652741991395
-0.09729623577565534 -0.07176002415368012 0.01057070359446816
-0.10842272841879964 -0.05407425552876387 0.006948754446944917
-0.11954922106194393 -0.03638848690384764 0.003326805299421688
-0.1306757137050882 -0.018702718278931395 -0.00029514384810155496
-0.1418022063482325 -0.0010169496540151526 -0.0039170929956247975
-0.15292869899137682 0.016668818970901094 -0.0075390421431480266
-0.06434381803847312 -0.14620991464016755 0.0424504149192542
-0.07547031068161741 -0.1285241460152513 0.03882846577173096
-0.0865968033247617 -0.11083837739033504 0.03520651662420773
-0.09772329596790601 -0.09315260876541881 0.03158456747668449
-0.1088497886110503 -0.07546684014050258 0.027962618329161255
-0.1199762812541946 -0.05778107151558633 0.024340669181638012
-0.1311027738973389 -0.0400953028906701 0.020718720034114783
-0.14222926654048318 -0.022409534265753848 0.01709677088659154
-0.15335575918362748 -0.004723765640837608 0.013474821739068298
-0.16448225182677179 0.01296200298407864 0.009852872591545069
0.16448225182677179 -0.01296200298407864 -0.009852872591545069
0.15335575918362748 0.004723765640837608 -0.013474821739068298
0.1422292665404832 0.02240953426575384 -0.01709677088659154
0.1311027738973389 0.040095302890670086 -0.020718720034114776
0.1199762812541946 0.05778107151558633 -0.024340669181638012
0.1088497886110503 0.07546684014050258 -0.027962618329161255
0.09772329596790601 0.0931526087654188 -0.031584567476684484
0.08659680332476172 0.11083837739033504 -0.03520651662420773
0.07547031068161741 0.1285241460152513 -0.03882846577173096
0.06434381803847312 0.14620991464016755 -0.0424504149192542
0.15292869899137682 -0.016668818970901094 0.0075390421431480266
0.1418022063482325 0.0010169496540151526 0.0039170929956247975
0.13067571370508824 0.01870271827893139 0.00029514384810155496
0.11954922106194393 0.036388486903847626 -0.003326805299421681
0.10842272841879964 0.05407425552876387 -0.006948754446944917
0.09729623577565534 0.07176002415368012 -0.01057070359446816
0.08616974313251105 0.08944579277859635 -0.014192652741991389
0.07504325048936675 0.1071315614035126 -0.01781460188951463
0.06391675784622246 0.12481733002842885 -0.021436551037037867
0.052790265203078154 0.1425030986533451 -0.025058500184561103
0.14137514615598187 -0.02037563495772355 0.024930956877841113
0.13024865351283757 -0.0026898663328073003 0.021309007730317884
0.11912216086969327 0.014995902292108934 0.01768705858279464
0.10799566822654896 0.032681670917025174 0.014065109435271403
0.09686917558340467 0.050367439541941415 0.010443160287748167
0.08574268294026037 0.06805320816685767 0.006821211140224925
0.07461619029711608 0.08573897679177389 0.0031992619927016957
0.06348969765397179 0.10342474541669014 -0.00042268715482154717
0.052363205010827495 0.12111051404160639 -0.004044636302344783
0.0412367123676832 0.13879628266652264 -0.007666585449868019
0.1298215933205869 -0.024082450944546002 0.0423228716125342
0.1186951006774426 -0.006396682319629754 0.03870092246501097
0.10756860803429831 0.01128908630528648 0.03507897331748773
0.096442115391154 0.02897485493020272 0.031457024169964494
0.08531562274800972 0.04666062355511896 0.027835075022441258
0.07418913010486541 0.06434639218003521 0.024213125874918015
0.06306263746172112 0.08203216080495143 0.020591176727394786
0.05193614481857683 0.09971792942986768 0.016969227579871543
0.04080965217543253 0.11740369805478393 0.013347278432348307
0.02968315953228824 0.13508946667970018 0.009725329284825071
0.11826804048519195 -0.027789266931368458 0.059714786347227294
0.10714154784204764 -0.010103498306452208 0.056092837199704065
0.09601505519890335 0.0075822703184640254 0.05247088805218082
0.08488856255575905 0.025268038943380266 0.048848938904657586
0.07376206991261476 0.04295380756829651 0.04522698975713435
0.06263557726947046 0.06063957619321276 0.04160504060961111
0.05150908462632616 0.07832534481812899 0.03798309146208788
0.040382591983181865 0.09601111344304523 0.034361142314564636
0.02925609934003757 0.11369688206796148 0.0307391931670414
0.018129606696893275 0.13138265069287772 0.027117244019518164
0.10671448764979698 -0.031496082918190914 0.07710670108192039
0.09558799500665267 -0.013810314293274664 0.07348475193439716
0.08446150236350838 0.003875454331641571 0.06986280278687391
0.07333500972036408 0.021561222956557814 0.06624085363935069
0.0622085170772198 0.03924699158147405 0.06261890449182744
0.051082024434075494 0.0569327602063903 0.0589969553443042
0.039955531790931205 0.07461852883130653 0.05537500619678097
0.028829039147786905 0.09230429745622278 0.05175305704925773
0.01770254650464261 0.10999006608113902 0.04813110790173449
0.006576053861498312 0.12767583470605529 0.044509158754211256
0.09516093481440202 -0.035202898905013366 0.09449861581661347
0.08403444217125772 -0.017517130280097114 0.09087666666909024
0.07290794952811343 0.00016863834481911915 0.087254717521567
0.06178145688496913 0.01785440696973536 0.08363276837404376
0.05065496424182484 0.0355401755946516 0.08001081922652052
0.03952847159868054 0.05322594421956785 0.07638887007899728
0.02840197895553625 0.07091171284448408 0.07276692093147405
0.017275486312391952 0.08859748146940033 0.0691449717839508
0.006148993669247655 0.10628325009431658 0.06552302263642758
-0.004977498973896642 0.12396901871923283 0.061901073488904335
0.08360738197900706 -0.03890971489183582 0.11189053055130656
0.07248088933586276 -0.02122394626691957 0.10826858140378333
0.06135439669271847 -0.0035381776420033363 0.10464663225626009
0.05022790404957417 0.014147590982912905 0.10102468310873686
0.03910141140642988 0.03183335960782915 0.09740273396121361
0.02797491876328557 0.049519128232745395 0.09378078481369037
0.016848426120141282 0.06720489685766162 0.09015883566616714
0.005721933476996986 0.08489066548257787 0.0865368865186439
-0.00540455916614731 0.10257643410749412 0.08291493737112067
-0.016531051809291607 0.12026220273241037 0.07929298822359743
0.0720538291436121 -0.04261653087865827 0.12928244528599966
0.0609273365004678 -0.024930762253742026 0.12566049613847644
0.04980084385732351 -0.00724499362882579 0.12203854699095318
0.038674351214179205 0.010440774996090451 0.11841659784342995
0.027547858571034915 0.02812654362100669 0.1147946486959067
0.016421365927890612 0.04581231224592294 0.11117269954838346
0.005294873284746322 0.06349808087083916 0.10755075040086023
-0.005831619358397974 0.08118384949575541 0.10392880125333699
-0.01695811200154227 0.09886961812067166 0.10030685210581376
-0.028084604644686567 0.11655538674558791 0.09668490295829052
0.06050027630821714 -0.04632334686548073 0.14667436002069276
0.049373783665072835 -0.02863757824056448 0.14305241087316953
0.038247291021928545 -0.010951809615648246 0.13943046172564627
0.02712079837878424 0.0067339590092679955 0.13580851257812304
0.015994305735639952 0.02441972763418424 0.1321865634305998
0.004867813092495647 0.04210549625910048 0.12856461428307656
-0.006258679550648643 0.05979126488401671 0.12494266513555334
-0.017385172193792937 0.07747703350893297 0.1213207159880301
-0.028511664836937234 0.09516280213384921 0.11769876684050685
-0.03963815748008153 0.11284857075876546 0.11407681769298363
0.03963815748008153 -0.11284857075876546 -0.11407681769298363
0.05350972351860268 -0.10175006322824469 -0.10249637934837932
0.06738128955712382 -0.09065155569772394 -0.09091594100377505
0.08125285559564495 -0.07955304816720318 -0.07933550265917076
0.09512442163416608 -0.06845454063668242 -0.06775506431456649
0.10899598767268723 -0.05735603310616167 -0.0561746259699622
0.12286755371120836 -0.04625752557564091 -0.04459418762535792
0.1367391197497295 -0.03515901804512016 -0.03301374928075363
0.15061068578825063 -0.0240605105145994 -0.021433310936149357
0.16448225182677179 -0.01296200298407864 -0.009852872591545069
0.028084604644686567 -0.11655538674558791 -0.09668490295829052
0.041956170683207714 -0.10545687921506713 -0.08510446461368623
0.055827736721728846 -0.09435837168454639 -0.07352402626908196
0.06969930276024998 -0.08325986415402563 -0.06194358792447767
0.08357086879877113 -0.07216135662350487 -0.05036314957987339
0.09744243483729227 -0.06106284909298413 -0.03878271123526911
0.1113140008758134 -0.04996434156246337 -0.027202272890664823
0.12518556691433452 -0.03886583403194262 -0.015621834546060535
0.13905713295285566 -0.027767326501421854 -0.0040413962014562614
0.15292869899137682 -0.016668818970901094 0.0075390421431480266
0.01653105180929161 -0.12026220273241037 -0.07929298822359744
0.030402617847812757 -0.1091636952018896 -0.06771254987899315
0.04427418388633389 -0.09806518767136885 -0.05613211153438887
0.05814574992485502 -0.08696668014084809 -0.044551673189784584
0.07201731596337616 -0.07586817261032733 -0.0329712348451803
0.0858888820018973 -0.06476966507980658 -0.021390796500576018
0.09976044804041843 -0.05367115754928582 -0.009810358155971739
0.11363201407893957 -0.04257265001876507 0.0017700801886325495
0.1275035801174607 -0.03147414248824431 0.013350518533236823
0.14137514615598187 -0.02037563495772355 0.024930956877841113
0.004977498973896649 -0.12396901871923283 -0.06190107348890435
0.018849065012417798 -0.11287051118871205 -0.050320635144300054
0.03272063105093893 -0.1017720036581913 -0.03874019679969578
0.046592197089460066 -0.09067349612767055 -0.027159758455091495
0.0604637631279812 -0.07957498859714979 -0.015579320110487212
0.07433532916650235 -0.06847648106662904 -0.003998881765882929
0.08820689520502348 -0.057377973536108275 0.007581556578721352
0.10207846124354461 -0.04627946600558752 0.01916199492332564
0.11595002728206574 -0.03518095847506676 0.030742433267929914
0.1298215933205869 -0.024082450944546002 0.0423228716125342
-0.006576053861498312 -0.12767583470605529 -0.044509158754211256
0.007295512177022834 -0.1165773271755345 -0.03292872040960697
0.021167078215543967 -0.10547881964501375 -0.021348282065002687
0.0350386442540651 -0.09438031211449299 -0.009767843720398402
0.048910210292586236 -0.08328180458397223 0.00181259462420588
0.06278177633110739 -0.07218329705345149 0.013393032968810163
0.07665334236962852 -0.06108478952293073 0.024973471313414444
0.09052490840814965 -0.049986281992409974 0.03655390965801873
0.10439647444667079 -0.038887774461889214 0.048134348002623006
0.11826804048519195 -0.027789266931368458 0.059714786347227294
-0.018129606696893275 -0.13138265069287772 -0.027117244019518164
-0.004258040658372129 -0.12028414316235696 -0.015536805674913872
0.009613525380149004 -0.10918563563183621 -0.0039563673303095945
0.02348509141867014 -0.09808712810131545 0.00762407101429469
0.03735665745719128 -0.08698862057079469 0.019204509358898975
0.051228223495712426 -0.07589011304027395 0.030784947703503256
0.06509978953423355 -0.06479160550975319 0.04236538604810754
0.07897135557275468 -0.05369309797923243 0.053945824392711825
0.09284292161127582 -0.042594590448711674 0.0655262627373161
0.10671448764979698 -0.031496082918190914 0.07710670108192039
-0.029683159532288228 -0.13508946667970018 -0.009725329284825083
-0.01581159349376708 -0.1239909591491794 0.001855109059779209
-0.0019400274552459503 -0.11289245161865866 0.013435547404383486
0.011931538583275185 -0.1017939440881379 0.025015985748987772
0.025803104621796323 -0.09069543655761714 0.03659642409359205
0.03967467066031747 -0.07959692902709639 0.048176862438196334
0.0535462366988386 -0.06849842149657563 0.059757300782800615
0.06741780273735973 -0.057399913966054886 0.0713377391274049
0.08128936877588086 -0.046301406435534126 0.08291817747200918
0.09516093481440202 -0.035202898905013366 0.09449861581661347
-0.04123671236768319 -0.13879628266652264 0.007666585449868014
-0.027365146329162048 -0.12769777513600186 0.019247023794472306
-0.013493580290640916 -0.11659926760548112 0.030827462139076584
0.0003779857478802212 -0.10550076007496036 0.042407900483680865
0.014249551786401356 -0.0944022525444396 0.05398833882828515
0.028121117824922503 -0.08330374501391885 0.06556877717288943
0.04199268386344364 -0.07220523748339809 0.07714921551749371
0.05586424990196477 -0.06110672995287734 0.088729653862098
0.0697358159404859 -0.05000822242235658 0.10031009220670227
0.08360738197900706 -0.03890971489183582 0.11189053055130656
-0.052790265203078154 -0.1425030986533451 0.025058500184561103
-0.03891869916455701 -0.13140459112282432 0.036638938529165395
-0.025047133126035875 -0.12030608359230358 0.048219376873769676
-0.01117556708751474 -0.10920757606178282 0.05979981521837396
0.0026959989510063963 -0.09810906853126206 0.07138025356297824
0.016567564989527543 -0.08701056100074131 0.08296069190758253
0.030439131028048676 -0.07591205347022055 0.0945411302521868
0.04431069706656981 -0.06481354593969979 0.10612156859679109
0.05818226310509094 -0.05371503840917903 0.11770200694139536
0.0720538291436121 -0.04261653087865827 0.12928244528599966
-0.06434381803847312 -0.14620991464016755 0.0424504149192542
-0.05047225199995197 -0.13511140710964678 0.054030853263858494
-0.03660068596143084 -0.12401289957912602 0.06561129160846277
-0.022729119922909703 -0.11291439204860526 0.07719172995306706
-0.008857553884388568 -0.1018158845180845 0.08877216829767133
0.005014012154132578 -0.09071737698756376 0.10035260664227562
0.018885578192653713 -0.079618869457043 0.1119330449868799
0.032757144231174845 -0.06852036192652225 0.1235134833314842
0.04662871026969598 -0.05742185439600149 0.13509392167608847
0.06050027630821714 -0.04632334686548073 0.14667436002069276
-0.06050027630821714 0.04632334686548073 -0.14667436002069276
-0.04662871026969598 0.05742185439600149 -0.13509392167608847
-0.032757144231174845 0.06852036192652224 -0.1235134833314842
-0.018885578192653713 0.079618869457043 -0.1119330449868799
-0.005014012154132578 0.09071737698756376 -0.10035260664227562
0.008857553884388568 0.1018158845180845 -0.08877216829767133
0.022729119922909692 0.11291439204860526 -0.07719172995306706
0.03660068596143083 0.12401289957912602 -0.06561129160846277
0.05047225199995197 0.13511140710964678 -0.054030853263858494
0.06434381803847312 0.14620991464016755 -0.0424504149192542
-0.0720538291436121 0.04261653087865827 -0.12928244528599966
-0.05818226310509094 0.05371503840917903 -0.11770200694139536
-0.04431069706656981 0.06481354593969979 -0.10612156859679109
-0.030439131028048676 0.07591205347022055 -0.0945411302521868
-0.016567564989527543 0.08701056100074131 -0.08296069190758253
-0.0026959989510063963 0.09810906853126206 -0.07138025356297824
0.011175567087514729 0.10920757606178282 -0.059799815218373964
0.02504713312603587 0.12030608359230358 -0.048219376873769676
0.03891869916455701 0.13140459112282432 -0.036638938529165395
0.052790265203078154 0.1425030986533451 -0.025058500184561103
-0.08360738197900706 0.03890971489183582 -0.11189053055130657
-0.0697358159404859 0.05000822242235658 -0.10031009220670228
-0.055864249901964765 0.06110672995287733 -0.08872965386209801
-0.04199268386344363 0.07220523748339809 -0.07714921551749372
-0.0281211178249225 0.08330374501391885 -0.06556877717288943
-0.014249551786401353 0.0944022525444396 -0.05398833882828515
-0.00037798574788022786 0.10550076007496036 -0.04240790048368088
0.013493580290640912 0.11659926760548112 -0.03082746213907659
0.02736514632916205 0.12769777513600186 -0.01924702379447231
0.0412367123676832 0.13879628266652264 -0.007666585449868019
-0.09516093481440202 0.035202898905013366 -0.09449861581661348
-0.08128936877588086 0.046301406435534126 -0.08291817747200919
-0.06741780273735973 0.05739991396605488 -0.07133773912740492
-0.053546236698838595 0.06849842149657563 -0.05975730078280063
-0.03967467066031746 0.07959692902709639 -0.04817686243819635
-0.025803104621796313 0.09069543655761714 -0.03659642409359207
-0.011931538583275189 0.1017939440881379 -0.02501598574898779
0.0019400274552459507 0.11289245161865866 -0.013435547404383501
0.015811593493767092 0.1239909591491794 -0.0018551090597792202
0.02968315953228824 0.13508946667970018 0.009725329284825071
-0.10671448764979698 0.031496082918190914 -0.07710670108192039
-0.09284292161127582 0.042594590448711674 -0.0655262627373161
-0.07897135557275468 0.053693097979232426 -0.053945824392711825
-0.06509978953423355 0.06479160550975319 -0.04236538604810754
-0.051228223495712426 0.07589011304027395 -0.030784947703503256
-0.03735665745719128 0.08698862057079469 -0.019204509358898975
-0.02348509141867015 0.09808712810131545 -0.007624071014294697
-0.00961352538014901 0.10918563563183621 0.003956367330309591
0.004258040658372129 0.12028414316235696 0.015536805674913872
0.018129606696893275 0.13138265069287772 0.027117244019518164
-0.11826804048519195 0.027789266931368458 -0.059714786347227294
-0.10439647444667079 0.038887774461889214 -0.048134348002623006
-0.09052490840814965 0.04998628199240997 -0.03655390965801873
-0.07665334236962852 0.06108478952293073 -0.024973471313414444
-0.06278177633110739 0.07218329705345149 -0.013393032968810163
-0.048910210292586236 0.08328180458397223 -0.00181259462420588
-0.03503864425406511 0.09438031211449299 0.009767843720398395
-0.021167078215543974 0.10547881964501375 0.021348282065002683
-0.007295512177022834 0.1165773271755345 0.03292872040960697
0.006576053861498312 0.12767583470605529 0.044509158754211256
-0.1298215933205869 0.024082450944546006 -0.042322871612534216
-0.11595002728206574 0.03518095847506676 -0.030742433267929924
-0.10207846124354461 0.046279466005587515 -0.01916199492332565
-0.08820689520502348 0.057377973536108275 -0.007581556578721363
-0.07433532916650235 0.06847648106662904 0.003998881765882918
-0.06046376312798119 0.07957498859714979 0.0155793201104872
-0.046592197089460066 0.09067349612767055 0.027159758455091478
-0.03272063105093893 0.1017720036581913 0.038740196799695766
-0.018849065012417787 0.11287051118871205 0.05032063514430005
-0.004977498973896642 0.12396901871923283 0.061901073488904335
-0.14137514615598187 0.02037563495772355 -0.024930956877841116
-0.1275035801174607 0.03147414248824431 -0.01335051853323683
-0.11363201407893957 0.04257265001876506 -0.0017700801886325552
-0.09976044804041843 0.05367115754928582 0.009810358155971732
-0.0858888820018973 0.06476966507980658 0.021390796500576015
-0.07201731596337616 0.07586817261032733 0.032971234845180296
-0.05814574992485503 0.08696668014084809 0.04455167318978457
-0.04427418388633389 0.09806518767136885 0.05613211153438886
-0.030402617847812754 0.1091636952018896 0.06771254987899314
-0.016531051809291607 0.12026220273241037 0.07929298822359743
-0.15292869899137682 0.016668818970901094 -0.0075390421431480266
-0.13905713295285566 0.027767326501421854 0.0040413962014562614
-0.12518556691433452 0.03886583403194261 0.015621834546060535
-0.1113140008758134 0.04996434156246337 0.027202272890664823
-0.09744243483729227 0.06106284909298413 0.03878271123526911
-0.08357086879877113 0.07216135662350487 0.05036314957987339
-0.06969930276024999 0.08325986415402563 0.06194358792447766
-0.05582773672172885 0.09435837168454639 0.07352402626908196
-0.041956170683207714 0.10545687921506713 0.08510446461368623
-0.028084604644686567 0.11655538674558791 0.09668490295829052
-0.16448225182677179 0.01296200298407864 0.009852872591545069
-0.15061068578825063 0.0240605105145994 0.021433310936149357
-0.1367391197497295 0.03515901804512015 0.03301374928075363
-0.12286755371120836 0.04625752557564091 0.04459418762535792
-0.10899598767268723 0.05735603310616167 0.0561746259699622
-0.09512442163416608 0.06845454063668242 0.06775506431456649
-0.08125285559564496 0.07955304816720318 0.07933550265917076
-0.06738128955712382 0.09065155569772394 0.09091594100377505
-0.05350972351860268 0.10175006322824469 0.10249637934837932
-0.03963815748008153 0.11284857075876546 0.11407681769298363
0.03963815748008153 -0.11284857075876546 -0.11407681769298363
0.05350972351860268 -0.10175006322824469 -0.10249637934837932
0.06738128955712382 -0.09065155569772394 -0.09091594100377505
0.08125285559564495 -0.07955304816720318 -0.07933550265917076
0.09512442163416608 -0.06845454063668242 -0.06775506431456649
0.10899598767268723 -0.05735603310616167 -0.0561746259699622
0.12286755371120836 -0.04625752557564091 -0.04459418762535792
0.1367391197497295 -0.03515901804512016 -0.03301374928075363
0.15061068578825063 -0.0240605105145994 -0.021433310936149357
0.16448225182677179 -0.01296200298407864 -0.009852872591545069
0.028511664836937234 -0.09516280213384921 -0.11769876684050685
0.04238323087545838 -0.08406429460332844 -0.10611832849590257
0.05625479691397951 -0.0729657870728077 -0.09453789015129829
0.07012636295250065 -0.06186727954228693 -0.082957451806694
0.08399792899102179 -0.05076877201176617 -0.07137701346208972
0.09786949502954292 -0.039670264481245415 -0.059796575117485436
0.11174106106806406 -0.028571756950724666 -0.04821613677288116
0.1256126271065852 -0.017473249420203913 -0.036635698428276874
0.13948419314510635 -0.0063747418896831515 -0.025055260083672592
0.15335575918362748 0.004723765640837608 -0.013474821739068298
0.017385172193792944 -0.07747703350893297 -0.1213207159880301
0.03125673823231409 -0.06637852597841222 -0.10974027764342581
0.04512830427083522 -0.05528001844789145 -0.09815983929882152
0.058999870309356356 -0.044181510917370694 -0.08657940095421725
0.0728714363478775 -0.03308300338684994 -0.07499896260961296
0.08674300238639863 -0.021984495856329184 -0.06341852426500867
0.10061456842491977 -0.010885988325808433 -0.0518380859204044
0.1144861344634409 0.0002125192047123227 -0.04025764757580011
0.12835770050196205 0.011311026735233083 -0.02867720923119583
0.1422292665404832 0.02240953426575384 -0.01709677088659154
0.006258679550648643 -0.059791264884016725 -0.12494266513555333
0.020130245589169787 -0.048692757353495965 -0.11336222679094904
0.03400181162769093 -0.03759424982297521 -0.10178178844634476
0.04787337766621206 -0.026495742292454463 -0.09020135010174048
0.0617449437047332 -0.015397234761933701 -0.07862091175713619
0.07561650974325435 -0.004298727231412941 -0.06704047341253191
0.08948807578177546 0.006799780299107808 -0.055460035067927634
0.10335964182029661 0.017898287829628563 -0.043879596723323346
0.11723120785881774 0.028996795360149322 -0.032299158378719064
0.1311027738973389 0.040095302890670086 -0.020718720034114776
-0.004867813092495647 -0.04210549625910048 -0.12856461428307656
0.0090037529460255 -0.031006988728579727 -0.11698417593847228
0.022875318984546627 -0.019908481198058974 -0.10540373759386801
0.03674688502306776 -0.008809973667538213 -0.09382329924926372
0.0506184510615889 0.002288533862982543 -0.08224286090465943
0.06449001710011004 0.0133870413935033 -0.07066242256005514
0.07836158313863117 0.02448554892402405 -0.059081984215450876
0.09223314917715232 0.03558405645454481 -0.04750154587084659
0.10610471521567345 0.04668256398506557 -0.0359211075262423
0.1199762812541946 0.05778107151558633 -0.024340669181638012
-0.015994305735639952 -0.02441972763418424 -0.1321865634305998
-0.002122739697118804 -0.013321220103663477 -0.12060612508599552
0.011748826341402329 -0.0022227125731427246 -0.10902568674139124
0.025620392379923466 0.00887579495737803 -0.09744524839678695
0.039491958418444606 0.019974302487898787 -0.08586481005218267
0.053363524456965745 0.031072810018419543 -0.07428437170757839
0.06723509049548687 0.042171317548940296 -0.06270393336297411
0.08110665653400802 0.053269825079461056 -0.051123495018369824
0.09497822257252915 0.06436833260998182 -0.03954305667376554
0.1088497886110503 0.07546684014050258 -0.027962618329161255
-0.02712079837878424 -0.006733959009268009 -0.13580851257812304
-0.013249232340263093 0.00436454852125275 -0.12422807423351875
0.0006223336982580392 0.015463056051773503 -0.11264763588891448
0.014493899736779179 0.026561563582294258 -0.10106719754431019
0.028365465775300316 0.03766007111281502 -0.0894867591997059
0.042237031813821456 0.04875857864333578 -0.07790632085510162
0.05610859785234259 0.05985708617385652 -0.06632588251049734
0.06998016389086373 0.07095559370437728 -0.05474544416589306
0.08385172992938486 0.08205410123489804 -0.04316500582128877
0.09772329596790601 0.0931526087654188 -0.031584567476684484
-0.03824729102192853 0.010951809615648239 -0.13943046172564627
-0.0243757249834074 0.022050317146168997 -0.12785002338104198
-0.010504158944886257 0.03314882467668975 -0.11626958503643771
0.003367407093634882 0.044247332207210506 -0.10468914669183343
0.017238973132156013 0.055345839737731266 -0.09310870834722915
0.031110539170677156 0.06644434726825202 -0.08152827000262486
0.044982105209198285 0.07754285479877276 -0.06994783165802058
0.058853671247719425 0.08864136232929352 -0.058367393313416296
0.07272523728624057 0.09973986985981428 -0.046786954968812015
0.08659680332476172 0.11083837739033504 -0.03520651662420773
-0.049373783665072835 0.02863757824056448 -0.14305241087316953
-0.03550221762655169 0.03973608577108524 -0.13147197252856524
-0.021630651588030556 0.050834593301605994 -0.11989153418396095
-0.007759085549509421 0.061933100832126754 -0.10831109583935666
0.006112480489011725 0.07303160836264751 -0.09673065749475239
0.019984046527532856 0.08413011589316825 -0.0851502191501481
0.03385561256605399 0.09522862342368901 -0.07356978080554383
0.04772717860457513 0.10632713095420977 -0.06198934246093953
0.06159874464309627 0.11742563848473052 -0.05040890411633525
0.07547031068161741 0.1285241460152513 -0.03882846577173096
-0.06050027630821714 0.04632334686548073 -0.14667436002069276
-0.04662871026969598 0.05742185439600149 -0.13509392167608847
-0.032757144231174845 0.06852036192652224 -0.1235134833314842
-0.018885578192653713 0.079618869457043 -0.1119330449868799
-0.005014012154132578 0.09071737698756376 -0.10035260664227562
0.008857553884388568 0.1018158845180845 -0.08877216829767133
0.022729119922909692 0.11291439204860526 -0.07719172995306706
0.03660068596143083 0.12401289957912602 -0.06561129160846277
0.05047225199995197 0.13511140710964678 -0.054030853263858494
0.06434381803847312 0.14620991464016755 -0.0424504149192542
-0.06434381803847312 -0.14620991464016755 0.0424504149192542
-0.05047225199995197 -0.13511140710964678 0.054030853263858494
-0.03660068596143084 -0.12401289957912602 0.06561129160846277
-0.022729119922909703 -0.11291439204860526 0.07719172995306706
-0.008857553884388568 -0.1018158845180845 0.08877216829767133
0.005014012154132578 -0.09071737698756376 0.10035260664227562
0.018885578192653713 -0.079618869457043 0.1119330449868799
0.032757144231174845 -0.06852036192652225 0.1235134833314842
0.04662871026969598 -0.05742185439600149 0.13509392167608847
0.06050027630821714 -0.04632334686548073 0.14667436002069276
-0.07547031068161741 -0.1285241460152513 0.03882846577173096
-0.06159874464309627 -0.11742563848473052 0.05040890411633525
-0.047727178604575135 -0.10632713095420977 0.06198934246093953
-0.033855612566054 -0.09522862342368901 0.07356978080554381
-0.019984046527532856 -0.08413011589316825 0.0851502191501481
-0.006112480489011725 -0.07303160836264751 0.09673065749475239
0.007759085549509407 -0.061933100832126754 0.10831109583935666
0.02163065158803054 -0.050834593301606 0.11989153418396095
0.03550221762655169 -0.03973608577108524 0.13147197252856524
0.049373783665072835 -0.02863757824056448 0.14305241087316953
-0.0865968033247617 -0.11083837739033504 0.03520651662420773
-0.07272523728624056 -0.0997398698598143 0.046786954968812015
-0.05885367124771943 -0.08864136232929354 0.058367393313416296
-0.04498210520919829 -0.07754285479877278 0.06994783165802058
-0.031110539170677153 -0.06644434726825203 0.08152827000262486
-0.017238973132156013 -0.05534583973773127 0.09310870834722915
-0.003367407093634882 -0.04424733220721052 0.10468914669183342
0.01050415894488625 -0.03314882467668977 0.11626958503643771
0.0243757249834074 -0.022050317146169004 0.12785002338104198
0.038247291021928545 -0.010951809615648246 0.13943046172564627
-0.09772329596790601 -0.09315260876541881 0.03158456747668449
-0.08385172992938486 -0.08205410123489805 0.04316500582128878
-0.06998016389086373 -0.0709555937043773 0.05474544416589306
-0.05610859785234259 -0.05985708617385655 0.06632588251049734
-0.04223703181382145 -0.04875857864333579 0.07790632085510163
-0.02836546577530031 -0.03766007111281503 0.0894867591997059
-0.014493899736779186 -0.02656156358229428 0.10106719754431019
-0.0006223336982580392 -0.015463056051773524 0.11264763588891448
0.013249232340263093 -0.004364548521252764 0.12422807423351875
0.02712079837878424 0.0067339590092679955 0.13580851257812304
-0.1088497886110503 -0.07546684014050258 0.027962618329161255
-0.09497822257252915 -0.06436833260998182 0.03954305667376554
-0.08110665653400802 -0.05326982507946106 0.05112349501836982
-0.06723509049548688 -0.0421713175489403 0.0627039333629741
-0.053363524456965745 -0.031072810018419543 0.07428437170757839
-0.039491958418444606 -0.019974302487898787 0.08586481005218267
-0.025620392379923477 -0.008875794957378037 0.09744524839678695
-0.011748826341402336 0.0022227125731427177 0.10902568674139124
0.002122739697118804 0.013321220103663477 0.12060612508599552
0.015994305735639952 0.02441972763418424 0.1321865634305998
-0.1199762812541946 -0.05778107151558633 0.024340669181638012
-0.10610471521567345 -0.04668256398506557 0.0359211075262423
-0.09223314917715232 -0.035584056454544814 0.04750154587084658
-0.07836158313863119 -0.024485548924024058 0.05908198421545087
-0.06449001710011004 -0.0133870413935033 0.07066242256005514
-0.0506184510615889 -0.002288533862982543 0.08224286090465943
-0.03674688502306778 0.008809973667538206 0.0938232992492637
-0.022875318984546634 0.019908481198058967 0.105403737593868
-0.0090037529460255 0.031006988728579727 0.11698417593847228
0.004867813092495647 0.04210549625910048 0.12856461428307656
-0.1311027738973389 -0.0400953028906701 0.020718720034114783
-0.11723120785881774 -0.028996795360149336 0.03229915837871907
-0.10335964182029661 -0.017898287829628583 0.043879596723323346
-0.08948807578177548 -0.006799780299107829 0.055460035067927634
-0.07561650974325433 0.0042987272314129275 0.06704047341253191
-0.06174494370473319 0.015397234761933687 0.0786209117571362
-0.047873377666212066 0.026495742292454435 0.09020135010174048
-0.03400181162769093 0.03759424982297519 0.10178178844634476
-0.020130245589169787 0.04869275735349595 0.11336222679094905
-0.006258679550648643 0.05979126488401671 0.12494266513555334
-0.14222926654048318 -0.022409534265753848 0.01709677088659154
-0.12835770050196205 -0.01131102673523309 0.02867720923119583
-0.11448613446344091 -0.0002125192047123366 0.04025764757580011
-0.10061456842491977 0.01088598832580842 0.05183808592040439
-0.08674300238639863 0.021984495856329177 0.06341852426500867
-0.07287143634787749 0.033083003386849934 0.07499896260961296
-0.05899987030935636 0.04418151091737068 0.08657940095421723
-0.04512830427083522 0.05528001844789144 0.09815983929882152
-0.031256738232314084 0.0663785259784122 0.10974027764342581
-0.017385172193792937 0.07747703350893297 0.1213207159880301
-0.15335575918362748 -0.004723765640837608 0.013474821739068298
-0.13948419314510635 0.0063747418896831515 0.025055260083672592
-0.12561262710658522 0.017473249420203906 0.036635698428276874
-0.11174106106806407 0.028571756950724666 0.048216136772881155
-0.09786949502954292 0.039670264481245415 0.059796575117485436
-0.08399792899102179 0.05076877201176617 0.07137701346208972
-0.07012636295250066 0.06186727954228693 0.082957451806694
-0.05625479691397952 0.0729657870728077 0.09453789015129829
-0.04238323087545838 0.08406429460332844 0.10611832849590257
-0.028511664836937234 0.09516280213384921 0.11769876684050685
-0.16448225182677179 0.01296200298407864 0.009852872591545069
-0.15061068578825063 0.0240605105145994 0.021433310936149357
-0.1367391197497295 0.03515901804512015 0.03301374928075363
-0.12286755371120836 0.04625752557564091 0.04459418762535792
-0.10899598767268723 0.05735603310616167 0.0561746259699622
-0.09512442163416608 0.06845454063668242 0.06775506431456649
-0.08125285559564496 0.07955304816720318 0.07933550265917076
-0.06738128955712382 0.09065155569772394 0.09091594100377505
-0.05350972351860268 0.10175006322824469 0.10249637934837932
-0.03963815748008153 0.11284857075876546 0.11407681769298363
