# .PCD v0.7 - Point Cloud Data file format
VERSION 0.7
FIELDS x y z
SIZE 4 4 4
TYPE F F F
COUNT 1 1 1
WIDTH 700
HEIGHT 1
VIEWPOINT 0 0 0 1 0 0 0
POINTS 700
DATA ascii
0.134209393049314 0.01924585641351675 -0.129310397164867
0.14678464732489022 0.03678921084867117 -0.11047426968090902
0.15365331613841673 0.056661304173714844 -0.09101592188014208
0.15449422817015016 0.07793293939101412 -0.07184520447932977
0.1492680633080932 0.09960947847953255 -0.053858518917412036
0.13821919121273055 0.12067735056323393 -0.037896902620498926
0.12186424486330209 0.14015144535874238 -0.024706703026571762
0.10096796337388976 0.15712117583732169 -0.014904679208788706
0.07650743364238968 0.17079305626229438 -0.008949162906702189
0.049626402853120595 0.18052780470019236 -0.0071186274435168844
0.02158179812966888 0.18587023513345535 -0.009498666622997275
-0.006315045980436375 0.18657054145270896 -0.015977992458334415
-0.03275970405172196 0.18259597811279937 -0.02625363887472141
-0.056515653263900976 0.17413239127809096 -0.03984512806628868
-0.07647209183465312 0.16157552886237356 -0.05611693710429381
-0.0916958788763985 0.14551253579625584 -0.07430821428293656
-0.10147516702708907 0.12669449978277497 -0.09356835569949598
-0.10535268764169674 0.10600133127117645 -0.1129967785474435
-0.10314713216583703 0.0844006198222577 -0.13168503136755016
-0.09496162992226233 0.06290239069590374 -0.14875927222844892
-0.08117892589834981 0.04251187719249726 -0.16342112860414
-0.06244348401588238 0.024182517061029526 -0.17498502838597896
-0.03963135271433612 0.008771370809627378 -0.18291025647251852
-0.01380920189950844 -0.003000953491252486 -0.18682623800669046
0.013815553355758674 -0.010583995041299645 -0.1865498660442578
0.0419512101984392 -0.01362317924557921 -0.18209406343101853
0.06928217658510602 -0.011976397228509727 -0.17366717854489874
0.09453048690370588 -0.005720650686942638 -0.1616632431573636
0.1165155582252227 0.004851548623601332 -0.14664354794571827
0.13420939304931398 0.019245856413516737 -0.12931039716486703
0.12871120368500652 3.114557354268767e-06 -0.10771766955433953
0.14128645796058276 0.017546468992508685 -0.08888154207038154
0.14815512677410927 0.037418562317552355 -0.0694231942696146
0.1489960388058427 0.05869019753485163 -0.0502524768688023
0.1437698739437857 0.08036673662337007 -0.03226579130688456
0.1327210018484231 0.10143460870707145 -0.016304175009971455
0.1163660554989946 0.12090870350257989 -0.0031139754160442895
0.09546977400958227 0.1378784339811592 0.0066880484017387675
0.0710092442780822 0.1515503144061319 0.012643564703825284
0.04412821348881312 0.16128506284402988 0.014474100167010588
0.016083608765361402 0.16662749327729287 0.012094060987530198
-0.011813235344743852 0.16732779959654648 0.005614735152193058
-0.038257893416029434 0.1633532362566369 -0.004660911264193936
-0.06201384262820845 0.15488964942192848 -0.018252400455761212
-0.0819702811989606 0.14233278700621108 -0.034524209493766334
-0.09719406824070599 0.12626979394009336 -0.052715486672409086
-0.10697335639139656 0.10745175792661249 -0.07197562808896851
-0.11085087700600423 0.08675858941501396 -0.09140405093691603
-0.10864532153014451 0.06515787796609522 -0.11009230375702268
-0.10045981928656982 0.04365964883974126 -0.12716654461792146
-0.0866771152626573 0.023269135336334772 -0.14182840099361252
-0.06794167338018986 0.004939775204867044 -0.1533923007754515
-0.04512954207864359 -0.010471371046535106 -0.16131752886199105
-0.019307391263815917 -0.02224369534741497 -0.165233510396163
0.008317363991451198 -0.02982673689746213 -0.16495713843373033
0.036453020834131725 -0.0328659211017417 -0.16050133582049106
0.06378398722079855 -0.03121913908467221 -0.15207445093437127
0.0890322975393984 -0.02496339254310512 -0.14007051554683614
0.11101736886091522 -0.014391193232561151 -0.1250508203351908
0.12871120368500652 3.114557354254889e-06 -0.10771766955433956
0.12321301432069906 -0.019239627298808196 -0.08612494194381208
0.13578826859627527 -0.0016962728636537798 -0.0672888144598541
0.1426569374098018 0.018175820461389894 -0.047830466659087155
0.1434978494415352 0.03944745567868917 -0.028659749258274848
0.13827168457947825 0.06112399476720761 -0.01067306369635711
0.1272228124841156 0.08219186685090898 0.005288552600555998
0.11086786613468715 0.10166596164641742 0.018478752194483163
0.08997158464527481 0.11863569212499675 0.02828077601226622
0.06551105491377474 0.13230757254996942 0.03423629231435273
0.03863002412450565 0.14204232098786743 0.03606682777753804
0.010585419401053932 0.14738475142113042 0.03368678859805765
-0.017311424709051323 0.148085057740384 0.02720746276272051
-0.04375608278033691 0.1441104944004744 0.016931816346333516
-0.06751203199251592 0.13564690756576603 0.003340327154766241
-0.08746847056326806 0.12309004515004862 -0.012931481883238883
-0.10269225760501345 0.10702705208393089 -0.031122759061881635
-0.11247154575570402 0.08820901607045002 -0.05038290047844106
-0.11634906637031169 0.0675158475588515 -0.06981132332638858
-0.11414351089445197 0.04591513610993276 -0.08849957614649523
-0.10595800865087728 0.024416906983578797 -0.105573817007394
-0.09217530462696476 0.004026393480172307 -0.12023567338308506
-0.07343986274449732 -0.01430296665129542 -0.13179957316492402
-0.05062773144295107 -0.02971411290269757 -0.13972480125146358
-0.024805580628123387 -0.041486437203577434 -0.14364078278563555
0.0028191746271437274 -0.04906947875362459 -0.1433644108232029
0.03095483146982425 -0.05210866295790416 -0.1389086082099636
0.05828579785649107 -0.050461880940834675 -0.1304817233238438
0.08353410817509094 -0.044206134399267585 -0.11847778793630868
0.10551917949660776 -0.033633935088723615 -0.10345809272466336
0.12321301432069905 -0.01923962729880821 -0.08612494194381211
0.11771482495639159 -0.03848236915497067 -0.06453221433328463
0.1302900792319678 -0.020939014719816254 -0.045696086849326634
0.13715874804549433 -0.0010669213947725811 -0.026237739048559694
0.13799966007722775 0.020204713822526692 -0.007067021647747387
0.13277349521517076 0.041881252911045136 0.01091966391417035
0.12172462311980814 0.0629491249947465 0.02688128021108346
0.10536967677037967 0.08242321979025495 0.04007147980501063
0.08447339528096734 0.09939295026883427 0.049873503622793684
0.060012865549467255 0.11306483069380695 0.0558290199248802
0.033131834760198174 0.12279957913170494 0.057659555388065505
0.005087230036746459 0.12814200956496793 0.055279516208585115
-0.022809614073358797 0.12884231588422154 0.048800190373247974
-0.04925427214464438 0.12486775254431194 0.03852454395686098
-0.07301022135682339 0.11640416570960355 0.024933054765293703
-0.09296665992757554 0.10384730329388614 0.008661245727288578
-0.10819044696932092 0.08778431022776842 -0.009530031451354174
-0.11796973512001149 0.06896627421428755 -0.028790172867913598
-0.12184725573461916 0.04827310570268902 -0.048218595715861116
-0.11964170025875945 0.026672394253770285 -0.06690684853596778
-0.11145619801518475 0.005174165127416322 -0.08398108939686655
-0.09767349399127223 -0.015216348375990167 -0.09864294577255761
-0.0789380521088048 -0.033545708507457896 -0.11020684555439657
-0.05612592080725854 -0.048956854758860045 -0.11813207364093613
-0.03030376999243086 -0.06072917905973991 -0.12204805517510808
-0.0026790147371637462 -0.06831222060978707 -0.12177168321267542
0.025456642105516777 -0.07135140481406664 -0.11731588059943614
0.0527876084921836 -0.06970462279699716 -0.10888899571331635
0.07803591881078346 -0.06344887625543007 -0.09688506032578123
0.10002099013230029 -0.05287667694488609 -0.08186536511413589
0.11771482495639157 -0.038482369154970684 -0.06453221433328464
0.11221663559208411 -0.057725111011133146 -0.04293948672275716
0.12479188986766034 -0.04018175657597873 -0.02410335923879917
0.13166055868118684 -0.02030966325093506 -0.004645011438032228
0.13250147071292026 0.0009619719663642141 0.01452570596278008
0.1272753058508633 0.022638511054882657 0.032512391524697815
0.11622643375550067 0.043706383138584035 0.048474007821610925
0.0998714874060722 0.06318047793409247 0.06166420741553809
0.07897520591665987 0.0801502084126718 0.07146623123332115
0.05451467618515978 0.09382208883764448 0.07742174753540766
0.0276336453958907 0.10355683727554248 0.07925228299859297
-0.0004109593275610152 0.10889926770880547 0.07687224381911258
-0.02830780343766627 0.10959957402805906 0.07039291798377544
-0.054752461508951855 0.10562501068814947 0.06011727156738844
-0.07850841072113086 0.09716142385344108 0.04652578237582117
-0.09846484929188301 0.08460456143772367 0.030253973337816042
-0.1136886363336284 0.06854156837160594 0.012062696159173292
-0.12346792448431897 0.04972353235812508 -0.007197445257386132
-0.12734544509892665 0.029030363846526543 -0.026625868105333655
-0.12513988962306694 0.007429652397607807 -0.04531412092544031
-0.11695438737949222 -0.014068576728746156 -0.06238836178633908
-0.1031716833555797 -0.03445909023215264 -0.07705021816203014
-0.08443624147311227 -0.05278845036362037 -0.0886141179438691
-0.061624110171566014 -0.06819959661502252 -0.09653934603040866
-0.035801959356738335 -0.07997192091590238 -0.10045532756458062
-0.00817720410147122 -0.08755496246594954 -0.10017895560214796
0.019958452741209304 -0.09059414667022911 -0.09572315298890867
0.047289419127876126 -0.08894736465315962 -0.08729626810278888
0.07253772944647599 -0.08269161811159254 -0.07529233271525376
0.09452280076799281 -0.07211941880104857 -0.06027263750360843
0.1122166355920841 -0.05772511101113316 -0.04293948672275718
0.10671844622777663 -0.07696785286729563 -0.02134675911222969
0.11929370050335285 -0.05942449843214121 -0.002510631628271703
0.12616236931687938 -0.03955240510709754 0.01694771617249524
0.1270032813486128 -0.01828076988979826 0.036118433573307546
0.12177711648655581 0.0033957691987201817 0.05410511913522528
0.11072824439119318 0.024463641282421556 0.07006673543213839
0.09437329804176471 0.043937736077929994 0.08325693502606556
0.07347701655235238 0.06090746655650932 0.09305895884384861
0.04901648682085231 0.074579346981482 0.09901447514593513
0.022135456031583227 0.08431409541938 0.10084501060912043
-0.005909148691868489 0.08965652585264298 0.09846497142964004
-0.033805992801973744 0.09035683217189658 0.0919856455943029
-0.06025065087325933 0.08638226883198699 0.08170999917791591
-0.08400660008543835 0.0779186819972786 0.06811850998634864
-0.1039630386561905 0.06536181958156119 0.05184670094834351
-0.11918682569793589 0.04929882651544346 0.03365542376970076
-0.12896611384862644 0.0304807905019626 0.014395282353141333
-0.1328436344632341 0.009787621990364068 -0.005033140494806189
-0.1306380789873744 -0.011813089458554669 -0.02372139331491284
-0.12245257674379971 -0.033311318584908635 -0.04079563417581161
-0.10866987271988719 -0.053701832088315124 -0.055457490551502675
-0.08993443083741975 -0.07203119221978285 -0.06702139033334163
-0.0671222995358735 -0.087442338471185 -0.07494661841988119
-0.04130014872104581 -0.09921466277206487 -0.07886259995405315
-0.013675393465778694 -0.10679770432211202 -0.07858622799162049
0.01446026337690183 -0.10983688852639159 -0.0741304253783812
0.04179122976356865 -0.1081901065093221 -0.06570354049226142
0.0670395400821685 -0.10193435996775502 -0.053699605104726295
0.08902461140368532 -0.09136216065721105 -0.03867990989308096
0.10671844622777661 -0.07696785286729564 -0.02134675911222971
0.10122025686346917 -0.0962105947234581 0.0002459684982977582
0.11379551113904539 -0.07866724028830367 0.01908209598225575
0.1206641799525719 -0.05879514696326 0.03854044378302269
0.12150509198430533 -0.037523511745960726 0.05771116118383499
0.11627892712224835 -0.015846972657442282 0.07569784674575274
0.10523005502688572 0.005220899426259092 0.09165946304266584
0.08887510867745725 0.024694994221767533 0.10484966263659301
0.06797882718804492 0.04166472470034686 0.11465168645437607
0.043518297456544834 0.055336605125319537 0.12060720275646258
0.016637266667275757 0.06507135356321753 0.12243773821964789
-0.01140733805617596 0.07041378399648052 0.1200576990401675
-0.03930418216628122 0.07111409031573411 0.11357837320483036
-0.0657488402375668 0.06713952697582452 0.10330272678844336
-0.08950478944974581 0.058675940141116135 0.08971123759687609
-0.10946122802049796 0.04611907772539873 0.07343942855887096
-0.12468501506224335 0.030056084659281 0.055248151380228205
-0.13446430321293393 0.011238048645800136 0.035988009963668785
-0.1383418238275416 -0.009455119865798396 0.016559587115721263
-0.13613626835168188 -0.031055831314717133 -0.0021286657043853904
-0.12795076610810718 -0.052554060441071096 -0.019202906565284162
-0.11416806208419465 -0.07294457394447759 -0.03386476294097523
-0.09543262020172721 -0.09127393407594532 -0.045428662722814185
-0.07262048890018095 -0.10668508032734747 -0.053353890809353745
-0.04679833808535328 -0.11845740462822733 -0.0572698723435257
-0.019173582830086165 -0.12604044617827448 -0.05699350038109304
0.00896207401259436 -0.12907963038255404 -0.052537697767853754
0.03629304039926118 -0.12743284836548457 -0.04411081288173397
0.061541350717861036 -0.12117710182391749 -0.03210687749419885
0.08352642203937787 -0.11060490251337352 -0.01708718228255351
0.10122025686346915 -0.09621059472345811 0.0002459684982977374
0.09572206749916169 -0.11545333657962056 0.021838696108825224
0.10829732177473791 -0.09790998214446615 0.04067482359278322
0.11516599058826443 -0.07803788881942247 0.06013317139355016
0.11600690261999785 -0.05676625360212321 0.07930388879436247
0.11078073775794088 -0.035089714513604764 0.0972905743562802
0.09973186566257825 -0.014021842429903387 0.11325219065319331
0.08337691931314978 0.0054522523656050535 0.12644239024712048
0.06248063782373744 0.02242198284418438 0.13624441406490354
0.03802010809223736 0.036093863269157055 0.14219993036699005
0.011139077302968281 0.04582861170705505 0.14403046583017534
-0.016905527420483433 0.05117104214031804 0.14165042665069497
-0.04480237153058869 0.051871348459571635 0.13517110081535783
-0.07124702960187428 0.04789678511966205 0.12489545439897083
-0.09500297881405328 0.039433198284953654 0.11130396520740356
-0.11495941738480543 0.02687633586923625 0.09503215616939843
-0.13018320442655082 0.010813342803118523 0.07684087899075567
-0.1399624925772414 -0.008004693210362342 0.05758073757419625
-0.14384001319184905 -0.028697861721960875 0.03815231472624873
-0.14163445771598934 -0.050298573170879615 0.019464061906142076
-0.13344895547241464 -0.07179680229723358 0.0023898210452433033
-0.11966625144850213 -0.09218731580064006 -0.012272035330447758
-0.10093080956603469 -0.11051667593210779 -0.023835935112286717
-0.07811867826448843 -0.12592782218350995 -0.03176116319882628
-0.052296527449660755 -0.1377001464843898 -0.03567714473299823
-0.024671772194393638 -0.14528318803443696 -0.035400772770565574
0.0034638846482868847 -0.14832237223871653 -0.030944970157326286
0.030794851034953708 -0.14667559022164706 -0.022518085271206502
0.05604316135355356 -0.14041984368007995 -0.010514149883671378
0.07802823267507039 -0.129847644369536 0.004505545327973954
0.09572206749916168 -0.11545333657962058 0.021838696108825204
0.09022387813485422 -0.13469607843578305 0.043431423719352685
0.10279913241043044 -0.11715272400062862 0.06226755120331068
0.10966780122395696 -0.09728063067558496 0.08172589900407762
0.11050871325569038 -0.07600899545828568 0.10089661640488992
0.10528254839363341 -0.05433245636976723 0.11888330196680766
0.09423367629827077 -0.03326458428606586 0.13484491826372078
0.0778787299488423 -0.01379048949055742 0.14803511785764795
0.056982448459429964 0.0031792409880219037 0.157837141675431
0.03252191872792989 0.016851121412994583 0.16379265797751752
0.005640887938660808 0.02658586985089258 0.1656231934407028
-0.022403716784790906 0.031928300284155574 0.16324315426122243
-0.050300560894896165 0.03262860660340917 0.1567638284258853
-0.07674521896618175 0.028654043263499577 0.14648818200949829
-0.10050116817836076 0.020190456428791182 0.132896692817931
-0.1204576067491129 0.007633594013073775 0.11662488377992589
-0.1356813937908583 -0.008429399053043952 0.09843360660128314
-0.14546068194154887 -0.027247435066524817 0.07917346518472371
-0.14933820255615654 -0.047940603578123346 0.05974504233677619
-0.14713264708029683 -0.06954131502704208 0.04105678951666954
-0.13894714483672213 -0.09103954415339605 0.023982548655770767
-0.1251644408128096 -0.11143005765680254 0.009320692280079703
-0.10642899893034216 -0.12975941778827027 -0.002243207501759254
-0.0836168676287959 -0.1451705640396724 -0.010168435588298814
-0.05779471681396823 -0.15694288834055228 -0.01408441712247077
-0.030169961558701112 -0.16452592989059944 -0.013808045160038111
-0.002034304716020589 -0.167565114094879 -0.009352242546798823
0.025296661670646235 -0.1659183320778095 -0.0009253576606790388
0.05054497198924609 -0.15966258553624244 0.011078577726856083
0.07253004331076292 -0.14909038622569845 0.026098272938501418
0.0902238781348542 -0.13469607843578305 0.043431423719352664
0.08472568877054673 -0.15393882029194553 0.06502415132988015
0.09730094304612295 -0.1363954658567911 0.08386027881383815
0.10416961185964947 -0.11652337253174744 0.10331862661460509
0.10501052389138289 -0.09525173731444816 0.12248934401541739
0.09978435902932592 -0.07357519822592971 0.14047602957733513
0.08873548693396328 -0.05250732614222835 0.15643764587424824
0.07238054058453482 -0.033033231346719906 0.16962784546817541
0.05148425909512249 -0.016063500868140578 0.17942986928595847
0.027023729363622413 -0.0023916204431679 0.185385385588045
0.00014269857435333193 0.007343127994730097 0.18721592105123028
-0.027901906149098384 0.012685558427993087 0.1848358818717499
-0.05579875025920364 0.01338586474724668 0.17835655603641276
-0.08224340833048922 0.009411301407337093 0.16808090962002575
-0.10599935754266825 0.0009477145726286989 0.15448942042845848
-0.1259557961134204 -0.011609147843088708 0.13821761139045335
-0.14117958315516577 -0.027672140909206434 0.12002633421181061
-0.15095887130585633 -0.0464901769226873 0.10076619279525119
-0.154836391920464 -0.06718334543428583 0.08133776994730366
-0.1526308364446043 -0.08878405688320457 0.062649517127197
-0.1444453342010296 -0.11028228600955853 0.04557527626629824
-0.13066263017711707 -0.130672799512965 0.030913419890607176
-0.11192718829464965 -0.14900215964443275 0.01934952010876822
-0.08911505699310339 -0.1644133058958349 0.011424292022228659
-0.06329290617827571 -0.17618563019671477 0.0075083104880567025
-0.03566815092300859 -0.18376867174676192 0.007784682450489361
-0.007532494080328065 -0.1868078559510415 0.01224048506372865
0.019798472306338757 -0.185161073933972 0.020667369949848434
0.045046782624938615 -0.17890532739240492 0.032671305337383556
0.06703185394645543 -0.16833312808186093 0.04769100054902889
0.08472568877054672 -0.15393882029194553 0.06502415132988014
0.02474185213938363 0.08659233835273114 -0.09716727424737358
0.036904912240487 0.07910939591504065 -0.1007387323493173
0.04906797234159038 0.07162645347735017 -0.10431019045126101
0.06123103244269375 0.06414351103965968 -0.10788164855320473
0.07339409254379713 0.05666056860196919 -0.11145310665514845
0.0855571526449005 0.049177626164278704 -0.11502456475709215
0.09772021274600387 0.041694683726588216 -0.11859602285903587
0.10988327284710725 0.034211741288897736 -0.12216748096097958
0.12204633294821063 0.026728798851207238 -0.1257389390629233
0.134209393049314 0.01924585641351675 -0.129310397164867
0.02474185213938363 0.08659233835273114 -0.09716727424737358
0.03878586048372692 0.08219483409018707 -0.0975101407049112
0.0528298688280702 0.07779732982764301 -0.0978530071624488
0.06687387717241348 0.07339982556509894 -0.0981958736199864
0.08091788551675677 0.06900232130255488 -0.098538740077524
0.09496189386110007 0.0646048170400108 -0.0988816065350616
0.10900590220544333 0.06020731277746674 -0.0992244729925992
0.12304991054978663 0.055809808514922656 -0.09956733945013681
0.1370939188941299 0.0514123042523786 -0.09991020590767441
0.1511379272384732 0.04701479998983452 -0.10025307236521203
0.02474185213938363 0.08659233835273114 -0.09716727424737358
0.039144922507615185 0.0857568100864892 -0.09424439415970964
0.05354799287584674 0.08492128182024726 -0.0913215140720457
0.06795106324407829 0.08408575355400531 -0.08839863398438175
0.08235413361230985 0.08325022528776338 -0.0854757538967178
0.0967572039805414 0.08241469702152143 -0.08255287380905386
0.11116027434877294 0.0815791687552795 -0.07962999372138992
0.1255633447170045 0.08074364048903755 -0.07670711363372597
0.13996641508523605 0.07990811222279562 -0.07378423354606202
0.15436948545346763 0.07907258395655367 -0.07086135345839809
0.02474185213938363 0.08659233835273114 -0.09716727424737358
0.03794318837044217 0.08940932853499547 -0.09129538702516393
0.051144524601500714 0.09222631871725981 -0.08542349980295429
0.06434586083255926 0.09504330889952414 -0.07955161258074464
0.0775471970636178 0.09786029908178848 -0.073679725358535
0.09074853329467635 0.10067728926405281 -0.06780783813632535
0.10394986952573489 0.10349427944631714 -0.0619359509141157
0.11715120575679343 0.10631126962858149 -0.05606406369190606
0.13035254198785196 0.10912825981084581 -0.05019217646969641
0.1435538782189105 0.11194524999311016 -0.044320289247486745
0.02474185213938363 0.08659233835273114 -0.09716727424737358
0.03531088461279696 0.09275658238714712 -0.08898268998286246
0.04587991708621029 0.09892082642156311 -0.08079810571835135
0.05644894955962361 0.10508507045597909 -0.07261352145384023
0.06701798203303695 0.11124931449039509 -0.06442893718932911
0.07758701450645028 0.11741355852481107 -0.056244352924818004
0.0881560469798636 0.12357780255922705 -0.04805976866030689
0.09872507945327692 0.12974204659364302 -0.03987518439579577
0.10929411192669027 0.13590629062805903 -0.031690600131284656
0.11986314440010358 0.14207053466247502 -0.02350601586677354
0.02474185213938363 0.08659233835273114 -0.09716727424737358
0.03153326219122155 0.09543584475006864 -0.08755691964253058
0.03832467224305947 0.10427935114740615 -0.07794656503768758
0.04511608229489739 0.11312285754474365 -0.0683362104328446
0.051907492346735314 0.12196636394208116 -0.0587258558280016
0.05869890239857324 0.13080987033941865 -0.0491155012231586
0.06549031245041116 0.13965337673675615 -0.03950514661831562
0.07228172250224907 0.14849688313409368 -0.029894792013472622
0.079073132554087 0.15734038953143117 -0.02028443740862961
0.08586454260592491 0.16618389592876867 -0.010674082803786629
0.02474185213938363 0.08659233835273114 -0.09716727424737358
0.02701968511094492 0.0971567759736985 -0.08717258034364951
0.02929751808250621 0.10772121359466587 -0.07717788643992543
0.031575351054067495 0.11828565121563323 -0.06718319253620136
0.033853184025628785 0.1288500888366006 -0.05718849863247729
0.036131016997190075 0.13941452645756797 -0.0471938047287532
0.03840884996875136 0.1499789640785353 -0.03719911082502914
0.04068668294031264 0.16054340169950268 -0.027204416921305062
0.04296451591187394 0.17110783932047005 -0.017209723017580995
0.04524234888343522 0.18167227694143742 -0.007215029113856914
0.02474185213938363 0.08659233835273114 -0.09716727424737358
0.022259269483979424 0.09773288645695717 -0.08787132121289168
0.019776686828575217 0.1088734345611832 -0.07857536817840977
0.01729410417317101 0.12001398266540923 -0.06927941514392785
0.014811521517766803 0.13115453076963526 -0.05998346210944594
0.012328938862362592 0.1422950788738613 -0.05068750907496402
0.009846356206958388 0.15343562697808732 -0.04139155604048212
0.007363773551554182 0.16457617508231334 -0.03209560300600022
0.004881190896149975 0.1757167231865394 -0.022799649971518295
0.0023986082407457675 0.1868572712907654 -0.013503696937036395
0.02474185213938363 0.08659233835273114 -0.09716727424737358
0.01776788020896585 0.09710174568970838 -0.08957742283499301
0.010793908278548071 0.10761115302668561 -0.08198757142261243
0.0038199363481302953 0.11812056036366284 -0.07439772001023186
-0.003154035582287488 0.12862996770064009 -0.06680786859785127
-0.010128007512705269 0.1391393750376173 -0.059218017185470706
-0.01710197944312304 0.14964878237459453 -0.05162816577309013
-0.02407595137354083 0.16015818971157178 -0.04403831436070955
-0.03104992330395861 0.170667597048549 -0.03644846294832897
-0.038023895234376374 0.18117700438552625 -0.028858611535948396
0.02474185213938363 0.08659233835273114 -0.09716727424737358
0.014032229004937053 0.09533174756724155 -0.09210600262630457
0.0033226058704904746 0.10407115678175195 -0.08704473100523555
-0.007387017263956102 0.11281056599626237 -0.08198345938416654
-0.018096640398402683 0.12154997521077278 -0.07692218776309752
-0.02880626353284927 0.1302893844252832 -0.07186091614202851
-0.03951588666729584 0.1390287936397936 -0.06679964452095949
-0.05022550980174243 0.147768202854304 -0.061738372899890474
-0.060935132936189 0.15650761206881442 -0.056677101278821466
-0.0716447560706356 0.16524702128332483 -0.05161582965775244
0.02474185213938363 0.08659233835273114 -0.09716727424737358
0.01145713164445027 0.0926146988504766 -0.09518304973147977
-0.0018275888504830913 0.09863705934822206 -0.09319882521558595
-0.01511230934541645 0.10465941984596752 -0.09121460069969213
-0.028397029840349815 0.11068178034371297 -0.08923037618379832
-0.04168175033528319 0.11670414084145844 -0.0872461516679045
-0.05496647083021653 0.12272650133920389 -0.08526192715201068
-0.06825119132514988 0.12874886183694934 -0.08327770263611688
-0.08153591182008325 0.1347712223346948 -0.08129347812022306
-0.09482063231501661 0.14079358283244026 -0.07930925360432924
0.02474185213938363 0.08659233835273114 -0.09716727424737358
0.01032163988326669 0.08924503392722967 -0.09847511835136767
-0.0040985723728502515 0.0918977295017282 -0.09978296245536175
-0.018518784628967187 0.09455042507622673 -0.10109080655935584
-0.032938996885084136 0.09720312065072526 -0.10239865066334992
-0.047359209141201085 0.0998558162252238 -0.103706494767344
-0.061779421397318006 0.10250851179972231 -0.1050143388713381
-0.07619963365343495 0.10516120737422086 -0.10632218297533216
-0.0906198459095519 0.10781390294871937 -0.10763002707932626
-0.10504005816566885 0.11046659852321791 -0.10893787118332034
0.02474185213938363 0.08659233835273114 -0.09716727424737358
0.010748801872680566 0.08558790827767304 -0.10162546176929564
-0.0032442483940225 0.08458347820261496 -0.10608364929121769
-0.017237298660725563 0.08357904812755687 -0.11054183681313975
-0.031230348927428632 0.08257461805249877 -0.1150000243350618
-0.0452233991941317 0.08157018797744069 -0.11945821185698385
-0.05921644946083476 0.0805657579023826 -0.12391639937890592
-0.0732094997275378 0.0795613278273245 -0.12837458690082798
-0.08720254999424089 0.07855689775226642 -0.13283277442275002
-0.10119560026094394 0.07755246767720832 -0.13729096194467208
0.02474185213938363 0.08659233835273114 -0.09716727424737358
0.012692327983037724 0.08203962821208739 -0.10429269139331651
0.000642803826691817 0.07748691807144364 -0.11141810853925944
-0.011406720329654084 0.0729342079307999 -0.11854352568520239
-0.023456244486 0.06838149779015615 -0.12566894283114532
-0.0355057686423459 0.0638287876495124 -0.13279435997708827
-0.0475552927986918 0.05927607750886866 -0.1399197771230312
-0.059604816955037714 0.05472336736822492 -0.14704519426897414
-0.07165434111138362 0.05017065722758117 -0.15417061141491706
-0.08370386526772952 0.04561794708693743 -0.16129602856086
0.02474185213938363 0.08659233835273114 -0.09716727424737358
0.015941607003366193 0.07898470493281688 -0.10618777150733584
0.007141361867348755 0.07137707151290261 -0.11520826876729809
-0.001658883268668684 0.06376943809298835 -0.12422876602726034
-0.010459128404686123 0.05616180467307409 -0.13324926328722259
-0.01925937354070357 0.04855417125315983 -0.14226976054718485
-0.028059618676721 0.04094653783324557 -0.1512902578071471
-0.03685986381273843 0.0333389044133313 -0.16031075506710937
-0.04566010894875588 0.02573127099341704 -0.1693312523270716
-0.05446035408477331 0.01812363757350278 -0.17835174958703387
0.02474185213938363 0.08659233835273114 -0.09716727424737358
0.020144529134054658 0.07675418677918913 -0.10710534077580192
0.015547206128725684 0.06691603520564714 -0.11704340730423024
0.010949883123396714 0.057077883632105135 -0.12698147383265856
0.006352560118067737 0.04723973205856313 -0.13691954036108692
0.0017552371127387664 0.03740158048502114 -0.1468576068895152
-0.002842085892590204 0.027563428911479133 -0.15679567341794357
-0.007439408897919184 0.01772527733793713 -0.1667337399463719
-0.012036731903248159 0.007887125764395124 -0.17667180647480024
-0.016634054908577132 -0.0019510258091468857 -0.18660987300322854
0.02474185213938363 0.08659233835273114 -0.09716727424737358
0.024845642547186825 0.07558978500320489 -0.10694596633092229
0.024949432954990018 0.06458723165367865 -0.11672465841447101
0.02505322336279322 0.05358467830415241 -0.12650335049801972
0.025157013770596405 0.042582124954626155 -0.13628204258156845
0.025260804178399605 0.0315795716050999 -0.14606073466511715
0.025364594586202806 0.020577018255573672 -0.15583942674866585
0.025468384994005985 0.00957446490604742 -0.16561811883221458
0.02557217540180918 -0.0014280884434788332 -0.1753968109157633
0.025675965809612386 -0.012430641793005086 -0.185175502999312
0.02474185213938363 0.08659233835273114 -0.09716727424737358
0.029535508659159406 0.07561768060484715 -0.10572691886674901
0.03432916517893518 0.06464302285696316 -0.11428656348612444
0.03912282169871095 0.05366836510907919 -0.12284620810549986
0.04391647821848674 0.042693707361195196 -0.1314058527248753
0.04871013473826251 0.03171904961331122 -0.1399654973442507
0.05350379125803828 0.02074439186542724 -0.14852514196362612
0.058297447777814065 0.009769734117543253 -0.15708478658300154
0.06309110429758984 -0.0012049236303407506 -0.16564443120237698
0.06788476081736561 -0.012179581378224712 -0.1742040758217524
0.02474185213938363 0.08659233835273114 -0.09716727424737358
0.033705907705969616 0.07683485066283312 -0.10358030109149556
0.042669963272555594 0.06707736297293511 -0.10999332793561753
0.05163401883914158 0.0573198752830371 -0.1164063547797395
0.06059807440572756 0.047562387593139084 -0.12281938162386148
0.06956212997231355 0.03780489990324107 -0.12923240846798345
0.07852618553889952 0.028047412213343056 -0.13564543531210543
0.08749024110548552 0.018289924523445033 -0.1420584621562274
0.09645429667207149 0.008532436833547026 -0.14847148900034937
0.10541835223865749 -0.0012250508563509976 -0.15488451584447135
0.02474185213938363 0.08659233835273114 -0.09716727424737358
0.036904912240487 0.07910939591504065 -0.1007387323493173
0.049067972341590375 0.07162645347735017 -0.10431019045126101
0.06123103244269374 0.06414351103965966 -0.10788164855320473
0.07339409254379713 0.056660568601969184 -0.11145310665514845
0.0855571526449005 0.0491776261642787 -0.11502456475709216
0.09772021274600386 0.0416946837265882 -0.11859602285903588
0.10988327284710724 0.03421174128889772 -0.1221674809609796
0.12204633294821061 0.026728798851207224 -0.1257389390629233
0.13420939304931398 0.019245856413516737 -0.12931039716486703
-0.02474185213938363 -0.08659233835273114 0.09716727424737358
-0.012578792038280258 -0.09407528079042163 0.09359581614542987
-0.0004157319371768842 -0.10155822322811212 0.09002435804348616
0.011747328163926485 -0.1090411656658026 0.08645289994154244
0.023910388265029864 -0.11652410810349309 0.08288144183959872
0.03607344836613324 -0.12400705054118358 0.07930998373765501
0.0482365084672366 -0.13148999297887407 0.0757385256357113
0.06039956856833998 -0.13897293541656455 0.07216706753376759
0.07256262866944335 -0.14645587785425504 0.06859560943182387
0.08472568877054673 -0.15393882029194553 0.06502415132988015
-0.02474185213938363 -0.08659233835273114 0.09716727424737358
-0.010697843795040348 -0.09098984261527521 0.09682440778983598
0.0033461645493029347 -0.09538734687781927 0.09648154133229837
0.017390172893646215 -0.09978485114036334 0.09613867487476077
0.0314341812379895 -0.1041823554029074 0.09579580841722317
0.0454781895823328 -0.10857985966545149 0.09545294195968557
0.05952219792667606 -0.11297736392799554 0.09511007550214796
0.07356620627101935 -0.11737486819053962 0.09476720904461035
0.08761021461536263 -0.12177237245308367 0.09442434258707275
0.10165422295970593 -0.12616987671562777 0.09408147612953514
-0.02474185213938363 -0.08659233835273114 0.09716727424737358
-0.010338781771152078 -0.08742786661897307 0.10009015433503753
0.0040642885970794745 -0.08826339488521502 0.10301303442270147
0.018467358965311022 -0.08909892315145695 0.10593591451036542
0.03287042933354258 -0.0899344514176989 0.10885879459802937
0.04727349970177413 -0.09076997968394085 0.1117816746856933
0.061676570070005675 -0.09160550795018278 0.11470455477335725
0.07607964043823723 -0.09244103621642472 0.1176274348610212
0.09048271080646879 -0.09327656448266665 0.12055031494868515
0.10488578117470036 -0.0941120927489086 0.12347319503634908
-0.02474185213938363 -0.08659233835273114 0.09716727424737358
-0.01154051590832509 -0.0837753481704668 0.10303916146958324
0.001660820322733451 -0.08095835798820247 0.10891104869179288
0.014862156553791993 -0.07814136780593814 0.11478293591400253
0.028063492784850534 -0.0753243776236738 0.12065482313621217
0.041264829015909076 -0.07250738744140947 0.1265267103584218
0.05446616524696762 -0.06969039725914512 0.13239859758063147
0.06766750147802615 -0.06687340707688079 0.1382704848028411
0.08086883770908469 -0.06405641689461646 0.14414237202505076
0.09407017394014323 -0.06123942671235212 0.15001425924726042
-0.02474185213938363 -0.08659233835273114 0.09716727424737358
-0.014172819665970303 -0.08042809431831516 0.1053518585118847
-0.003603787192556975 -0.07426385028389916 0.11353644277639581
0.006965245280856346 -0.06809960624948318 0.12172102704090693
0.017534277754269682 -0.061935362215067194 0.12990561130541806
0.02810331022768301 -0.05577111818065121 0.13809019556992916
0.038672342701096325 -0.04960687414623523 0.1462747798344403
0.049241375174509654 -0.043442630111819244 0.1544593640989514
0.059810407647922996 -0.03727838607740325 0.16264394836346252
0.0703794401213363 -0.031114142042987267 0.17082853262797362
-0.02474185213938363 -0.08659233835273114 0.09716727424737358
-0.01795044208754571 -0.07774883195539363 0.10677762885221657
-0.01115903203570779 -0.06890532555805613 0.11638798345705957
-0.0043676219838698705 -0.06006181916071863 0.12599833806190255
0.0024237880679680505 -0.051218312763381124 0.13560869266674558
0.009215198119805978 -0.04237480636604362 0.14521904727158857
0.016006608171643892 -0.033531299968706116 0.15482940187643154
0.022798018223481806 -0.024687793571368608 0.16443975648127454
0.029589428275319733 -0.015844287174031104 0.17405011108611756
0.03638083832715765 -0.007000780776693608 0.18366046569096053
-0.02474185213938363 -0.08659233835273114 0.09716727424737358
-0.022464019167822345 -0.07602790073176377 0.10716196815109766
-0.020186186196261054 -0.06546346311079641 0.11715666205482173
-0.01790835322469977 -0.054899025489829056 0.1271513559585458
-0.015630520253138477 -0.044334587868861686 0.1371460498622699
-0.01335268728157719 -0.033770150247894315 0.14714074376599395
-0.011074854310015907 -0.02320571262692697 0.15713543766971802
-0.00879702133845462 -0.0126412750059596 0.16713013157344211
-0.006519188366893324 -0.0020768373849922284 0.17712482547716618
-0.004241355395332041 0.008487600235975142 0.18711951938089025
-0.02474185213938363 -0.08659233835273114 0.09716727424737358
-0.02722443479478784 -0.07545179024850511 0.10646322728185549
-0.029707017450192046 -0.06431124214427908 0.1157591803163374
-0.03218960010559625 -0.05317069404005305 0.1250551333508193
-0.03467218276100046 -0.04203014593582702 0.13435108638530122
-0.037154765416404674 -0.03088959783160097 0.14364703941978316
-0.039637348071808874 -0.019749049727374953 0.15294299245426504
-0.04211993072721308 -0.008608501623148924 0.16223894548874696
-0.04460251338261729 0.002532046481077107 0.17153489852322887
-0.047085096038021496 0.013672594585303137 0.18083085155771078
-0.02474185213938363 -0.08659233835273114 0.09716727424737358
-0.03171582406980141 -0.0760829310157539 0.10475712565975416
-0.03868979600021919 -0.06557352367877667 0.11234697707213474
-0.04566376793063697 -0.05506411634179944 0.11993682848451531
-0.05263773986105475 -0.0445547090048222 0.1275266798968959
-0.05961171179147253 -0.03404530166784496 0.13511653130927645
-0.0665856837218903 -0.023535894330867734 0.14270638272165703
-0.0735596556523081 -0.0130264869938905 0.15029623413403762
-0.08053362758272588 -0.002517079656913263 0.1578860855464182
-0.08750759951314364 0.007992327680063973 0.16547593695879878
-0.02474185213938363 -0.08659233835273114 0.09716727424737358
-0.03545147527383021 -0.07785292913822073 0.1022285458684426
-0.04616109840827679 -0.06911351992371031 0.10728981748951161
-0.056870721542723365 -0.06037411070919991 0.11235108911058063
-0.06758034467716995 -0.0516347014946895 0.11741236073164964
-0.07828996781161654 -0.04289529228017908 0.12247363235271866
-0.0889995909460631 -0.034155883065668684 0.12753490397378767
-0.0997092140805097 -0.025416473851158267 0.1325961755948567
-0.11041883721495627 -0.01667706463664786 0.1376574472159257
-0.12112846034940287 -0.007937655422137436 0.14271871883699472
-0.02474185213938363 -0.08659233835273114 0.09716727424737358
-0.038026572634316996 -0.08056997785498568 0.0991514987632674
-0.051311293129250354 -0.07454761735724022 0.10113572327916122
-0.06459601362418371 -0.06852525685949476 0.10311994779505503
-0.07788073411911708 -0.0625028963617493 0.10510417231094885
-0.09116545461405046 -0.05648053586400384 0.10708839682684267
-0.1044501751089838 -0.050458175366258386 0.10907262134273647
-0.11773489560391716 -0.04443581486851294 0.1110568458586303
-0.13101961609885052 -0.03841345437076747 0.11304107037452411
-0.1443043365937839 -0.03239109387302201 0.11502529489041792
-0.02474185213938363 -0.08659233835273114 0.09716727424737358
-0.03916206439550057 -0.08393964277823261 0.0958594301433795
-0.053582276651617515 -0.08128694720373408 0.09455158603938542
-0.06800248890773446 -0.07863425162923555 0.09324374193539132
-0.0824227011638514 -0.07598155605473703 0.09193589783139725
-0.09684291341996835 -0.07332886048023848 0.09062805372740317
-0.11126312567608528 -0.07067616490573997 0.08932020962340907
-0.1256833379322022 -0.06802346933124143 0.08801236551941499
-0.14010355018831916 -0.0653707737567429 0.08670452141542091
-0.1545237624444361 -0.06271807818224436 0.08539667731142682
-0.02474185213938363 -0.08659233835273114 0.09716727424737358
-0.0387349024060867 -0.08759676842778923 0.09270908672545153
-0.05272795267278976 -0.08860119850284733 0.08825089920352948
-0.06672100293949283 -0.08960562857790541 0.08379271168160742
-0.0807140532061959 -0.0906100586529635 0.07933452415968537
-0.09470710347289897 -0.0916144887280216 0.0748763366377633
-0.10870015373960203 -0.09261891880307968 0.07041814911584125
-0.12269320400630508 -0.09362334887813777 0.06595996159391919
-0.13668625427300815 -0.09462777895319587 0.061501774071997146
-0.1506793045397112 -0.09563220902825395 0.05704358655007508
-0.02474185213938363 -0.08659233835273114 0.09716727424737358
-0.03679137629572954 -0.09114504849337489 0.09004185710143064
-0.048840900452075446 -0.09569775863401864 0.08291643995548771
-0.06089042460842135 -0.10025046877466237 0.07579102280954478
-0.07293994876476727 -0.10480317891530612 0.06866560566360184
-0.08498947292111317 -0.10935588905594987 0.061540188517658904
-0.09703899707745907 -0.11390859919659362 0.05441477137171597
-0.10908852123380498 -0.11846130933723736 0.04728935422577304
-0.1211380453901509 -0.12301401947788111 0.04016393707983012
-0.1331875695464968 -0.12756672961852486 0.03303851993388717
-0.02474185213938363 -0.08659233835273114 0.09716727424737358
-0.03354209727540107 -0.0941999717726454 0.08814677698741133
-0.04234234241141851 -0.10180760519255966 0.07912627972744908
-0.05114258754743595 -0.10941523861247393 0.07010578246748682
-0.059942832683453386 -0.11702287203238819 0.06108528520752457
-0.06874307781947084 -0.12463050545230245 0.05206478794756231
-0.07754332295548827 -0.13223813887221672 0.043044290687600066
-0.0863435680915057 -0.13984577229213097 0.034023793427637804
-0.09514381322752315 -0.14745340571204524 0.025003296167675555
-0.10394405836354058 -0.15506103913195948 0.015982798907713307
-0.02474185213938363 -0.08659233835273114 0.09716727424737358
-0.029339175144712605 -0.09643048992627314 0.08722920771894525
-0.03393649815004158 -0.10626864149981514 0.07729114119051692
-0.03853382115537055 -0.11610679307335714 0.06735307466208859
-0.043131144160699526 -0.12594494464689915 0.05741500813366026
-0.0477284671660285 -0.13578309622044113 0.04747694160523194
-0.05232579017135747 -0.14562124779398314 0.03753887507680361
-0.05692311317668645 -0.15545939936752515 0.027600808548375287
-0.06152043618201542 -0.16529755094106716 0.017662742019946935
-0.0661177591873444 -0.17513570251460917 0.007724675491518624
-0.02474185213938363 -0.08659233835273114 0.09716727424737358
-0.024638061731580438 -0.09759489170225738 0.08738858216382486
-0.024534271323777244 -0.10859744505178363 0.07760989008027615
-0.024430480915974044 -0.11959999840130987 0.06783119799672745
-0.024326690508170858 -0.13060255175083613 0.058052505913178724
-0.024222900100367657 -0.14160510510036237 0.04827381382963001
-0.024119109692564457 -0.1526076584498886 0.0384951217460813
-0.024015319284761277 -0.16361021179941485 0.028716429662532593
-0.023911528876958084 -0.1746127651489411 0.018937737578983864
-0.023807738469154877 -0.18561531849846735 0.009159045495435163
-0.02474185213938363 -0.08659233835273114 0.09716727424737358
-0.019948195619607857 -0.09756699610061513 0.08860762962799816
-0.01515453909983208 -0.1085416538484991 0.08004798500862273
-0.010360882580056309 -0.11951631159638308 0.07148834038924731
-0.0055672260602805295 -0.13049096934426707 0.06292869576987188
-0.0007735695405047577 -0.14146562709215105 0.05436905115049646
0.004020086979271013 -0.15244028484003502 0.04580940653112104
0.008813743499046803 -0.16341494258791903 0.037249761911745616
0.013607400018822574 -0.17438960033580303 0.028690117292370178
0.01840105653859834 -0.18536425808368698 0.02013047267299476
-0.02474185213938363 -0.08659233835273114 0.09716727424737358
-0.01577779657279765 -0.09634982604262915 0.09075424740325161
-0.006813741006211669 -0.10610731373252717 0.08434122055912964
0.002150314560374313 -0.11586480142242518 0.07792819371500766
0.011114370126960295 -0.1256222891123232 0.07151516687088569
0.020078425693546287 -0.1353797768022212 0.0651021400267637
0.029042481260132258 -0.14513726449211922 0.05868911318264174
0.03800653682671825 -0.15489475218201723 0.052276086338519774
0.04697059239330422 -0.16465223987191524 0.0458630594943978
0.05593464795989022 -0.17440972756181328 0.03945003265027582
-0.02474185213938363 -0.08659233835273114 0.09716727424737358
-0.01257879203828026 -0.09407528079042163 0.09359581614542987
-0.00041573193717688766 -0.10155822322811212 0.09002435804348616
0.011747328163926478 -0.1090411656658026 0.08645289994154244
0.023910388265029857 -0.11652410810349309 0.08288144183959872
0.036073448366133236 -0.12400705054118358 0.07930998373765501
0.04823650846723659 -0.13148999297887407 0.07573852563571129
0.060399568568339966 -0.13897293541656455 0.07216706753376757
0.07256262866944334 -0.14645587785425504 0.06859560943182386
0.08472568877054672 -0.15393882029194553 0.06502415132988014
