# .PCD v0.7 - Point Cloud Data file format
VERSION 0.7
FIELDS x y z
SIZE 4 4 4
TYPE F F F
COUNT 1 1 1
WIDTH 700
HEIGHT 1
VIEWPOINT 0 0 0 1 0 0 0
POINTS 700
DATA ascii
0.015200810227088569 -0.06318214223827573 -0.12172464676152768
0.012170176779381762 -0.04409258654664183 -0.13018320923752744
0.005725275163505256 -0.02475394955776447 -0.1356259582977763
-0.0038325381839762166 -0.006070484443892275 -0.13779839704539812
-0.016056350533681003 0.011084190731430094 -0.13659894465904632
-0.030374590005928567 0.025907942423056673 -0.13208368619921115
-0.04611775163657679 0.037707628477303655 -0.12446375013312516
-0.06254970268504398 0.045931508688683544 -0.11409543620228788
-0.07890210338310572 0.05019504355869866 -0.10146355524255199
-0.09441033364850865 0.05029887493540567 -0.08715875996826739
-0.10834924587020248 0.046238147779030105 -0.07184992670782163
-0.12006707200468908 0.038202737178229994 -0.056252879489927
-0.1290158995253482 0.026568370001981267 -0.041096918907619316
-0.1347772912032212 0.011879056328774975 -0.02709072083308699
-0.13708185076677779 -0.005178347860029287 -0.01488919952152407
-0.13582181957215994 -0.02380625730250622 -0.005062884548442258
-0.13105611527760394 -0.04313365165655989 0.0019287565191818223
-0.12300757691922336 -0.06225680344305077 0.00575880231567696
-0.11205254520534814 -0.08028153533829918 0.006248164156389245
-0.09870326524327586 -0.09636503091193396 0.0033739600255335805
-0.08358393452737395 -0.10975524378645342 -0.0027294154861796966
-0.06740151615798881 -0.11982606248999772 -0.011776575323237514
-0.050912682032606696 -0.1261065867329002 -0.02334448434685504
-0.03488843170890757 -0.1283031461818641 -0.03689223998789532
-0.020078041322352535 -0.1263130321583563 -0.051786364249832274
-0.007174028266850253 -0.12022930018226319 -0.06733042443580789
0.00322023014890441 -0.11033641879920443 -0.082797597567508
0.01061870995377923 -0.09709696814750397 -0.09746465581982251
0.01467546645491805 -0.08113001022504268 -0.11064578385013774
0.015200810227088569 -0.06318214223827574 -0.12172464676152767
0.02872268008879872 -0.054567551756283805 -0.10712773693926227
0.025692046641091912 -0.03547799606464991 -0.11558629941526204
0.019247145025215406 -0.01613935907577255 -0.1210290484755109
0.009689331677733932 0.002544106038099645 -0.1232014872231327
-0.0025344806719708544 0.019698781213422015 -0.12200203483678092
-0.016852720144218417 0.03452253290504859 -0.11748677637694574
-0.03259588177486664 0.04632221895929558 -0.10986684031085976
-0.049027832823333825 0.05454609917067547 -0.09949852638002246
-0.06538023352139558 0.05880963404069058 -0.08686664542028658
-0.0808884637867985 0.058913465417397594 -0.07256185014600199
-0.09482737600849234 0.05485273826102203 -0.057253016885556215
-0.10654520214297893 0.04681732766022192 -0.04165596966766159
-0.11549402966363805 0.03518296048397319 -0.026500009085353906
-0.12125542134151107 0.020493646810766895 -0.012493811010821582
-0.12355998090506763 0.0034362426219626324 -0.00029228969925866025
-0.12229994971044979 -0.015191666820514297 0.009534025273823151
-0.1175342454158938 -0.034519061174567975 0.016525666341447233
-0.1094857070575132 -0.05364221296105885 0.02035571213794237
-0.09853067534363799 -0.07166694485630727 0.020845073978654656
-0.08518139538156572 -0.08775044042994204 0.01797086984779899
-0.0700620646656638 -0.10114065330446151 0.011867494336085712
-0.05387964629627867 -0.11121147200800581 0.002820334499027895
-0.03739081217089655 -0.11749199625090828 -0.008747574524589631
-0.021366561847197416 -0.11968855569987218 -0.022295330165629908
-0.006556171460642387 -0.11769844167636438 -0.03718945442756687
0.006347841594859896 -0.11161470970027128 -0.052733514613542476
0.01674210001061456 -0.10172182831721252 -0.0682006877452426
0.02414057981548938 -0.08848237766551205 -0.0828677459975571
0.0281973363166282 -0.07251541974305077 -0.09604887402787232
0.02872268008879872 -0.054567551756283826 -0.10712773693926225
0.04224454995050885 -0.045952961274291895 -0.09253082711699687
0.039213916502802044 -0.026863405582657998 -0.10098938959299664
0.03276901488692554 -0.0075247685937806395 -0.1064321386532455
0.023211201539444067 0.011158696520091556 -0.1086045774008673
0.010987389189739282 0.028313371695413925 -0.10740512501451552
-0.0033308502825082826 0.0431371233870405 -0.10288986655468034
-0.019074011913156507 0.05493680944128749 -0.09526993048859436
-0.03550596296162369 0.06316068965266738 -0.08490161655775706
-0.051858363659685436 0.0674242245226825 -0.07226973559802118
-0.06736659392508836 0.06752805589938951 -0.057964940323736586
-0.0813055061467822 0.06346732874301395 -0.04265610706329082
-0.09302333228126879 0.05543191814221383 -0.027059059845396194
-0.1019721598019279 0.0437975509659651 -0.011903099263088511
-0.10773355147980093 0.029108237292758805 0.002103098811443814
-0.11003811104335749 0.012050833103954543 0.014304620123006736
-0.10877807984873965 -0.006577076338522386 0.024130935096088546
-0.10401237555418366 -0.02590447069257606 0.031122576163712626
-0.09596383719580306 -0.045027622479066935 0.034952621960207764
-0.08500880548192785 -0.06305235437431535 0.03544198380092005
-0.07165952551985558 -0.07913584994795013 0.032567779670064384
-0.056540194803953656 -0.09252606282246958 0.026464404158351107
-0.04035777643456853 -0.10259688152601389 0.01741724432129329
-0.023868942309186413 -0.10887740576891636 0.005849335297675765
-0.007844691985487281 -0.11107396521788025 -0.007698420343364513
0.0069656984010677495 -0.10908385119437246 -0.02259254460530147
0.01986971145657003 -0.10300011921827935 -0.03813660479127708
0.030263969872324693 -0.0931072378352206 -0.0536037779229772
0.03766244967719951 -0.07986778718352014 -0.0682708361752917
0.04171920617833833 -0.06390082926105885 -0.08145196420560692
0.04224454995050885 -0.045952961274291916 -0.09253082711699685
0.05576641981221899 -0.03733837079229998 -0.07793391729473147
0.052735786364512184 -0.018248815100666085 -0.08639247977073124
0.04629088474863568 0.0010898218882112744 -0.0918352288309801
0.036733071401154206 0.01977328700208347 -0.0940076675786019
0.024509259051449423 0.03692796217740584 -0.09280821519225012
0.010191019579201857 0.05175171386903242 -0.08829295673241494
-0.005552142051446366 0.0635513999232794 -0.08067302066632896
-0.021984093099913553 0.0717752801346593 -0.07030470673549166
-0.038336493797975296 0.07603881500467441 -0.05767282577575578
-0.05384472406337822 0.07614264638138142 -0.043368030501471186
-0.06778363628507206 0.07208191922500586 -0.02805919724102542
-0.07950146241955865 0.06404650862420574 -0.012462150023130792
-0.08845028994021777 0.052412141447957014 0.0026938105591768884
-0.09421168161809079 0.03772282777475072 0.016700008633709216
-0.09651624118164735 0.020665423585946457 0.028901529945272137
-0.09525620998702951 0.002037514143469528 0.038727844918353946
-0.09049050569247352 -0.017289880210584148 0.045719485985978026
-0.08244196733409292 -0.036413031997075025 0.049549531782473163
-0.07148693562021771 -0.05443776389232344 0.05003889362318545
-0.05813765565814544 -0.07052125946595822 0.047164689492329784
-0.043018324942243516 -0.08391147234047767 0.04106131398061651
-0.026835906572858392 -0.09398229104402198 0.03201415414355869
-0.010347072447476272 -0.10026281528692445 0.020446245119941166
0.005677177876222858 -0.10245937473588834 0.006898489478900887
0.02048756826277789 -0.10046926071238055 -0.00799563478303607
0.03339158131828017 -0.09438552873628744 -0.02353969496901168
0.04378583973403483 -0.08449264735322869 -0.0390068681007118
0.05118431953890965 -0.07125319670152823 -0.053673926353026306
0.05524107604004847 -0.05528623877906694 -0.06685505438334152
0.05576641981221899 -0.0373383707923 -0.07793391729473145
0.06928828967392914 -0.028723780310308065 -0.06333700747246607
0.06625765622622233 -0.009634224618674168 -0.07179556994846584
0.059812754610345825 0.00970441237020319 -0.0772383190087147
0.05025494126286435 0.028387877484075386 -0.0794107577563365
0.038031128913159566 0.04554255265939776 -0.07821130536998472
0.023712889440912002 0.06036630435102434 -0.07369604691014954
0.007969727810263777 0.07216599040527132 -0.06607611084406356
-0.008462223238203408 0.0803898706166512 -0.05570779691322626
-0.02481462393626515 0.08465340548666632 -0.043075915953490376
-0.040322854201668076 0.08475723686337333 -0.02877112067920578
-0.05426176642336191 0.08069650970699777 -0.013462287418760018
-0.06597959255784851 0.07266109910619765 0.0021347597991346113
-0.07492842007850763 0.06102673192994893 0.017290720381442293
-0.08068981175638065 0.04633741825674264 0.03129691845597462
-0.08299437131993721 0.029280014067938374 0.04349843976753754
-0.08173434012531937 0.010652104625461444 0.05332475474061935
-0.07696863583076338 -0.008675289728592231 0.06031639580824343
-0.06892009747238279 -0.027798441515083108 0.06414644160473856
-0.05796506575850757 -0.04582317341033152 0.06463580344545085
-0.04461578579643529 -0.061906668983966295 0.06176159931459519
-0.029496455080533373 -0.07529688185848576 0.05565822380288191
-0.01331403671114825 -0.08536770056203007 0.046611063965824096
0.0031747974142338716 -0.09164822480493254 0.03504315494220657
0.019199047737933003 -0.09384478425389643 0.02149539930116629
0.034009438124488034 -0.09185467023038864 0.0066012750392293335
0.046913451179990316 -0.08577093825429553 -0.008942785146746278
0.05730770959574498 -0.07587805687123678 -0.024409958278446393
0.0647061894006198 -0.0626386062195363 -0.0390770165307609
0.06876294590175862 -0.04667164829707502 -0.05225814456107612
0.06928828967392914 -0.028723780310308086 -0.06333700747246605
0.08281015953563928 -0.020109189828316148 -0.04874009765020067
0.07977952608793247 -0.0010196341366822514 -0.05719866012620043
0.07333462447205596 0.018319002852195107 -0.06264140918644928
0.06377681112457449 0.0370024679660673 -0.06481384793407109
0.051552998774869706 0.05415714314138967 -0.0636143955477193
0.03723475930262214 0.06898089483301625 -0.059099137087884134
0.02149159767197392 0.08078058088726324 -0.051479201021798156
0.005059646623506734 0.08900446109864313 -0.04111088709096086
-0.011292754074555008 0.09326799596865824 -0.028479006131224976
-0.026800984339957937 0.09337182734536525 -0.014174210856940378
-0.04073989656165177 0.08931110018898969 0.001134622403505385
-0.05245772269613837 0.08127568958818958 0.016731669621400012
-0.06140655021679749 0.06964132241194085 0.0318876302037077
-0.06716794189467051 0.05495200873873455 0.04589382827824002
-0.06947250145822707 0.03789460454993029 0.05809534958980294
-0.06821247026360923 0.01926669510745336 0.06792166456288476
-0.06344676596905324 -6.069924660031464e-05 0.07491330563050884
-0.055398227610672646 -0.01918385103309119 0.07874335142700398
-0.04444319589679743 -0.03720858292833961 0.07923271326771626
-0.03109391593472515 -0.053292078501974385 0.0763585091368606
-0.015974585218823233 -0.06668229137649384 0.07025513362514732
0.00020783315056189253 -0.07675311008003814 0.061207973788089495
0.016696667275944013 -0.08303363432294061 0.04964006476447197
0.03272091759964314 -0.08523019377190451 0.03609230912343169
0.047531307986198174 -0.08324007974839671 0.021198184861494735
0.060435321041700456 -0.07715634777230361 0.005654124675519125
0.07082957945745512 -0.06726346638924485 -0.009813048456180992
0.07822805926232994 -0.054024015737544395 -0.0244801067084955
0.08228481576346876 -0.03805705781508311 -0.03766123473881072
0.08281015953563928 -0.02010918982831617 -0.04874009765020065
0.09633202939734942 -0.011494599346324238 -0.034143187827935274
0.09330139594964261 0.007594956345309659 -0.04260175030393504
0.0868564943337661 0.026933593334187017 -0.048044499364183896
0.07729868098628463 0.04561705844805922 -0.050216938111805706
0.06507486863657984 0.06277173362338158 -0.04901748572545392
0.050756629164332275 0.07759548531500816 -0.04450222726561874
0.035013467533684055 0.08939517136925515 -0.03688229119953276
0.01858151648521687 0.09761905158063504 -0.026513977268695466
0.002229115787155126 0.10188258645065015 -0.01388209630895958
-0.0132791144782478 0.10198641782735716 0.00042269896532501626
-0.027218026699941635 0.0979256906709816 0.01573153222577078
-0.038935852834428235 0.08989028007018149 0.031328579443665405
-0.047884680355087354 0.07825591289393276 0.04648454002597309
-0.05364607203296038 0.06356659922072647 0.06049073810050541
-0.05595063159651694 0.046509195031922204 0.07269225941206833
-0.054690600401899096 0.027881285589445273 0.08251857438515015
-0.04992489610734311 0.008553891235391596 0.08951021545277422
-0.04187635774896251 -0.010569260551099281 0.09334026124926936
-0.030921326035087297 -0.028593992446347697 0.09382962308998165
-0.017572046073015015 -0.04467748801998247 0.09095541895912598
-0.002452715357113097 -0.05806770089450193 0.0848520434474127
0.013729703012272026 -0.06813851959804623 0.0758048836103549
0.03021853713765415 -0.0744190438409487 0.06423697458673737
0.046242787461353276 -0.0766156032899126 0.050689218945697084
0.061053177847908306 -0.0746254892664048 0.03579509468376013
0.07395719090341059 -0.0685417572903117 0.02025103449778452
0.08435144931916526 -0.05864887590725294 0.004783861366084402
0.09174992912404008 -0.04540942525555248 -0.009883196886230104
0.0958066856251789 -0.029442467333091197 -0.023064324916545326
0.09633202939734942 -0.011494599346324259 -0.03414318782793526
0.10985389925905956 -0.002880008864332321 -0.019546278005669868
0.10682326581135275 0.016209546827301576 -0.02800484048166963
0.10037836419547624 0.035548183816178934 -0.03344758954191849
0.09082055084799477 0.054231648930051134 -0.0356200282895403
0.07859673849828999 0.0713863241053735 -0.03442057590318851
0.06427849902604242 0.08621007579700007 -0.029905317443353334
0.0485353373953942 0.09800976185124706 -0.022285381377267356
0.03210338634692701 0.10623364206262695 -0.011917067446430063
0.01575098564886527 0.11049717693264206 0.000714813513305824
0.0002427553834623436 0.11060100830934907 0.01501960878759042
-0.01369615683823149 0.10654028115297351 0.030328442048036183
-0.025413982972718088 0.0985048705521734 0.04592548926593081
-0.03436281049337721 0.08687050337592467 0.061081449848238496
-0.040124202171250234 0.07218118970271838 0.07508764792277083
-0.042428761734806794 0.05512378551391412 0.08728916923433375
-0.04116873054018895 0.036495876071437186 0.09711548420741556
-0.03640302624563296 0.017168481717383513 0.10410712527503964
-0.028354487887252366 -0.0019546700691073643 0.10793717107153478
-0.017399456173377154 -0.01997940196435578 0.10842653291224706
-0.004050176211304871 -0.03606289753799055 0.1055523287813914
0.011069154504597048 -0.049453110412510014 0.09944895326967812
0.027251572873982173 -0.059523929116054315 0.0904017934326203
0.043740406999364295 -0.0658044533589568 0.07883388440900277
0.05976465732306342 -0.06800101280792069 0.0652861287679625
0.07457504770961845 -0.0660108987844129 0.05039200450602554
0.08747906076512074 -0.05992716680831978 0.03484794432004992
0.0978733191808754 -0.050034285425261026 0.019380771188349806
0.10527179898575022 -0.03679483477356056 0.004713712936035301
0.10932855548688904 -0.02082787685109928 -0.008467415094279923
0.10985389925905956 -0.0028800088643323417 -0.019546278005669854
0.1233757691207697 0.0057345816176595935 -0.004949368183404467
0.12034513567306289 0.02482413730929349 -0.01340793065940423
0.11390023405718638 0.04416277429817085 -0.01885067971965309
0.10434242070970491 0.06284623941204305 -0.0210231184672749
0.09211860836000013 0.08000091458736541 -0.019823666080923112
0.07780036888775256 0.094824666278992 -0.015308407621087932
0.06205720725710434 0.10662435233323898 -0.0076884715550019555
0.04562525620863715 0.11484823254461887 0.002679842375835338
0.02927285551057541 0.11911176741463399 0.015311723335571225
0.013764625245172484 0.119215598791341 0.02961651860985582
-0.000174286976521351 0.11515487163496543 0.04492535187030158
-0.011892113111007947 0.10711946103416532 0.06052239908819621
-0.020840940631667068 0.09548509385791659 0.07567835967050389
-0.026602332309540094 0.0807957801847103 0.08968455774503623
-0.028906891873096655 0.06373837599590604 0.10188607905659915
-0.02764686067847881 0.0451104665534291 0.11171239402968096
-0.022881156383922824 0.025783072199375427 0.11870403509730504
-0.014832618025542225 0.00665992041288455 0.12253408089380018
-0.0038775863116670122 -0.011364811482363867 0.12302344273451246
0.00947169365040527 -0.02744830705599864 0.1201492386036568
0.024591024366307185 -0.040838519930518104 0.11404586309194352
0.04077344273569231 -0.050909338634062405 0.1049987032548857
0.057262276861074435 -0.05718986287696488 0.09343079423126817
0.07328652718477356 -0.05938642232592877 0.0798830385902279
0.08809691757132859 -0.05739630830242098 0.06498891432829093
0.10100093062683088 -0.05131257632632787 0.04944485414231532
0.11139518904258554 -0.041419694943269116 0.033977681010615206
0.11879366884746036 -0.02818024429156865 0.0193106227583007
0.12285042534859918 -0.012213286369107366 0.0061294947279854775
0.1233757691207697 0.005734581617659573 -0.004949368183404453
0.13689763898247984 0.014349172099651513 0.009647541638860942
0.13386700553477304 0.033438727791285414 0.0011889791628611796
0.12742210391889652 0.05277736478016277 -0.004253769897387678
0.11786429057141506 0.07146082989403496 -0.006426208645009489
0.10564047822171027 0.08861550506935734 -0.005226756258657701
0.09132223874946271 0.10343925676098391 -0.0007114977988225235
0.0755790771188145 0.1152389428152309 0.006908438267263455
0.0591471260703473 0.12346282302661078 0.017276752198100747
0.04279472537228556 0.1277263578966259 0.029908633157836633
0.027286495106882632 0.12783018927333292 0.044213428432121234
0.013347582885188797 0.12376946211695734 0.059522261692567
0.0016297567507022016 0.11573405151615723 0.07511930891046162
-0.007319070769956918 0.1040996843399085 0.0902752694927693
-0.013080462447829944 0.08941037066670221 0.10428146756730163
-0.015385022011386505 0.07235296647789795 0.11648298887886455
-0.01412499081676866 0.05372505703542102 0.12630930385194636
-0.009359286522212674 0.03439766268136735 0.13330094491957045
-0.0013107481638320766 0.01527451089487647 0.13713099071606558
0.009644283550043136 -0.002750221000371946 0.13762035255677788
0.022993563512115418 -0.01883371657400672 0.1347461484259222
0.038112894228017336 -0.03222392944852618 0.12864277291420892
0.05429531259740246 -0.04229474815207048 0.11959561307715111
0.07078414672278459 -0.04857527239497295 0.10802770405353358
0.08680839704648372 -0.05077183184393685 0.0944799484124933
0.10161878743303875 -0.04878171782042905 0.07958582415055634
0.11452280048854102 -0.04269798584433595 0.06404176396458074
0.12491705890429569 -0.03280510446127719 0.04857459083288062
0.1323155387091705 -0.01956565380957673 0.03390753258056611
0.13637229521030933 -0.003598695887115446 0.020726404550250887
0.13689763898247984 0.014349172099651492 0.009647541638860956
-0.06084841437769564 -0.03876565716896362 -0.0656860942001943
-0.05239850053271962 -0.041478599954442745 -0.07191260004034246
-0.043948586687743596 -0.04419154273992187 -0.07813910588049061
-0.03549867284276757 -0.04690448552540099 -0.08436561172063876
-0.027048758997791553 -0.04961742831088011 -0.09059211756078692
-0.018598845152815523 -0.052330371096359234 -0.09681862340093507
-0.010148931307839507 -0.055043313881838356 -0.10304512924108321
-0.0016990174628634914 -0.05775625666731748 -0.10927163508123136
0.006750896382112532 -0.0604691994527966 -0.11549814092137951
0.015200810227088569 -0.06318214223827573 -0.12172464676152768
-0.06084841437769564 -0.03876565716896362 -0.0656860942001943
-0.053066567067472335 -0.03822367617070679 -0.07321467883212206
-0.04528471975724903 -0.03768169517244996 -0.0807432634640498
-0.03750287244702573 -0.03713971417419313 -0.08827184809597753
-0.02972102513680242 -0.0365977331759363 -0.09580043272790527
-0.02193917782657911 -0.03605575217767947 -0.10332901735983302
-0.014157330516355811 -0.035513771179422636 -0.11085760199176074
-0.006375483206132498 -0.034971790181165814 -0.1183861866236885
0.001406364104090795 -0.034429809182908985 -0.12591477125561623
0.009188211414314102 -0.033887828184652156 -0.13344335588754397
-0.06084841437769564 -0.03876565716896362 -0.0656860942001943
-0.05457791750608984 -0.035027484437833635 -0.07370091866100553
-0.048307420634484045 -0.03128931170670365 -0.08171574312181674
-0.04203692376287825 -0.027551138975573663 -0.08973056758262796
-0.03576642689127245 -0.02381296624444368 -0.09774539204343918
-0.02949593001966665 -0.02007479351331369 -0.1057602165042504
-0.023225433148060862 -0.016336620782183706 -0.1137750409650616
-0.01695493627645506 -0.012598448051053725 -0.12178986542587282
-0.010684439404849252 -0.008860275319923734 -0.12980468988668406
-0.004413942533243457 -0.00512210258879375 -0.13781951434749526
-0.06084841437769564 -0.03876565716896362 -0.0656860942001943
-0.05676877357752964 -0.03223638172410467 -0.07331862789674505
-0.05268913277736363 -0.02570710627924572 -0.0809511615932958
-0.048609491977197626 -0.019177830834386768 -0.08858369528984654
-0.04452985117703162 -0.012648555389527819 -0.09621622898639728
-0.040450210376865615 -0.006119279944668859 -0.10384876268294803
-0.03637056957669962 0.0004099955001900836 -0.11148129637949876
-0.03229092877653361 0.006939270945049047 -0.1191138300760495
-0.028211287976367603 0.013468546389907982 -0.12674636377260026
-0.024131647176201605 0.019997821834766952 -0.134378897469151
-0.06084841437769564 -0.03876565716896362 -0.0656860942001943
-0.05940172203181668 -0.030152827316973246 -0.07210923367550064
-0.057955029685937715 -0.021539997464982873 -0.07853237315080697
-0.05650833734005876 -0.012927167612992507 -0.0849555126261133
-0.055061644994179794 -0.004314337761002127 -0.09137865210141963
-0.05361495264830083 0.004298492090988242 -0.09780179157672594
-0.05216826030242187 0.012911321942978605 -0.10422493105203227
-0.05072156795654291 0.021524151794968974 -0.11064807052733859
-0.049274875610663946 0.030136981646959365 -0.11707121000264493
-0.04782818326478499 0.03874981149894973 -0.12349434947795125
-0.06084841437769564 -0.03876565716896362 -0.0656860942001943
-0.06219144204952432 -0.029002606666129735 -0.07020379262682895
-0.063534469721353 -0.019239556163295847 -0.0747214910534636
-0.06487749739318169 -0.009476505660461963 -0.07923918948009824
-0.06622052506501037 0.0002865448423719254 -0.08375688790673289
-0.06756355273683906 0.010049595345205813 -0.08827458633336753
-0.06890658040866775 0.019812645848039694 -0.09279228476000216
-0.07024960808049643 0.02957569635087359 -0.0973099831866368
-0.07159263575232512 0.03933874685370747 -0.10182768161327145
-0.0729356634241538 0.04910179735654135 -0.1063453800399061
-0.06084841437769564 -0.03876565716896362 -0.0656860942001943
-0.06483562417976786 -0.02891036402660531 -0.06780878885431774
-0.06882283398184008 -0.019055070884247 -0.06993148350844115
-0.0728100437839123 -0.009199777741888692 -0.07205417816256458
-0.07679725358598453 0.0006555154004696216 -0.074176872816688
-0.08078446338805675 0.010510808542827935 -0.07629956747081143
-0.08477167319012897 0.020366101685186235 -0.07842226212493485
-0.0887588829922012 0.030221394827544556 -0.08054495677905828
-0.09274609279427341 0.04007668796990286 -0.08266765143318171
-0.09673330259634563 0.049931981112261166 -0.08479034608730512
-0.06084841437769564 -0.03876565716896362 -0.0656860942001943
-0.06704773026002232 -0.02988609531968447 -0.06518375817903106
-0.073247046142349 -0.021006533470405323 -0.06468142215786782
-0.07944636202467568 -0.012126971621126175 -0.06417908613670457
-0.08564567790700237 -0.003247409771847027 -0.06367675011554133
-0.09184499378932906 0.005632152077432128 -0.06317441409437809
-0.09804430967165573 0.01451171392671127 -0.06267207807321484
-0.10424362555398242 0.023391275775990424 -0.0621697420520516
-0.1104429414363091 0.03227083762526956 -0.061667406030888355
-0.11664225731863578 0.04115039947454872 -0.061165070009725105
-0.06084841437769564 -0.03876565716896362 -0.0656860942001943
-0.06858804427212974 -0.03182406491973115 -0.0626131634061839
-0.07632767416656383 -0.024882472670498677 -0.05954023261217349
-0.08406730406099794 -0.017940880421266205 -0.05646730181816308
-0.09180693395543203 -0.010999288172033734 -0.053394371024152676
-0.09954656384986613 -0.0040576959228012625 -0.05032144023014226
-0.10728619374430022 0.002883896326431209 -0.04724850943613186
-0.11502582363873431 0.009825488575663673 -0.04417557864212145
-0.12276545353316841 0.01676708082489615 -0.041102647848111046
-0.1305050834276025 0.023708673074128616 -0.03802971705410063
-0.06084841437769564 -0.03876565716896362 -0.0656860942001943
-0.06928964929244381 -0.034514263749883645 -0.06037556836630183
-0.077730884207192 -0.030262870330803673 -0.05506504253240934
-0.08617211912194019 -0.026011476911723702 -0.049754516698516854
-0.09461335403668836 -0.021760083492643727 -0.04444399086462437
-0.10305458895143654 -0.017508690073563756 -0.03913346503073188
-0.11149582386618472 -0.013257296654483785 -0.0338229391968394
-0.1199370587809329 -0.009005903235403814 -0.028512413362946912
-0.12837829369568107 -0.004754509816323835 -0.02320188752905442
-0.1368195286104293 -0.0005031163972438642 -0.017891361695161933
-0.06084841437769564 -0.03876565716896362 -0.0656860942001943
-0.06907651553048998 -0.03766516702415919 -0.05871345120182041
-0.07730461668328431 -0.03656467687935476 -0.05174080820344651
-0.08553271783607864 -0.03546418673455033 -0.04476816520507262
-0.093760818988873 -0.034363696589745904 -0.03779552220669871
-0.10198892014166731 -0.033263206444941476 -0.03082287920832481
-0.11021702129446165 -0.03216271630013705 -0.023850236209950918
-0.11844512244725598 -0.031062226155332617 -0.01687759321157702
-0.12667322360005034 -0.029961736010528185 -0.009904950213203107
-0.13490132475284466 -0.028861245865723757 -0.002932307214829209
-0.06084841437769564 -0.03876565716896362 -0.0656860942001943
-0.06797173933648695 -0.04093532548148828 -0.05780692809791631
-0.07509506429527828 -0.04310499379401294 -0.04992776199563831
-0.0822183892540696 -0.0452746621065376 -0.042048595893360304
-0.08934171421286093 -0.04744433041906226 -0.034169429791082305
-0.09646503917165225 -0.049613998731586915 -0.02629026368880429
-0.10358836413044356 -0.051783667044111574 -0.01841109758652629
-0.11071168908923489 -0.053953335356636226 -0.010531931484248299
-0.1178350140480262 -0.05612300366916089 -0.002652765381970294
-0.12495833900681753 -0.05829267198168555 0.005226400720307718
-0.06084841437769564 -0.03876565716896362 -0.0656860942001943
-0.0660950403534239 -0.04397036671128273 -0.057754234899052764
-0.07134166632915215 -0.04917507625360184 -0.04982237559791122
-0.07658829230488041 -0.054379785795920954 -0.04189051629676968
-0.08183491828060867 -0.05958449533824006 -0.03395865699562814
-0.08708154425633692 -0.06478920488055918 -0.026026797694486587
-0.09232817023206517 -0.06999391442287829 -0.018094938393345045
-0.09757479620779343 -0.0751986239651974 -0.010163079092203504
-0.1028214221835217 -0.0804033335075165 -0.0022312197910619625
-0.10806804815924995 -0.08560804304983562 0.005700639510079593
-0.06084841437769564 -0.03876565716896362 -0.0656860942001943
-0.06364978803610072 -0.04644139690277743 -0.058561081730945874
-0.0664511616945058 -0.05411713663659125 -0.05143606926169744
-0.06925253535291087 -0.061792876370405064 -0.044311056792449004
-0.07205390901131595 -0.06946861610421888 -0.03718604432320057
-0.07485528266972102 -0.0771443558380327 -0.03006103185395213
-0.07765665632812611 -0.0848200955718465 -0.022936019384703698
-0.08045802998653118 -0.09249583530566033 -0.01581100691545526
-0.08325940364493627 -0.10017157503947413 -0.008685994446206827
-0.08606077730334134 -0.10784731477328795 -0.001560981976958396
-0.06084841437769564 -0.03876565716896362 -0.0656860942001943
-0.060900963415098396 -0.04808064159274 -0.06014003421984149
-0.06095351245250115 -0.057395626016516384 -0.05459397423948867
-0.06100606148990391 -0.06671061044029276 -0.04904791425913584
-0.06105861052730666 -0.07602559486406914 -0.043501854278783024
-0.06111115956470942 -0.08534057928784552 -0.0379557942984302
-0.06116370860211218 -0.0946555637116219 -0.03240973431807738
-0.06121625763951494 -0.10397054813539829 -0.026863674337724543
-0.06126880667691769 -0.11328553255917466 -0.02131761435737173
-0.06132135571432045 -0.12260051698295103 -0.015771554377018906
-0.06084841437769564 -0.03876565716896362 -0.0656860942001943
-0.058146444290511155 -0.04871046318351091 -0.06231998836359558
-0.055444474203326675 -0.058655269198058205 -0.05895388252699685
-0.052742504116142196 -0.06860007521260549 -0.05558777669039812
-0.050040534028957716 -0.07854488122715278 -0.05222167085379939
-0.047338563941773236 -0.08848968724170007 -0.04885556501720066
-0.044636593854588756 -0.09843449325624735 -0.04548945918060193
-0.041934623767404276 -0.10837929927079465 -0.0421233533440032
-0.039232653680219796 -0.11832410528534194 -0.03875724750740447
-0.03653068359303532 -0.12826891129988924 -0.03539114167080574
-0.06084841437769564 -0.03876565716896362 -0.0656860942001943
-0.055684725550255984 -0.048262610733041236 -0.0648647123052587
-0.05052103672281633 -0.05775956429711886 -0.06404333041032308
-0.045357347895376675 -0.06725651786119648 -0.06322194851538747
-0.04019365906793703 -0.0767534714252741 -0.062400566620451854
-0.03502997024049737 -0.08625042498935172 -0.061579184725516246
-0.029866281413057714 -0.09574737855342932 -0.06075780283058064
-0.02470259258561806 -0.10524433211750693 -0.05993642093564502
-0.019538903758178416 -0.11474128568158456 -0.059115039040709395
-0.014375214930738758 -0.12423823924566219 -0.05829365714577379
-0.06084841437769564 -0.03876565716896362 -0.0656860942001943
-0.0537825726173414 -0.04678561600348614 -0.06749844572029136
-0.04671673085698717 -0.05480557483800866 -0.0693107972403884
-0.03965088909663294 -0.06282553367253117 -0.07112314876048544
-0.0325850473362787 -0.0708454925070537 -0.07293550028058249
-0.025519205575924468 -0.07886545134157621 -0.07474785180067954
-0.01845336381557024 -0.08688541017609873 -0.07656020332077658
-0.011387522055215999 -0.09490536901062124 -0.07837255484087363
-0.004321680294861758 -0.10292532784514377 -0.08018490636097067
0.002744161465492476 -0.11094528667966629 -0.08199725788106771
-0.06084841437769564 -0.03876565716896362 -0.0656860942001943
-0.05264611327699249 -0.04443953429172745 -0.0699357827265902
-0.04444381217628935 -0.050113411414491285 -0.0741854712529861
-0.03624151107558621 -0.05578728853725512 -0.07843515977938198
-0.028039209974883055 -0.061461165660018954 -0.08268484830577788
-0.019836908874179906 -0.06713504278278279 -0.08693453683217378
-0.01163460777347677 -0.07280891990554662 -0.09118422535856965
-0.0034323066727736076 -0.07848279702831046 -0.09543391388496557
0.004769994427929528 -0.08415667415107429 -0.09968360241136144
0.012972295528632678 -0.08983055127383811 -0.10393329093775734
-0.06084841437769564 -0.03876565716896362 -0.0656860942001943
-0.05239850053271962 -0.041478599954442745 -0.07191260004034246
-0.043948586687743596 -0.04419154273992187 -0.07813910588049061
-0.03549867284276757 -0.046904485525400996 -0.08436561172063876
-0.027048758997791553 -0.04961742831088012 -0.09059211756078692
-0.018598845152815523 -0.05233037109635925 -0.09681862340093507
-0.010148931307839507 -0.05504331388183837 -0.10304512924108321
-0.0016990174628634914 -0.0577562566673175 -0.10927163508123136
0.006750896382112532 -0.06046919945279662 -0.11549814092137951
0.015200810227088569 -0.06318214223827574 -0.12172464676152767
0.06084841437769564 0.03876565716896362 0.0656860942001943
0.06929832822267167 0.036052714383484494 0.05945958836004616
0.07774824206764769 0.03333977159800537 0.05323308251989801
0.08619815591262371 0.030626828812526253 0.04700657667974986
0.09464806975759972 0.02791388602704713 0.04078007083960171
0.10309798360257576 0.025200943241568005 0.03455356499945355
0.11154789744755177 0.022488000456088883 0.028327059159305407
0.11999781129252779 0.01977505767060976 0.022100553319157255
0.1284477251375038 0.01706211488513064 0.015874047479009102
0.13689763898247984 0.014349172099651513 0.009647541638860942
0.06084841437769564 0.03876565716896362 0.0656860942001943
0.06863026168791894 0.03930763816722045 0.05815750956826657
0.07641210899814224 0.03984961916547728 0.05062892493633883
0.08419395630836556 0.04039160016373411 0.043100340304411094
0.09197580361858886 0.04093358116199094 0.03557175567248335
0.09975765092881217 0.04147556216024777 0.028043171040555603
0.10753949823903547 0.0420175431585046 0.020514586408627872
0.11532134554925878 0.042559524156761425 0.012986001776700121
0.12310319285948207 0.04310150515501826 0.005457417144772385
0.13088504016970537 0.04364348615327509 -0.0020711674871553526
0.06084841437769564 0.03876565716896362 0.0656860942001943
0.06711891124930144 0.042503829900093604 0.057671269739383094
0.07338940812090723 0.04624200263122359 0.049656445278571874
0.07965990499251303 0.04998017536235358 0.04164162081776067
0.08593040186411884 0.05371834809348356 0.03362679635694944
0.09220089873572462 0.05745652082461355 0.025611971896138227
0.09847139560733041 0.061194693555743536 0.01759714743532702
0.10474189247893621 0.06493286628687352 0.009582322974515795
0.11101238935054203 0.0686710390180035 0.0015674985137045694
0.11728288622214782 0.07240921174913349 -0.0064473259471066425
0.06084841437769564 0.03876565716896362 0.0656860942001943
0.06492805517786164 0.04529493261382257 0.05805356050364357
0.06900769597802765 0.05182420805868152 0.050421026807092824
0.07308733677819365 0.05835348350354047 0.042788493110542086
0.07716697757835966 0.06488275894839943 0.03515595941399134
0.08124661837852566 0.07141203439325838 0.027523425717440594
0.08532625917869166 0.07794130983811733 0.019890892020889856
0.08940589997885767 0.08447058528297628 0.012258358324339112
0.09348554077902367 0.09099986072783522 0.004625824627788368
0.09756518157918967 0.0975291361726942 -0.003006709068762377
0.06084841437769564 0.03876565716896362 0.0656860942001943
0.0622951067235746 0.04737848702095399 0.05926295472488798
0.06374179906945356 0.05599131687294437 0.05283981524958165
0.06518849141533252 0.06460414672493474 0.04641667577427533
0.06663518376121148 0.07321697657692511 0.039993536298969
0.06808187610709045 0.08182980642891548 0.033570396823662675
0.06952856845296941 0.09044263628090585 0.02714725734835635
0.07097526079884836 0.09905546613289622 0.020724117873050025
0.07242195314472732 0.1076682959848866 0.014300978397743688
0.07386864549060629 0.11628112583687697 0.007877838922437364
0.06084841437769564 0.03876565716896362 0.0656860942001943
0.059505386705866956 0.048528707671797504 0.06116839577355967
0.05816235903403827 0.05829175817463139 0.05665069734692502
0.05681933136220959 0.06805480867746527 0.052132998920290385
0.0554763036903809 0.07781785918029917 0.04761530049365574
0.054133276018552216 0.08758090968313305 0.043097602067021096
0.05279024834672354 0.09734396018596693 0.03857990364038646
0.05144722067489485 0.10710701068880082 0.03406220521375181
0.050104193003066164 0.1168700611916347 0.02954450678711717
0.048761165331237484 0.1266331116944686 0.025026808360482527
0.06084841437769564 0.03876565716896362 0.0656860942001943
0.056861204575623416 0.04862095031132193 0.06356339954607089
0.052873994773551196 0.05847624345368024 0.06144070489194746
0.04888678497147897 0.06833153659603855 0.05931801023782404
0.04489957516940675 0.07818682973839686 0.05719531558370061
0.04091236536733453 0.08804212288075518 0.05507262092957719
0.0369251555652623 0.09789741602311347 0.05294992627545377
0.032937945763190084 0.10775270916547179 0.05082723162133035
0.02895073596111786 0.1176080023078301 0.04870453696720692
0.02496352615904564 0.12746329545018842 0.0465818423130835
0.06084841437769564 0.03876565716896362 0.0656860942001943
0.054649098495368954 0.04764521901824277 0.06618843022135755
0.04844978261304227 0.05652478086752192 0.0666907662425208
0.04225046673071559 0.06540434271680107 0.06719310226368405
0.03605115084838891 0.07428390456608021 0.06769543828484728
0.029851834966062224 0.08316346641535936 0.06819777430601054
0.023652519083735547 0.0920430282646385 0.06870011032717378
0.017453203201408852 0.10092259011391766 0.06920244634833703
0.011253887319082178 0.1098021519631968 0.06970478236950027
0.00505457143675549 0.11868171381247596 0.07020711839066351
0.06084841437769564 0.03876565716896362 0.0656860942001943
0.05310878448326154 0.045707249418196094 0.06875902499420472
0.04536915458882745 0.052648841667428566 0.07183195578821512
0.037629524694393346 0.05959043391666104 0.07490488658222554
0.029889894799959252 0.0665320261658935 0.07797781737623595
0.022150264905525147 0.07347361841512598 0.08105074817024635
0.014410635011091053 0.08041521066435844 0.08412367896425677
0.006671005116656966 0.08735680291359091 0.08719660975826717
-0.0010686247777771348 0.09429839516282339 0.09026954055227758
-0.008808254672211222 0.10123998741205585 0.093342471346288
0.06084841437769564 0.03876565716896362 0.0656860942001943
0.052407179462947456 0.043017050588043594 0.0709966200340868
0.04396594454819928 0.047268444007123565 0.07630714586797928
0.0355247096334511 0.05151983742620354 0.08161767170187177
0.027083474718702916 0.055771230845283515 0.08692819753576425
0.018642239803954738 0.060022624264363486 0.09223872336965674
0.010201004889206559 0.06427401768344346 0.09754924920354922
0.0017597699744583732 0.06852541110252343 0.1028597750374417
-0.006681464940289806 0.0727768045216034 0.1081703008713342
-0.015122699855038006 0.07702819794068337 0.11348082670522669
0.06084841437769564 0.03876565716896362 0.0656860942001943
0.0526203132249013 0.03986614731376805 0.0726587371985682
0.04439221207210697 0.04096663745857248 0.07963138019694212
0.03616411091931263 0.04206712760337691 0.086604023195316
0.027936009766518288 0.043167617748181335 0.09357666619368991
0.01970790861372396 0.04426810789298576 0.10054930919206381
0.011479807460929626 0.0453685980377902 0.1075219521904377
0.003251706308135292 0.046469088182594626 0.1144945951888116
-0.0049763948446590635 0.047569578327399054 0.12146723818718551
-0.013204495997453398 0.04867006847220348 0.1284398811855594
0.06084841437769564 0.03876565716896362 0.0656860942001943
0.05372508941890432 0.03659598885643896 0.07356526030247232
0.046601764460113 0.0344263205439143 0.08144442640475032
0.039478439501321676 0.03225665223138964 0.08932359250702832
0.03235511454253036 0.030086983918864985 0.09720275860930631
0.02523178958373903 0.027917315606340327 0.10508192471158433
0.018108464624947713 0.025747647293815668 0.11296109081386232
0.010985139666156395 0.023577978981291013 0.12084025691614032
0.0038618147073650783 0.021408310668766348 0.12871942301841832
-0.003261510251426253 0.01923864235624169 0.13659858912069633
0.06084841437769564 0.03876565716896362 0.0656860942001943
0.05560178840196738 0.03356094762664451 0.07361795350133585
0.05035516242623913 0.0283562380843254 0.0815498128024774
0.04510853645051087 0.023151528542006288 0.08948167210361894
0.039861910474782616 0.01794681899968718 0.09741353140476049
0.034615284499054357 0.012742109457368062 0.10534539070590203
0.0293686585233261 0.0075373999150489535 0.11327725000704357
0.024122032547597847 0.002332690372729842 0.12120910930818511
0.018875406571869587 -0.0028720191695892593 0.12914096860932667
0.013628780596141334 -0.008076728711908381 0.1370728279104682
0.06084841437769564 0.03876565716896362 0.0656860942001943
0.05804704071929056 0.031089917435149807 0.07281110666944275
0.05524566706088548 0.02341417770133599 0.07993611913869118
0.052444293402480406 0.015738437967522178 0.08706113160793962
0.04964291974407533 0.008062698233708362 0.09418614407718805
0.046841546085670246 0.0003869584998945387 0.10131115654643649
0.04404017242726517 -0.0072887812339192636 0.10843616901568492
0.0412387987688601 -0.014964520967733087 0.11556118148493336
0.03843742511045502 -0.022640260701546896 0.12268619395418179
0.03563605145204994 -0.030316000435360712 0.12981120642343022
0.06084841437769564 0.03876565716896362 0.0656860942001943
0.06079586534029288 0.02945067274518724 0.07123215418054714
0.06074331630289013 0.02013568832141086 0.07677821416089996
0.06069076726548737 0.010820703897634478 0.08232427414125278
0.060638218228084614 0.0015057194738580977 0.0878703341216056
0.060585669190681854 -0.007809264949918283 0.09341639410195843
0.0605331201532791 -0.017124249373694663 0.09896245408231125
0.06048057111587634 -0.02643923379747105 0.10450851406266408
0.06042802207847359 -0.03575421822124742 0.11005457404301688
0.060375473041070826 -0.045069202645023794 0.11560063402336972
0.06084841437769564 0.03876565716896362 0.0656860942001943
0.06355038446488012 0.02882085115441633 0.06905220003679303
0.0662523545520646 0.018876045139869038 0.07241830587339176
0.06895432463924908 0.00893123912532175 0.0757844117099905
0.07165629472643356 -0.0010135668892255444 0.07915051754658924
0.07435826481361804 -0.010958372903772832 0.08251662338318796
0.07706023490080252 -0.02090317891832012 0.0858827292197867
0.079762204987987 -0.030847984932867414 0.08924883505638542
0.08246417507517148 -0.040792790947414705 0.09261494089298415
0.08516614516235596 -0.050737596961962 0.09598104672958288
0.06084841437769564 0.03876565716896362 0.0656860942001943
0.06601210320513529 0.029268703604886002 0.06650747609512993
0.07117579203257494 0.019771750040808382 0.06732885799006554
0.0763394808600146 0.010274796476730765 0.06815023988500114
0.08150316968745425 0.0007778429126531448 0.06897162177993676
0.0866668585148939 -0.008719110651424476 0.06979300367487237
0.09183054734233356 -0.01821606421550209 0.07061438556980798
0.09699423616977322 -0.027713017779579695 0.0714357674647436
0.10215792499721287 -0.037209971343657326 0.07225714935967922
0.10732161382465252 -0.04670692490773495 0.07307853125461483
0.06084841437769564 0.03876565716896362 0.0656860942001943
0.06791425613804987 0.0307456983344411 0.06387374268009727
0.07498009789840411 0.02272573949991858 0.06206139116000022
0.08204593965875834 0.014705780665396063 0.060249039639903176
0.08911178141911258 0.006685821830873542 0.05843668811980613
0.0961776231794668 -0.0013341370036489726 0.056624336599709085
0.10324346493982103 -0.009354095838171494 0.05481198507961205
0.11030930670017527 -0.017374054672694008 0.052999633559514994
0.11737514846052952 -0.025394013507216536 0.051187282039417956
0.12444099022088376 -0.03341397234173905 0.04937493051932091
0.06084841437769564 0.03876565716896362 0.0656860942001943
0.06905071547839879 0.03309178004619979 0.06143640567379842
0.07725301657910193 0.027417902923435954 0.057186717147402526
0.08545531767980508 0.02174402580067212 0.05293702862100664
0.09365761878050823 0.016070148677908284 0.048687340094610745
0.10185991988121137 0.010396271555144453 0.044437651568214845
0.11006222098191451 0.004722394432380619 0.040187963041818965
0.11826452208261767 -0.0009514826903832159 0.03593827451542306
0.1264668231833208 -0.0066253598131470505 0.03168858598902718
0.13466912428402394 -0.012299236935910878 0.027438897462631274
0.06084841437769564 0.03876565716896362 0.0656860942001943
0.06929832822267167 0.036052714383484494 0.05945958836004616
0.07774824206764769 0.03333977159800537 0.05323308251989801
0.08619815591262371 0.030626828812526246 0.04700657667974986
0.09464806975759972 0.02791388602704712 0.04078007083960171
0.10309798360257576 0.02520094324156799 0.034553564999453557
0.11154789744755177 0.02248800045608887 0.028327059159305414
0.11999781129252779 0.019775057670609743 0.02210055331915726
0.1284477251375038 0.01706211488513062 0.01587404747900911
0.13689763898247984 0.014349172099651492 0.009647541638860956
