# .PCD v0.7 - Point Cloud Data file format
VERSION 0.7
FIELDS x y z
SIZE 4 4 4
TYPE F F F
COUNT 1 1 1
WIDTH 700
HEIGHT 1
VIEWPOINT 0 0 0 1 0 0 0
POINTS 700
DATA ascii
0.11429634005146168 0.04335959012416368 -0.135412775822682
0.11927872737429851 0.06664124855935341 -0.12087951210737496
0.11825975216554982 0.0900579807569136 -0.10575688337233125
0.11128706057346711 0.11251484634511491 -0.09075200692960685
0.09868668790730603 0.13296178724806645 -0.0765664941249412
0.08104781358862792 0.15044272723428886 -0.06386364377101533
0.059195211776373415 0.16414027697869574 -0.05323742703217468
0.03415068584386103 0.17341395427897163 -0.045184713992935825
0.0070852899887036995 0.1778301322915078 -0.040082040565065806
-0.020735427959938393 0.1771823154406673 -0.03816800208683766
-0.04801060215129385 0.17150079492239875 -0.03953209687019236
-0.0734648757543538 0.16105123232157986 -0.044110541359142684
-0.09590803522583229 0.14632223757157023 -0.05168925257796091
-0.11429066337262318 0.12800252209677843 -0.06191385841318762
-0.12775320893340628 0.10694869543190443 -0.07430626765980076
-0.13566617824030414 0.08414521111214994 -0.08828702503460242
-0.1376595696431599 0.06065833472005426 -0.10320240586124259
-0.1336401743754714 0.037586286491923505 -0.11835498350952277
-0.12379593489271888 0.01600788976016529 -0.1330362402894898
-0.10858715689202943 -0.0030678736267088147 -0.14655969695115742
-0.08872498592937259 -0.018749042173916895 -0.15829301169126858
-0.0651381550437447 -0.03030238186855854 -0.16768754775321842
-0.03892955823247806 -0.03718767138712704 -0.174304027072027
-0.011324680353704314 -0.0390829622441839 -0.17783307042843546
0.016385705183583267 -0.03589963274571755 -0.17810966367734812
0.0429058915495426 -0.027786531841059732 -0.17512087362585715
0.06699582430477156 -0.015123019111448177 -0.1690064527749687
0.0875290849676728 0.0014987736623639167 -0.16005230464797962
0.10354556109072936 0.021301629924068997 -0.1486771152594871
0.11429634005146166 0.04335959012416366 -0.135412775822682
0.11631150917509757 0.027908483976470347 -0.11135162689347237
0.1212938964979344 0.051190142411660075 -0.09681836317816535
0.12027492128918571 0.07460687460922026 -0.08169573444312163
0.113302229697103 0.09706374019742157 -0.06669085800039723
0.10070185703094192 0.11751068110037313 -0.05250534519573158
0.08306298271226381 0.13499162108659554 -0.03980249484180571
0.06121038090000929 0.1486891708310024 -0.02917627810296507
0.036165854967496906 0.15796284813127828 -0.021123565063726212
0.009100459112339579 0.16237902614381447 -0.016020891635856193
-0.018720258836302513 0.16173120929297397 -0.014106853157628047
-0.045995433027657975 0.1560496887747054 -0.015470947940982744
-0.07144970663071791 0.1456001261738865 -0.02004939242993307
-0.0938928661021964 0.13087113142387688 -0.0276281036487513
-0.11227549424898729 0.1125514159490851 -0.037852709483978
-0.12573803980977039 0.09149758928421109 -0.05024511873059115
-0.13365100911666825 0.0686941049644566 -0.0642258761053928
-0.135644400519524 0.045207228572360925 -0.07914125693203297
-0.13162500525183554 0.02213518034423017 -0.09429383458031315
-0.12178076576908299 0.0005567836124719549 -0.10897509136028019
-0.10657198776839354 -0.01851897977440215 -0.12249854802194779
-0.0867098168057367 -0.03420014832161023 -0.13423186276205895
-0.06312298592010882 -0.04575348801625188 -0.1436263988240088
-0.036914389108842184 -0.05263877753482037 -0.15024287814281737
-0.009309511230068434 -0.05453406839187724 -0.15377192149922583
0.018400874307219147 -0.05135073889341089 -0.1540485147481385
0.04492106067317848 -0.04323763798875307 -0.15105972469664752
0.06901099342840745 -0.030574125259141514 -0.14494530384575907
0.08954425409130869 -0.013952332485329419 -0.13599115571877002
0.10556073021436525 0.005850523776375663 -0.12461596633027747
0.11631150917509755 0.027908483976470323 -0.11135162689347239
0.11832667829873345 0.012457377828777013 -0.08729047796426276
0.12330906562157028 0.03573903626396674 -0.07275721424895573
0.12229009041282159 0.05915576846152693 -0.05763458551391201
0.11531739882073888 0.08161263404972824 -0.04262970907118761
0.1027170261545778 0.1020595749526798 -0.028444196266521966
0.08507815183589969 0.1195405149389022 -0.015741345912596096
0.06322555002364517 0.13323806468330907 -0.005115129173755453
0.03818102409113279 0.14251174198358496 0.0029375838654834047
0.011115628235975459 0.14692791999612112 0.008040257293353423
-0.016705089712666633 0.14628010314528062 0.009954295771581568
-0.04398026390402209 0.14059858262701208 0.008590200988226871
-0.06943453750708203 0.1301490200261932 0.004011756499276546
-0.09187769697856052 0.11542002527618356 -0.0035669547195416834
-0.11026032512535142 0.09710030980139177 -0.013791560554768389
-0.12372287068613451 0.07604648313651775 -0.026183969801381535
-0.13163583999303238 0.053242998816763275 -0.04016472717618318
-0.13362923139588814 0.02975612242466759 -0.05508010800282336
-0.12960983612819965 0.006684074196536836 -0.07023268565110354
-0.11976559664544711 -0.014894322535221381 -0.08491394243107057
-0.10455681864475766 -0.03397008592209549 -0.09843739909273817
-0.08469464768210082 -0.04965125446930357 -0.11017071383284935
-0.06110781679647294 -0.06120459416394521 -0.11956524989479918
-0.0348992199852063 -0.0680898836825137 -0.12618172921360776
-0.007294342106432554 -0.06998517453957057 -0.12971077257001623
0.020416043430855027 -0.06680184504110422 -0.1299873658189289
0.04693622979681436 -0.058688744136446404 -0.12699857576743792
0.07102616255204333 -0.04602523140683485 -0.12088415491654945
0.09155942321494456 -0.029403438633022753 -0.1119300067895604
0.10757589933800113 -0.009600582371317673 -0.10055481740106785
0.11832667829873343 0.012457377828776988 -0.08729047796426277
0.12034184742236932 -0.002993728318916322 -0.06322932903505314
0.12532423474520615 0.020287930116273403 -0.048696065319746115
0.12430525953645746 0.043704662313833596 -0.033573436584702396
0.11733256794437476 0.0661615279020349 -0.018568560141977997
0.10473219527821367 0.08660846880498646 -0.00438304733731235
0.08709332095953556 0.10408940879120887 0.00831980301661352
0.06524071914728105 0.11778695853561573 0.018946019755454162
0.040196193214768666 0.1270606358358916 0.02699873279469302
0.013130797359611339 0.1314768138484278 0.032101406222563036
-0.014689920589030755 0.1308289969975873 0.03401544470079118
-0.041965094780386215 0.12514747647931873 0.032651349917436484
-0.06741936838344616 0.11469791387849985 0.028072905428486162
-0.08986252785492464 0.09996891912849022 0.020494194209667933
-0.10824515600171554 0.08164920365369843 0.010269588374441228
-0.12170770156249863 0.06059537698882442 -0.0021228208721719194
-0.1296206708693965 0.03779189266906994 -0.01610357824697357
-0.13161406227225225 0.014305016276974253 -0.031018959073613746
-0.12759466700456376 -0.008767031951156499 -0.046171536721893926
-0.11775042752181124 -0.030345428682914715 -0.06085279350186096
-0.10254164952112178 -0.04942119206978882 -0.07437625016352856
-0.08267947855846494 -0.0651023606169969 -0.08610956490363973
-0.05909264767283706 -0.07665570031163854 -0.09550410096558956
-0.032884050861570424 -0.08354098983020704 -0.10212058028439815
-0.005279172982796674 -0.0854362806872639 -0.10564962364080661
0.022431212554490904 -0.08225295118879755 -0.10592621688971927
0.04895139892045024 -0.07413985028413973 -0.1029374268382283
0.07304133167567921 -0.061476337554528186 -0.09682300598733984
0.09357459233858044 -0.04485454478071609 -0.08786885786035079
0.109591068461637 -0.025051688519011007 -0.07649366847185823
0.12034184742236931 -0.002993728318916346 -0.06322932903505316
0.1223570165460052 -0.01844483446660966 -0.03916818010584352
0.12733940386884204 0.004836823968580066 -0.024634916390536495
0.12632042866009335 0.028253556166140257 -0.009512287655492778
0.11934773706801063 0.05071042175434156 0.005492588787231621
0.10674736440184955 0.07115736265729312 0.019678101591897267
0.08910849008317144 0.08863830264351553 0.03238095194582314
0.06725588827091693 0.1023358523879224 0.04300716868466378
0.04221136233840455 0.11160952968819829 0.05105988172390264
0.015145966483247219 0.11602570770073446 0.05616255515177266
-0.012674751465394875 0.11537789084989396 0.058076593630000804
-0.03994992565675033 0.10969637033162541 0.05671249884664611
-0.06540419925981028 0.09924680773080652 0.05213405435769578
-0.08784735873128877 0.08451781298079689 0.04455534313887755
-0.10622998687807966 0.0661980975060051 0.03433073730365085
-0.11969253243886276 0.04514427084113108 0.021938328057037697
-0.1276055017457606 0.0223407865213766 0.007957570682236048
-0.12959889314861636 -0.001146089870719085 -0.0069578101444041284
-0.1255794978809279 -0.024218138098849838 -0.022110387792684306
-0.11573525839817536 -0.045796534830608054 -0.03679164457265134
-0.1005264803974859 -0.06487229821748215 -0.05031510123431894
-0.08066430943482907 -0.08055346676469023 -0.06204841597443011
-0.05707747854920118 -0.09210680645933188 -0.07144295203637994
-0.030868881737934544 -0.09899209597790037 -0.07805943135518853
-0.0032640038591607943 -0.10088738683495724 -0.081588474711597
0.024446381678126784 -0.09770405733649089 -0.08186506796050966
0.05096656804408612 -0.08959095643183307 -0.07887627790901869
0.07505650079931508 -0.07692744370222152 -0.07276185705813022
0.09558976146221632 -0.06030565092840943 -0.06380770893114117
0.11160623758527288 -0.040502794666704346 -0.05243251954264862
0.12235701654600518 -0.018444834466609685 -0.03916818010584354
0.12437218566964109 -0.033895940614303 -0.0151070311766339
0.1293545729924779 -0.010614282179113274 -0.000573767461326873
0.12833559778372922 0.01280245001844692 0.014548861273716842
0.12136290619164652 0.035259315606648224 0.029553737716441243
0.10876253352548544 0.05570625650959978 0.04373925052110689
0.09112365920680733 0.07318719649582218 0.05644210087503276
0.06927105739455282 0.08688474624022904 0.0670683176138734
0.044226531462040426 0.09615842354050494 0.07512103065311226
0.0171611356068831 0.10057460155304111 0.08022370408098228
-0.010659582341758995 0.09992678470220061 0.08213774255921043
-0.037934756533114455 0.09424526418393206 0.08077364777585573
-0.06338903013617439 0.08379570158311317 0.0761952032869054
-0.08583218960765288 0.06906670683310354 0.06861649206808718
-0.10421481775444377 0.050746991358311754 0.058391886232860464
-0.11767736331522687 0.029693164693437746 0.04599947698624732
-0.12559033262212474 0.00688968037368326 0.032018719611445666
-0.1275837240249805 -0.016597196018412422 0.017103338784805494
-0.12356432875729201 -0.039669244246543174 0.0019507611365253165
-0.11372008927453947 -0.06124764097830139 -0.01273049564344172
-0.09851131127385002 -0.0803234043651755 -0.02625395230510932
-0.07864914031119317 -0.09600457291238358 -0.03798726704522049
-0.0550623094255653 -0.10755791260702523 -0.04738180310717033
-0.02885371261429866 -0.11444320212559372 -0.05399828242597891
-0.0012488347355249143 -0.11633849298265059 -0.057527325782387374
0.026461550801762667 -0.11315516348418424 -0.057803919031300034
0.052981737167722 -0.10504206257952642 -0.054815128979809065
0.07707166992295097 -0.09237854984991486 -0.048700708128920606
0.0976049305858522 -0.07575675707610277 -0.039746560001931545
0.11362140670890877 -0.05595390081439768 -0.028371370613438997
0.12437218566964107 -0.033895940614303025 -0.015107031176633917
0.12638735479327695 -0.049347046761996326 0.008954117752575708
0.1313697421161138 -0.026065388326806604 0.023487381467882734
0.1303507669073651 -0.00264865612924641 0.03861001020292645
0.1233780753152824 0.01980820945895489 0.053614886645650846
0.11077770264912132 0.04025515036190645 0.06780039945031649
0.09313882833044321 0.05773609034812886 0.08050324980424237
0.0712862265181887 0.07143364009253572 0.091129466543083
0.04624170058567631 0.08070731739281162 0.09918217958232187
0.019176304730518977 0.08512349540534779 0.10428485301019189
-0.008644413218123117 0.08447567855450729 0.10619889148842003
-0.03591958740947857 0.07879415803623874 0.10483479670506533
-0.061373861012538514 0.06834459543541985 0.10025635221611501
-0.083817020484017 0.053615600685410214 0.09267764099729678
-0.1021996486308079 0.035295885210618425 0.08245303516207007
-0.11566219419159099 0.014242058545744415 0.07006062591545692
-0.12357516349848885 -0.008561425774010069 0.056079868540655275
-0.1255685549013446 -0.032048302166105755 0.0411644877140151
-0.12154915963365613 -0.0551203503942365 0.026011910065734924
-0.1117049201509036 -0.07669874712599473 0.011330653285767888
-0.09649614215021414 -0.09577451051286882 -0.0021928033758997147
-0.0766339711875573 -0.1114556790600769 -0.013926118116010883
-0.05304714030192942 -0.12300901875471855 -0.02332065417796072
-0.026838543490662784 -0.12989430827328705 -0.029937133496769297
0.0007663343881109647 -0.1317895991303439 -0.033466176853177765
0.028476719925398544 -0.12860626963187757 -0.033742770102090425
0.05499690629135788 -0.12049316872721974 -0.030753980050599455
0.07908683904658685 -0.10782965599760819 -0.024639559199710996
0.09962009970948808 -0.09120786322379609 -0.015685411072721936
0.11563657583254465 -0.07140500696209101 -0.004310221684229392
0.12638735479327695 -0.049347046761996353 0.00895411775257569
0.12840252391691284 -0.06479815290968967 0.033015266681785324
0.1333849112397497 -0.04151649447449994 0.04754853039709235
0.132365936031001 -0.018099762276939744 0.06267115913213607
0.12539324443891828 0.0043571033112615575 0.07767603557486047
0.1127928717727572 0.024804044214213117 0.0918615483795261
0.09515399745407908 0.04228498420043553 0.10456439873345198
0.07330139564182457 0.055982533944842386 0.11519061547229262
0.048256869709312186 0.06525621124511828 0.12324332851153148
0.021191473854154857 0.06967238925765445 0.1283460019394015
-0.006629244094487236 0.06902457240681395 0.13026004041762965
-0.033904418285842695 0.0633430518885454 0.12889594563427495
-0.05935869188890264 0.05289348928772651 0.12431750114532462
-0.08180185136038112 0.03816449453771688 0.1167387899265064
-0.10018447950717202 0.01984477906292509 0.10651418409127969
-0.11364702506795511 -0.0012090476019489208 0.09412177484466654
-0.12155999437485297 -0.024012531921703405 0.08014101746986489
-0.12355338577770873 -0.04749940831379909 0.06522563664322471
-0.11953399051002025 -0.07057145654192984 0.05007305899494454
-0.10968975102726772 -0.09214985327368806 0.0353918022149775
-0.09448097302657826 -0.11122561666056216 0.0218683455533099
-0.07461880206392142 -0.12690678520777024 0.010135030813198732
-0.05103197117829354 -0.13846012490241189 0.000740494751248896
-0.024823374367026904 -0.1453454144209804 -0.005875984567559682
0.0027815035117468444 -0.14724070527803726 -0.00940502792396815
0.030491889049034424 -0.1440573757795709 -0.00968162117288081
0.05701207541499376 -0.1359442748749131 -0.006692831121389841
0.08110200817022273 -0.12328076214530152 -0.0005784102705013814
0.10163526883312396 -0.10665896937148943 0.008375737856487679
0.11765174495618053 -0.08685611310978435 0.01975092724498022
0.12840252391691284 -0.06479815290968968 0.0330152666817853
0.13041769304054873 -0.080249259057383 0.05707641561099495
0.13540008036338555 -0.05696760062219328 0.07160967932630198
0.13438110515463686 -0.03355086842463309 0.08673230806134569
0.12740841356255417 -0.011094002836431785 0.10173718450407009
0.11480804089639307 0.009352938066519772 0.11592269730873574
0.09716916657771496 0.026833878052742184 0.1286255476626616
0.07531656476546045 0.04053142779714904 0.13925176440150225
0.05027203883294807 0.04980510509742494 0.1473044774407411
0.023206642977790737 0.05422128310996111 0.15240715086861112
-0.004614074970851356 0.05357346625912061 0.15432118934683928
-0.03188924916220681 0.04789194574085206 0.15295709456348458
-0.057343522765266754 0.03744238314003317 0.14837865007453424
-0.07978668223674525 0.022713388390023535 0.140799938855716
-0.09816931038353614 0.004393672915231744 0.13057533302048932
-0.11163185594431924 -0.016660153749642262 0.11818292377387617
-0.1195448252512171 -0.03946363806939675 0.10420216639907452
-0.12153821665407286 -0.06295051446149243 0.08928678557243434
-0.11751882138638438 -0.08602256268962319 0.07413420792415416
-0.10767458190363184 -0.1076009594213814 0.05945295114418713
-0.09246580390294239 -0.1266767228082555 0.045929494482519526
-0.07260363294028555 -0.1423578913554636 0.03419617974240836
-0.04901680205465766 -0.15391123105010523 0.024801643680458525
-0.022808205243391024 -0.16079652056867372 0.018185164361649946
0.004796672635382725 -0.16269181142573058 0.014656121005241477
0.03250705817267031 -0.15950848192726425 0.014379527756328817
0.05902724453862964 -0.1513953810226064 0.017368317807819788
0.0831171772938586 -0.13873186829299486 0.023482738658708247
0.10365043795675984 -0.12211007551918278 0.032436886785697304
0.1196669140798164 -0.1023072192574777 0.04381207617418985
0.1304176930405487 -0.08024925905738303 0.057076415610994934
0.1324328621641846 -0.09570036520507634 0.08113756454020457
0.13741524948702144 -0.07241870676988661 0.0956708282555116
0.13639627427827275 -0.049001974572326426 0.1107934569905553
0.12942358268619003 -0.02654510898412512 0.1257983334332797
0.11682321002002896 -0.006098168081173563 0.13998384623794535
0.09918433570135085 0.011382771905048846 0.15268669659187123
0.07733173388909634 0.025080321649455707 0.16331291333071188
0.052287207956583946 0.0343539989497316 0.17136562636995073
0.025221812101426617 0.038770176962267776 0.17646829979782075
-0.002598905847215476 0.03812236011142727 0.17838233827604888
-0.029874080038570935 0.03244083959315872 0.17701824349269418
-0.05532835364163088 0.021991276992339832 0.17243979900374387
-0.07777151311310936 0.0072622822423301986 0.16486108778492564
-0.09615414125990025 -0.011057433232461592 0.15463648194969892
-0.10961668682068335 -0.0321112598973356 0.14224407270308578
-0.1175296561275812 -0.05491474421709008 0.12826331532828414
-0.11952304753043697 -0.07840162060918576 0.11334793450164396
-0.11550365226274849 -0.10147366883731652 0.09819535685336378
-0.10565941277999595 -0.12305206556907473 0.08351410007339674
-0.0904506347793065 -0.14212782895594883 0.06999064341172914
-0.07058846381664965 -0.1578089975031569 0.058257328671617974
-0.04700163293102178 -0.16936233719779856 0.04886279260966814
-0.020793036119755144 -0.17624762671636707 0.04224631329085956
0.006811841759018605 -0.17814291757342393 0.03871726993445109
0.034522227296306184 -0.17495958807495757 0.03844067668553843
0.06104241366226552 -0.16684648717029976 0.0414294667370294
0.0851323464174945 -0.1541829744406882 0.04754388758791786
0.10566560708039573 -0.13756118166687611 0.05649803571490692
0.1216820832034523 -0.11775832540517103 0.06787322510339946
0.1324328621641846 -0.09570036520507637 0.08113756454020454
-0.00906826105636146 0.06952997766462002 -0.10827517018144328
0.004638916844507777 0.06662215682679153 -0.11129045969713647
0.018346094745377014 0.06371433598896305 -0.11430574921282965
0.03205327264624625 0.06080651515113457 -0.11732103872852284
0.045760450547115486 0.05789869431330609 -0.12033632824421603
0.059467628447984734 0.054990873475477604 -0.12335161775990923
0.07317480634885395 0.052083052637649126 -0.1263669072756024
0.0868819842497232 0.04917523179982065 -0.12938219679129562
0.10058916215059242 0.04626741096199217 -0.1323974863069888
0.11429634005146168 0.04335959012416368 -0.135412775822682
-0.00906826105636146 0.06952997766462002 -0.10827517018144328
0.005216444602215609 0.07058430345849953 -0.10879449692118755
0.019501150260792677 0.07163862925237904 -0.10931382366093181
0.03378585591936974 0.07269295504625856 -0.10983315040067608
0.04807056157794681 0.07374728084013808 -0.11035247714042036
0.06235526723652388 0.0748016066340176 -0.11087180388016463
0.07663997289510092 0.07585593242789711 -0.11139113061990889
0.09092467855367801 0.07691025822177662 -0.11191045735965317
0.10520938421225508 0.07796458401565615 -0.11242978409939744
0.11949408987083215 0.07901890980953566 -0.11294911083914172
-0.00906826105636146 0.06952997766462002 -0.10827517018144328
0.004246002851770926 0.0744321975308904 -0.10624225703480271
0.017560266759903312 0.0793344173971608 -0.10420934388816214
0.030874530668035687 0.0842366372634312 -0.10217643074152157
0.04418879457616808 0.08913885712970158 -0.10014351759488099
0.057503058484300464 0.09404107699597199 -0.09811060444824042
0.07081732239243282 0.09894329686224237 -0.09607769130159985
0.08413158630056522 0.10384551672851278 -0.09404477815495928
0.09744585020869762 0.10874773659478316 -0.09201186500831872
0.11076011411683 0.11364995646105355 -0.08997895186167813
-0.00906826105636146 0.06952997766462002 -0.10827517018144328
0.0018327540147896433 0.07774886001499233 -0.10391031483175392
0.012733769085940745 0.08596774236536465 -0.09954545948206457
0.023634784157091845 0.09418662471573697 -0.09518060413237521
0.03453579922824295 0.10240550706610929 -0.09081574878268586
0.04543681429939406 0.1106243894164816 -0.0864508934329965
0.05633782937054515 0.11884327176685393 -0.08208603808330715
0.06723884444169624 0.12706215411722624 -0.07772118273361779
0.07813985951284735 0.13528103646759856 -0.07335632738392844
0.08904087458399845 0.1434999188179709 -0.06899147203423908
-0.00906826105636146 0.06952997766462002 -0.10827517018144328
-0.001761788951827479 0.08017487906733196 -0.10205137243355296
0.005544683152706501 0.09081978047004392 -0.09582757468566264
0.012851155257240477 0.10146468187275588 -0.08960377693777231
0.020157627361774462 0.11210958327546784 -0.08337997918988199
0.027464099466308435 0.1227544846781798 -0.07715618144199167
0.034770571570842415 0.13339938608089175 -0.07093238369410136
0.04207704367537639 0.1440442874836037 -0.06470858594621104
0.04938351577991038 0.15468918888631566 -0.05848478819832071
0.056689987884444355 0.16533409028902765 -0.052260990450430395
-0.00906826105636146 0.06952997766462002 -0.10827517018144328
-0.006148101542566641 0.08144735788002418 -0.10086687509350814
-0.0032279420287718236 0.09336473809542835 -0.093458580005573
-0.00030778251497700585 0.1052821183108325 -0.08605028491763787
0.002612376998817812 0.11719949852623668 -0.07864198982970273
0.005532536512612631 0.12911687874164082 -0.0712336947417676
0.008452696026407447 0.141034258957045 -0.06382539965383248
0.011372855540202268 0.15295163917244917 -0.05641710456589734
0.014293015053997082 0.16486901938785334 -0.04900880947796219
0.0172131745677919 0.17678639960325748 -0.041600514390027064
-0.00906826105636146 0.06952997766462002 -0.10827517018144328
-0.010850858727568873 0.08142840362917061 -0.10048518147778325
-0.012633456398776288 0.09332682959372122 -0.09269519277412323
-0.014416054069983704 0.10522525555827182 -0.08490520407046322
-0.016198651741191113 0.11712368152282245 -0.0771152153668032
-0.01798124941239853 0.12902210748737306 -0.06932522666314318
-0.019763847083605946 0.14092053345192362 -0.061535237959483166
-0.021546444754813356 0.15281895941647425 -0.05374524925582314
-0.02332904242602077 0.16471738538102487 -0.04595526055216311
-0.02511164009722818 0.17661581134557547 -0.038165271848503095
-0.00906826105636146 0.06952997766462002 -0.10827517018144328
-0.01536044379504302 0.08012007030195678 -0.10094765401222876
-0.021652626533724583 0.09071016293929356 -0.09362013784301425
-0.02794480927240614 0.10130025557663033 -0.08629262167379975
-0.03423699201108771 0.11189034821396711 -0.07896510550458523
-0.040529174749769276 0.12248044085130388 -0.07163758933537072
-0.04682135748845082 0.13307053348864065 -0.06431007316615622
-0.05311354022713239 0.1436606261259774 -0.056982556996941706
-0.05940572296581395 0.1542507187633142 -0.04965504082772718
-0.06569790570449552 0.16484081140065096 -0.04232752465851267
-0.00906826105636146 0.06952997766462002 -0.10827517018144328
-0.01918817322950633 0.07766413611526954 -0.10220417662173675
-0.029308085402651198 0.08579829456591906 -0.09613318306203024
-0.03942799757579606 0.09393245301656858 -0.09006218950232373
-0.04954790974894094 0.10206661146721811 -0.0839911959426172
-0.0596678219220858 0.11020076991786763 -0.07792020238291068
-0.06978773409523067 0.11833492836851715 -0.07184920882320417
-0.07990764626837554 0.1264690868191667 -0.06577821526349764
-0.09002755844152042 0.1346032452698162 -0.05970722170379112
-0.10014747061466528 0.14273740372046573 -0.053636228144084606
-0.00906826105636146 0.06952997766462002 -0.10827517018144328
-0.021919253153393006 0.07432673964598173 -0.10411858558460992
-0.034770245250424554 0.07912350162734344 -0.09996200098777655
-0.04762123734745609 0.08392026360870515 -0.09580541639094318
-0.06047222944448765 0.08871702559006686 -0.09164883179410982
-0.0733232215415192 0.09351378757142857 -0.08749224719727645
-0.08617421363855073 0.09831054955279028 -0.08333566260044309
-0.0990252057355823 0.103107311534152 -0.07917907800360972
-0.11187619783261385 0.1079040735155137 -0.07502249340677637
-0.1247271899296454 0.11270083549687543 -0.07086590880994299
-0.00906826105636146 0.06952997766462002 -0.10827517018144328
-0.02325772867987866 0.0704695395865825 -0.10648342498460524
-0.03744719630339586 0.07140910150854499 -0.10469167978776721
-0.051636663926913046 0.07234866343050747 -0.10289993459092917
-0.06582613155043025 0.07328822535246995 -0.10110818939409114
-0.08001559917394746 0.07422778727443244 -0.0993164441972531
-0.09420506679746464 0.07516734919639492 -0.09752469900041506
-0.10839453442098185 0.0761069111183574 -0.09573295380357703
-0.12258400204449905 0.07704647304031989 -0.09394120860673899
-0.13677346966801626 0.07798603496228237 -0.09214946340990096
-0.00906826105636146 0.06952997766462002 -0.10827517018144328
-0.023058555217080903 0.06651052341413331 -0.10904242777846922
-0.03704884937780035 0.06349106916364661 -0.10980968537549515
-0.05103914353851979 0.0604716149131599 -0.1105769429725211
-0.06502943769923923 0.0574521606626732 -0.11134420056954704
-0.07901973185995868 0.0544327064121865 -0.11211145816657299
-0.09301002602067814 0.0514132521616998 -0.11287871576359894
-0.10700032018139756 0.0483937979112131 -0.11364597336062487
-0.12099061434211701 0.04537434366072639 -0.11441323095765081
-0.13498090850283645 0.04235488941023968 -0.11518048855467676
-0.00906826105636146 0.06952997766462002 -0.10827517018144328
-0.021343316300188583 0.06287871196138435 -0.11151828630646718
-0.03361837154401571 0.05622744625814869 -0.11476140243149108
-0.04589342678784283 0.04957618055491303 -0.11800451855651498
-0.05816848203166996 0.04292491485167737 -0.12124763468153887
-0.07044353727549708 0.03627364914844171 -0.12449075080656277
-0.0827185925193242 0.029622383445206048 -0.12773386693158667
-0.09499364776315133 0.02297111774197038 -0.13097698305661057
-0.10726870300697847 0.01631985203873472 -0.13422009918163447
-0.1195437582508056 0.009668586335499075 -0.13746321530665837
-0.00906826105636146 0.06952997766462002 -0.10827517018144328
-0.01829788468052098 0.05996766835260194 -0.11364270288018724
-0.027527508304680502 0.05040535904058387 -0.11901023557893121
-0.036757131928840024 0.0408430497285658 -0.12437776827767519
-0.045986755552999546 0.03128074041654773 -0.12974530097641915
-0.05521637917715907 0.021718431104529645 -0.13511283367516314
-0.06444600280131858 0.012156121792511585 -0.1404803663739071
-0.07367562642547812 0.002593812480493501 -0.14584789907265108
-0.08290525004963764 -0.006968496831524554 -0.15121543177139504
-0.09213487367379716 -0.016530806143542638 -0.15658296447013903
-0.00906826105636146 0.06952997766462002 -0.10827517018144328
-0.014252280128809481 0.058092849332293216 -0.11518546400014736
-0.019436299201257504 0.04665572099996643 -0.12209575781885143
-0.024620318273705526 0.03521859266763964 -0.1290060516375555
-0.029804337346153547 0.023781464335312835 -0.13591634545625958
-0.034988356418601575 0.012344336002986055 -0.14282663927496364
-0.04017237549104959 0.0009072076706592655 -0.14973693309366773
-0.04535639456349762 -0.010529920661667544 -0.1566472269123718
-0.050540413635945636 -0.02196704899399434 -0.16355752073107588
-0.05572443270839366 -0.03340417732632112 -0.17046781454977994
-0.00906826105636146 0.06952997766462002 -0.10827517018144328
-0.00964490667225448 0.05745742063212307 -0.11597938756059457
-0.0102215522881475 0.04538486359962613 -0.12368360493974587
-0.010798197904040522 0.03331230656712919 -0.13138782231889717
-0.011374843519933543 0.021239749534632243 -0.13909203969804845
-0.01195148913582656 0.009167192502135319 -0.14679625707719973
-0.012528134751719584 -0.0029053645303616293 -0.15450047445635104
-0.013104780367612602 -0.014977921562858576 -0.16220469183550235
-0.013681425983505626 -0.027050478595355525 -0.16990890921465363
-0.01425807159939864 -0.03912303562785246 -0.1776131265938049
-0.00906826105636146 0.06952997766462002 -0.10827517018144328
-0.004975044715638837 0.05813024081144709 -0.11593843962476114
-0.0008818283749162147 0.046730503958274175 -0.123601709068079
0.0032113879658064075 0.03533076710510125 -0.13126497851139687
0.00730460430652903 0.02393103025192833 -0.13892824795471476
0.011397820647251653 0.012531293398755411 -0.1465915173980326
0.015491036987974273 0.0011315565455824958 -0.15425478684135047
0.019584253328696892 -0.010268180307590418 -0.16191805628466835
0.02367746966941952 -0.02166791716076335 -0.1695813257279862
0.027770686010142133 -0.033067654013936264 -0.17724459517130406
-0.00906826105636146 0.06952997766462002 -0.10827517018144328
-0.0007487462623359678 0.06003839936395479 -0.1150670575368673
0.007570768531689523 0.05054682106328956 -0.12185894489229133
0.015890283325715 0.04105524276262434 -0.12865083224771537
0.024209798119740507 0.03156366446195911 -0.1354427196031394
0.03252931291376599 0.02207208616129388 -0.1422346069585634
0.04084882770779146 0.012580507860628665 -0.14902649431398746
0.049168342501816974 0.003088929559963435 -0.15581838166941148
0.05748785729584247 -0.0064026487407017945 -0.16261026902483552
0.06580737208986794 -0.015894227041367025 -0.16940215638025954
-0.00906826105636146 0.06952997766462002 -0.10827517018144328
0.0025760036724615477 0.06297511770235137 -0.11345966906702255
0.014220268401284554 0.056420257740082726 -0.11864416795260184
0.025864533130107552 0.04986539777781408 -0.12382866683818113
0.03750879785893057 0.04331053781554544 -0.1290131657237604
0.04915306258775357 0.03675567785327679 -0.13419766460933968
0.06079732731657656 0.030200817891008154 -0.13938216349491897
0.07244159204539959 0.023645957928739504 -0.14456666238049826
0.08408585677422259 0.01709109796647086 -0.14975116126607754
0.09573012150304559 0.010536238004202213 -0.1549356601516568
-0.00906826105636146 0.06952997766462002 -0.10827517018144328
0.004638916844507775 0.06662215682679153 -0.11129045969713647
0.01834609474537701 0.06371433598896305 -0.11430574921282965
0.03205327264624625 0.06080651515113456 -0.11732103872852286
0.04576045054711548 0.057898694313306076 -0.12033632824421604
0.059467628447984734 0.05499087347547759 -0.12335161775990923
0.07317480634885395 0.05208305263764911 -0.12636690727560243
0.08688198424972318 0.049175231799820626 -0.12938219679129562
0.10058916215059241 0.04626741096199214 -0.1323974863069888
0.11429634005146166 0.04335959012416366 -0.135412775822682
0.00906826105636146 -0.06952997766462002 0.10827517018144328
0.022775438957230696 -0.0724377985024485 0.10525988066575008
0.036482616858099934 -0.07534561934027698 0.1022445911500569
0.05018979475896917 -0.07825344017810545 0.0992293016343637
0.0638969726598384 -0.08116126101593393 0.09621401211867052
0.07760415056070766 -0.08406908185376241 0.09319872260297732
0.09131132846157688 -0.0869769026915909 0.09018343308728413
0.10501850636244613 -0.08988472352941938 0.08716814357159094
0.11872568426331535 -0.09279254436724786 0.08415285405589776
0.1324328621641846 -0.09570036520507634 0.08113756454020457
0.00906826105636146 -0.06952997766462002 0.10827517018144328
0.023352966714938528 -0.06847565187074049 0.107755843441699
0.0376376723735156 -0.06742132607686098 0.10723651670195473
0.05192237803209265 -0.06636700028298147 0.10671718996221047
0.06620708369066973 -0.06531267448910194 0.10619786322246619
0.0804917893492468 -0.06425834869522243 0.10567853648272192
0.09477649500782385 -0.06320402290134292 0.10515920974297766
0.10906120066640095 -0.0621496971074634 0.10463988300323337
0.12334590632497801 -0.06109537131358388 0.10412055626348911
0.13763061198355508 -0.060041045519704364 0.10360122952374484
0.00906826105636146 -0.06952997766462002 0.10827517018144328
0.022382524964493843 -0.06462775779834962 0.11030808332808384
0.03569678887262623 -0.05972553793207923 0.11234099647472441
0.0490110527807586 -0.05482331806580883 0.11437390962136498
0.062325316688891 -0.04992109819953844 0.11640682276800556
0.07563958059702339 -0.04501887833326804 0.11843973591464613
0.08895384450515575 -0.04011665846699765 0.1204726490612867
0.10226810841328815 -0.03521443860072725 0.12250556220792727
0.11558237232142055 -0.030312218734456865 0.12453847535456784
0.1288966362295529 -0.025409998868186477 0.12657138850120842
0.00906826105636146 -0.06952997766462002 0.10827517018144328
0.01996927612751256 -0.06131109531424769 0.11264002553113263
0.030870291198663663 -0.053092212963875375 0.11700488088082199
0.04177130626981476 -0.04487333061350306 0.12136973623051134
0.05267232134096587 -0.03665444826313074 0.1257345915802007
0.06357333641211697 -0.02843556591275842 0.13009944692989006
0.07447435148326807 -0.020216683562386102 0.1344643022795794
0.08537536655441917 -0.011997801212013786 0.13882915762926876
0.09627638162557028 -0.0037789188616414665 0.14319401297895812
0.10717739669672138 0.004439963488730859 0.14755886832864748
0.00906826105636146 -0.06952997766462002 0.10827517018144328
0.01637473316089544 -0.05888507626190805 0.11449896792933359
0.02368120526542942 -0.0482401748591961 0.12072276567722391
0.030987677369963395 -0.03759527345648414 0.12694656342511423
0.03829414947449738 -0.02695037205377218 0.13317036117300457
0.04560062157903135 -0.016305470651060222 0.13939415892089488
0.05290709368356533 -0.005660569248348271 0.1456179566687852
0.060213565788099305 0.004984332154363689 0.15184175441667552
0.0675200378926333 0.01562923355707565 0.15806555216456583
0.07482650999716728 0.026274134959787622 0.16428934991245617
0.00906826105636146 -0.06952997766462002 0.10827517018144328
0.011988420570156278 -0.05761259744921585 0.11568346526937841
0.014908580083951095 -0.04569521723381168 0.12309176035731355
0.01782873959774591 -0.033777837018407524 0.13050005544524867
0.02074889911154073 -0.02186045680300335 0.13790835053318382
0.02366905862533555 -0.009943076587599195 0.14531664562111896
0.026589218139130365 0.0019743036278049636 0.15272494070905407
0.029509377652925186 0.013891683843209135 0.1601332357969892
0.03242953716672 0.02580906405861331 0.16754153088492435
0.03534969668051482 0.037726444274017466 0.1749498259728595
0.00906826105636146 -0.06952997766462002 0.10827517018144328
0.007285663385154045 -0.05763155170006941 0.1160651588851033
0.0055030657139466315 -0.0457331257355188 0.12385514758876331
0.003720468042739215 -0.0338346997709682 0.13164513629242333
0.001937870371531804 -0.021936273806417585 0.13943512499608335
0.0001552727003243876 -0.010037847841866976 0.14722511369974337
-0.0016273249708830288 0.0018605781226836069 0.15501510240340338
-0.0034099226420904382 0.013759004087234216 0.1628050911070634
-0.005192520313297851 0.025657430051784842 0.17059507981072344
-0.006975117984505264 0.03755585601633545 0.17838506851438346
0.00906826105636146 -0.06952997766462002 0.10827517018144328
0.0027760783176798975 -0.058939885027283236 0.11560268635065779
-0.003516104421001664 -0.04834979238994647 0.1229302025198723
-0.009808287159683222 -0.03775969975260969 0.1302577186890868
-0.016100469898364788 -0.027169607115272915 0.13758523485830132
-0.02239265263704636 -0.01657951447793614 0.14491275102751583
-0.028684835375727906 -0.0059894218405993705 0.15224026719673034
-0.034977018114409474 0.004600670796737392 0.15956778336594485
-0.041269200853091034 0.01519076343407418 0.16689529953515936
-0.047561383591772595 0.025780856071410944 0.17422281570437387
0.00906826105636146 -0.06952997766462002 0.10827517018144328
-0.0010516511167834109 -0.061395819213970484 0.1143461637411498
-0.01117156328992828 -0.053261660763320964 0.12041715730085631
-0.021291475463073146 -0.045127502312671444 0.12648815086056284
-0.03141138763621802 -0.03699334386202191 0.13255914442026936
-0.04153129980936288 -0.02885918541137239 0.13863013797997586
-0.05165121198250775 -0.02072502696072287 0.1447011315396824
-0.06177112415565262 -0.012590868510073345 0.15077212509938892
-0.0718910363287975 -0.00445671005942381 0.15684311865909542
-0.08201094850194235 0.0036774483912257105 0.16291411221880195
0.00906826105636146 -0.06952997766462002 0.10827517018144328
-0.003782731040670089 -0.06473321568325831 0.11243175477827663
-0.016633723137701638 -0.05993645370189659 0.11658833937511
-0.029484715234733172 -0.05513969172053488 0.12074492397194336
-0.042335707331764734 -0.05034292973917317 0.12490150856877673
-0.055186699428796275 -0.04554616775781146 0.1290580931656101
-0.0680376915258278 -0.04074940577644975 0.13321467776244345
-0.08088868362285936 -0.035952643795088036 0.13737126235927682
-0.09373967571989092 -0.031155881813726326 0.14152784695611018
-0.10659066781692247 -0.0263591198323646 0.14568443155294356
0.00906826105636146 -0.06952997766462002 0.10827517018144328
-0.00512120656715574 -0.06859041574265752 0.11006691537828131
-0.01931067419067294 -0.06765085382069504 0.11185866057511934
-0.03350014181419013 -0.06671129189873255 0.11365040577195738
-0.047689609437707337 -0.06577172997677007 0.11544215096879541
-0.06187907706122454 -0.06483216805480758 0.11723389616563346
-0.07606854468474171 -0.0638926061328451 0.11902564136247148
-0.09025801230825892 -0.06295304421088262 0.12081738655930951
-0.10444747993177612 -0.06201348228892013 0.12260913175614756
-0.11863694755529333 -0.06107392036695765 0.12440087695298559
0.00906826105636146 -0.06952997766462002 0.10827517018144328
-0.004922033104357984 -0.07254943191510671 0.10750791258441733
-0.01891232726507743 -0.07556888616559342 0.1067406549873914
-0.03290262142579688 -0.07858834041608012 0.10597339739036545
-0.046892915586516315 -0.08160779466656683 0.10520613979333951
-0.06088320974723576 -0.08462724891705353 0.10443888219631356
-0.0748735039079552 -0.08764670316754022 0.10367162459928762
-0.08886379806867463 -0.09066615741802693 0.10290436700226167
-0.10285409222939408 -0.09368561166851364 0.10213710940523574
-0.11684438639011352 -0.09670506591900034 0.10136985180820979
0.00906826105636146 -0.06952997766462002 0.10827517018144328
-0.003206794187465666 -0.07618124336785567 0.10503205405641937
-0.01548184943129279 -0.08283250907109134 0.10178893793139547
-0.02775690467511991 -0.089483774774327 0.09854582180637159
-0.04003195991894704 -0.09613504047756266 0.09530270568134767
-0.05230701516277417 -0.10278630618079831 0.09205958955632378
-0.06458207040660127 -0.10943757188403398 0.08881647343129989
-0.0768571256504284 -0.11608883758726965 0.08557335730627598
-0.08913218089425554 -0.1227401032905053 0.08233024118125208
-0.10140723613808267 -0.12939136899374096 0.07908712505622818
0.00906826105636146 -0.06952997766462002 0.10827517018144328
-0.00016136256779806287 -0.07909228697663809 0.10290763748269931
-0.009390986191957584 -0.08865459628865616 0.09754010478395533
-0.018620609816117104 -0.09821690560067423 0.09217257208521136
-0.02785023344027663 -0.1077792149126923 0.08680503938646739
-0.03707985706443615 -0.11734152422471038 0.08143750668772341
-0.04630948068859567 -0.12690383353672843 0.07606997398897945
-0.055539104312755196 -0.13646614284874653 0.07070244129023547
-0.06476872793691471 -0.14602845216076457 0.0653349085914915
-0.07399835156107423 -0.15559076147278267 0.059967375892747525
0.00906826105636146 -0.06952997766462002 0.10827517018144328
0.003884241983913437 -0.0809671059969468 0.1013648763627392
-0.0012997770885345853 -0.0924042343292736 0.09445458254403513
-0.006483796160982607 -0.10384136266160039 0.08754428872533106
-0.011667815233430629 -0.11527849099392719 0.08063399490662698
-0.016851834305878655 -0.12671561932625397 0.07372370108792291
-0.022035853378326673 -0.13815274765858077 0.06681340726921883
-0.0272198724507747 -0.14958987599090756 0.05990311345051476
-0.03240389152322272 -0.16102700432323436 0.05299281963181068
-0.037587910595670744 -0.17246413265556115 0.0460825258131066
0.00906826105636146 -0.06952997766462002 0.10827517018144328
0.008491615440468439 -0.08160253469711695 0.10057095280229197
0.007914969824575417 -0.0936750917296139 0.09286673542314068
0.007338324208682397 -0.10574764876211083 0.08516251804398939
0.006761678592789376 -0.11782020579460778 0.0774583006648381
0.00618503297689636 -0.1298927628271047 0.06975408328568682
0.005608387361003335 -0.14196531985960165 0.0620498659065355
0.005031741745110317 -0.1540378768920986 0.054345648527384216
0.004455096129217293 -0.16611043392459554 0.046641431148232916
0.0038784505133242783 -0.17818299095709247 0.03893721376908164
0.00906826105636146 -0.06952997766462002 0.10827517018144328
0.013161477397084082 -0.08092971451779293 0.10061190073812541
0.017254693737806703 -0.09232945137096585 0.09294863129480754
0.021347910078529327 -0.10372918822413878 0.08528536185148969
0.025441126419251947 -0.11512892507731169 0.0776220924081718
0.02953434275997457 -0.12652866193048462 0.06995882296485395
0.033627559100697195 -0.13792839878365754 0.06229555352153609
0.03772077544141981 -0.14932813563683045 0.054632284078218206
0.041813991782142436 -0.16072787249000337 0.04696901463490034
0.04590720812286505 -0.17212760934317628 0.03930574519158248
0.00906826105636146 -0.06952997766462002 0.10827517018144328
0.01738777585038695 -0.07902155596528523 0.10148328282601925
0.02570729064441244 -0.08851313426595046 0.09469139547059521
0.03402680543843792 -0.09800471256661569 0.0878995081151712
0.04234632023246342 -0.10749629086728092 0.08110762075974716
0.05066583502648891 -0.11698786916794615 0.07431573340432314
0.05898534982051438 -0.12647944746861137 0.0675238460488991
0.0673048646145399 -0.13597102576927658 0.06073195869347507
0.0756243794085654 -0.14546260406994183 0.05394007133805104
0.08394389420259087 -0.15495418237060704 0.04714818398262701
0.00906826105636146 -0.06952997766462002 0.10827517018144328
0.020712525785184465 -0.07608483762688865 0.103090671295864
0.03235679051400747 -0.0826396975891573 0.09790617241028471
0.04400105524283047 -0.08919455755142594 0.09272167352470544
0.055645319971653485 -0.09574941751369459 0.08753717463912615
0.0672895847004765 -0.10230427747596324 0.08235267575354686
0.07893384942929949 -0.10885913743823188 0.07716817686796759
0.09057811415812252 -0.11541399740050053 0.0719836779823883
0.10222237888694552 -0.12196885736276916 0.06679917909680902
0.11386664361576852 -0.1285237173250378 0.06161468021122974
0.00906826105636146 -0.06952997766462002 0.10827517018144328
0.022775438957230693 -0.0724377985024485 0.10525988066575008
0.03648261685809993 -0.07534561934027698 0.1022445911500569
0.05018979475896917 -0.07825344017810547 0.0992293016343637
0.0638969726598384 -0.08116126101593395 0.0962140121186705
0.07760415056070766 -0.08406908185376243 0.09319872260297732
0.09131132846157688 -0.08697690269159092 0.09018343308728413
0.10501850636244611 -0.0898847235294194 0.08716814357159093
0.11872568426331534 -0.09279254436724789 0.08415285405589774
0.1324328621641846 -0.09570036520507637 0.08113756454020454
