# .PCD v0.7 - Point Cloud Data file format
VERSION 0.7
FIELDS x y z
SIZE 4 4 4
TYPE F F F
COUNT 1 1 1
WIDTH 700
HEIGHT 1
VIEWPOINT 0 0 0 1 0 0 0
POINTS 700
DATA ascii
0.08887498092052343 -0.005004937990190703 -0.08644029507510448
0.09215383173905123 0.013155948480534219 -0.08203857974129215
0.09134496446259259 0.03162885017855518 -0.07779106346033839
0.08648620082600332 0.04954999475162833 -0.07389635537276529
0.0778047312168024 0.06608140939743835 -0.07053656770009065
0.06570649150515558 0.08045010354049495 -0.06786880037975294
0.050757181933751803 0.0919842130123253 -0.06601779524664073
0.033655815603185694 0.10014441567326852 -0.06507010324353389
0.015202033396270975 0.10454914951631288 -0.0650700373952137
-0.0037412863409028506 0.10499245408246757 -0.06601760078067442
-0.022288375031413208 0.10145360094291687 -0.06786848638915298
-0.039571991421700384 0.09409806293731342 -0.0705361488667085
-0.05478397281871449 0.08326977684770587 -0.07389585128078441
-0.06721302387923413 0.06947506129686869 -0.07779049768053954
-0.07627797598956747 0.05335894185223392 -0.0820379787289099
-0.081554962064006 0.03567499034725234 -0.08643968693280986
-0.08279723609865776 0.017250088699996474 -0.09078980330877233
-0.07994671074035083 -0.0010542351663153807 -0.09488492124986439
-0.07313667338670825 -0.01838209141148928 -0.09853355759255727
-0.06268555381557347 -0.033923248736029865 -0.10156510615663471
-0.04908203476250763 -0.04695101989619743 -0.10383781510056465
-0.03296220165920657 -0.05685624079187021 -0.10524541508006353
-0.01507979998567293 -0.06317575430282883 -0.10572208828452496
0.003729009030700788 -0.06561406700093574 -0.10524554600469256
0.022584746384798755 -0.0640571660944173 -0.10383807082793259
0.04060573875459021 -0.05857785053929129 -0.10156547472921401
0.056949344565758175 -0.04943232704109354 -0.0985340217763038
0.07085135497518559 -0.0370482301140805 -0.09488545934006205
0.08166172742710257 -0.022004626366624102 -0.09079039014492152
0.08887498092052343 -0.005004937990190724 -0.08644029507510448
0.08782328471556361 -0.009411338496749699 -0.06747666658567596
0.09110213553409141 0.008749547973975223 -0.06307495125186363
0.09029326825763277 0.02722244967199618 -0.058827434970909864
0.0854345046210435 0.045143594245069335 -0.05493272688333677
0.07675303501184258 0.06167500889087936 -0.05157293921066214
0.06465479530019574 0.07604370303393596 -0.04890517189032442
0.04970548572879198 0.08757781250576631 -0.04705416675721221
0.03260411939822587 0.09573801516670953 -0.046106474754105384
0.01415033719131115 0.10014274900975388 -0.04610640890578519
-0.004792982545862675 0.10058605357590858 -0.047053972291245916
-0.023340071236373033 0.09704720043635788 -0.048904857899724465
-0.04062368762666021 0.08969166243075442 -0.05157252037727999
-0.05583566902367432 0.07886337634114687 -0.05493222279135589
-0.06826472008419394 0.0650686607903097 -0.05882686919111103
-0.07732967219452729 0.04895254134567493 -0.0630743502394814
-0.08260665826896582 0.03126858984069335 -0.06747605844338135
-0.08384893230361758 0.01284368819343748 -0.07182617481934381
-0.08099840694531064 -0.005460635672874375 -0.07592129276043587
-0.07418836959166807 -0.022788491918048274 -0.07956992910312877
-0.06373725002053329 -0.03832964924258886 -0.0826014776672062
-0.050133730967467455 -0.051357420402756426 -0.08487418661113615
-0.03401389786416639 -0.061262641298429205 -0.08628178659063501
-0.016131496190632755 -0.06758215480938783 -0.08675845979509644
0.0026773128257409633 -0.07002046750749473 -0.08628191751526405
0.02153305017983893 -0.0684635666009763 -0.08487444233850407
0.03955404254963039 -0.06298425104585029 -0.0826018462397855
0.05589764836079835 -0.05383872754765254 -0.07957039328687528
0.06979965877022577 -0.0414546306206395 -0.07592183085063353
0.08061003122214275 -0.026411026873183096 -0.07182676165549301
0.08782328471556361 -0.00941133849674972 -0.06747666658567597
0.08677158851060378 -0.01381773900330869 -0.04851303809624746
0.09005043932913158 0.004343147467416232 -0.04411132276243514
0.08924157205267294 0.02281604916543719 -0.03986380648148137
0.08438280841608367 0.04073719373851034 -0.03596909839390827
0.07570133880688275 0.057268608384320366 -0.03260931072123364
0.06360309909523593 0.07163730252737696 -0.029941543400895925
0.048653789523832154 0.08317141199920731 -0.02809053826778371
0.031552423193266045 0.09133161466015054 -0.027142846264676883
0.013098640986351327 0.09573634850319489 -0.02714278041635669
-0.005844678750822499 0.09617965306934959 -0.028090343801817415
-0.024391767441332854 0.09264079992979889 -0.029941229410295964
-0.04167538383162003 0.08528526192419543 -0.03260889188785149
-0.05688736522863414 0.07445697583458788 -0.0359685943019274
-0.06931641628915378 0.060662260283750706 -0.039863240701682526
-0.07838136839948712 0.044546140839115934 -0.04411072175005289
-0.08365835447392565 0.026862189334134354 -0.04851242995395285
-0.08490062850857741 0.00843728768687849 -0.05286254632991531
-0.08205010315027048 -0.009867036179433367 -0.056957664271007374
-0.0752400657966279 -0.027194892424607264 -0.060606300613700266
-0.06478894622549312 -0.04273604974914785 -0.06363784917777769
-0.05118542717242728 -0.05576382090931542 -0.06591055812170765
-0.03506559406912622 -0.0656690418049882 -0.06731815810120652
-0.017183192395592576 -0.07198855531594682 -0.06779483130566795
0.00162561662078114 -0.07442686801405372 -0.06731828902583555
0.02048135397487911 -0.0728699671075353 -0.06591081384907557
0.03850234634467056 -0.06739065155240928 -0.06363821775035701
0.054845952155838526 -0.05824512805421153 -0.06060676479744678
0.06874796256526594 -0.04586103112719849 -0.05695820236120504
0.07955833501718292 -0.030817427379742086 -0.05286313316606451
0.08677158851060378 -0.01381773900330871 -0.04851303809624747
0.08571989230564396 -0.018224139509867683 -0.029549409606818955
0.08899874312417176 -6.325303914276131e-05 -0.02514769427300663
0.08818987584771312 0.018409648658878196 -0.02090017799205286
0.08333111221112385 0.03633079323195135 -0.017005469904479764
0.07464964260192293 0.05286220787776137 -0.013645682231805132
0.0625514028902761 0.06723090202081797 -0.010977914911467419
0.04760209331887233 0.07876501149264832 -0.009126909778355204
0.030500726988306224 0.08692521415359154 -0.008179217775248377
0.012046944781391502 0.0913299479966359 -0.008179151926928184
-0.0068963749557823225 0.09177325256279059 -0.009126715312388909
-0.02544346364629268 0.08823439942323989 -0.010977600920867457
-0.04272708003657986 0.08087886141763644 -0.013645263398422983
-0.057939061433593966 0.07005057532802889 -0.017004965812498888
-0.0703681124941136 0.05625585977719171 -0.020899612212254018
-0.07943306460444693 0.04013974033255694 -0.025147093260624385
-0.08471005067888547 0.02245578882757536 -0.029548801464524342
-0.08595232471353723 0.004030887180319496 -0.033898917840486806
-0.0831017993552303 -0.01427343668599236 -0.037994035781578867
-0.07629176200158772 -0.03160129293116626 -0.04164267212427176
-0.06584064243045294 -0.04714245025570685 -0.04467422068834919
-0.052237123377387104 -0.060170221415874414 -0.04694692963227914
-0.03611729027408604 -0.07007544231154719 -0.04835452961177801
-0.0182348886005524 -0.07639495582250581 -0.04883120281623944
0.000573920415821316 -0.07883326852061272 -0.048354660536407044
0.019429657769919284 -0.07727636761409429 -0.046947185359647065
0.03745065013971074 -0.07179705205896827 -0.044674589260928495
0.0537942559508787 -0.06265152856077053 -0.041643136308018275
0.06769626636030612 -0.050267431633757485 -0.03799457387177653
0.0785066388122231 -0.03522382788630108 -0.033899504676636
0.08571989230564396 -0.018224139509867704 -0.029549409606818962
0.08466819610068413 -0.022630540016426677 -0.010585781117390447
0.08794704691921193 -0.004469653545701755 -0.00618406578357812
0.08713817964275329 0.014003248152319202 -0.0019365495026243522
0.08227941600616402 0.03192439272539235 0.001958158584948743
0.0735979463969631 0.04845580737120238 0.005317946257623377
0.06149970668531627 0.06282450151425897 0.007985713577961089
0.046550397113912505 0.07435861098608933 0.009836718711073304
0.0294490307833464 0.08251881364703255 0.010784410714180131
0.01099524857643168 0.0869235474900769 0.010784476562500324
-0.007948071160742146 0.0873668520562316 0.0098369131770396
-0.026495159851252503 0.0838279989166809 0.00798602756856105
-0.04377877624153968 0.07647246091107744 0.005318365091005525
-0.05899075763855379 0.06564417482146989 0.001958662676929619
-0.07141980869907343 0.05184945927063272 -0.0019359837228255094
-0.08048476080940677 0.035733339825997947 -0.0061834647711958785
-0.0857617468838453 0.018049388321016366 -0.010585172975095833
-0.08700402091849706 -0.00037551332623949804 -0.014935289351058294
-0.08415349556019013 -0.018679837192551355 -0.01903040729215036
-0.07734345820654755 -0.03600769343772525 -0.02267904363484325
-0.06689233863541277 -0.05154885076226584 -0.02571059219892068
-0.05328881958234693 -0.06457662192243341 -0.02798330114285063
-0.03716898647904587 -0.07448184281810619 -0.029390901122349503
-0.019286584805512225 -0.08080135632906481 -0.029867574326810933
-0.000477775789138508 -0.08323966902717171 -0.029391032046978533
0.01837796156495946 -0.08168276812065328 -0.027983556870218553
0.03639895393475091 -0.07620345256552727 -0.025710960771499987
0.05274255974591888 -0.06705792906732952 -0.022679507818589767
0.06664457015534629 -0.05467383214031648 -0.019030945382348022
0.07745494260726327 -0.039630228392860074 -0.014935876187207495
0.08466819610068413 -0.022630540016426698 -0.010585781117390452
0.08361649989572431 -0.02703694052298567 0.008377847372038063
0.08689535071425211 -0.008876054052260749 0.01277956270585039
0.08608648343779347 0.009596847645760208 0.017027078986804157
0.0812277198012042 0.02751799221883336 0.02092178707437725
0.07254625019200328 0.044049406864643384 0.024281574747051886
0.06044801048035645 0.05841810100769998 0.0269493420673896
0.04549870090895269 0.06995221047953033 0.028800347200501814
0.028397334578386575 0.07811241314047355 0.02974803920360864
0.009943552371471855 0.0825171469835179 0.029748105051928833
-0.008999767365701971 0.0829604515496726 0.02880054166646811
-0.027546856056212328 0.0794215984101219 0.02694965605798956
-0.0448304724464995 0.07206606040451845 0.024281993580434036
-0.06004245384351361 0.0612377743149109 0.020922291166358128
-0.07247150490403324 0.047443058764073724 0.017027644766603
-0.08153645701436658 0.03132693931943895 0.012780163718232632
-0.08681344308880512 0.013642987814457372 0.008378455514332677
-0.08805571712345688 -0.004781913832798492 0.004028339138370215
-0.08520519176514994 -0.02308623769911035 -6.677880272184971e-05
-0.07839515441150736 -0.040414093944284246 -0.00371541514541474
-0.06794403484037259 -0.055955251268824835 -0.006746963709492171
-0.05434051578730675 -0.0689830224289924 -0.00901967265342212
-0.038220682684005684 -0.07888824332466518 -0.010427272632920993
-0.02033828101047205 -0.0852077568356238 -0.010903945837382424
-0.0015294719940983322 -0.0876460695337307 -0.010427403557550024
0.017326265359999635 -0.08608916862721228 -0.009019928380790044
0.035347257729791096 -0.08060985307208626 -0.006747332282071478
0.05169086354095906 -0.07146432957388851 -0.003715879329161258
0.06559287395038647 -0.05908023264687547 -6.731689291951287e-05
0.07640324640230345 -0.04403662889941907 0.0040277523022210155
0.08361649989572431 -0.027036940522985692 0.008377847372038057
0.08256480369076448 -0.031443341029544665 0.027341475861466562
0.08584365450929228 -0.013282454558819741 0.03174319119527889
0.08503478723283364 0.0051904471392012165 0.035990707476232654
0.08017602359624437 0.02311159171227437 0.03988541556380575
0.07149455398704345 0.03964300635808439 0.04324520323648039
0.05939631427539663 0.054011700501140986 0.045912970556818096
0.04444700470399286 0.06554580997297134 0.047763975689930314
0.02734563837342675 0.07370601263391456 0.04871166769303714
0.008891856166512032 0.07811074647695891 0.048711733541357334
-0.010051463570661794 0.07855405104311361 0.04776417015589661
-0.028598552261172153 0.07501519790356291 0.04591328454741806
-0.045882168651459325 0.06765965989795945 0.04324562206986254
-0.06109415004847343 0.056831373808351904 0.039885919655786625
-0.07352320110899307 0.04303665825751473 0.0359912732560315
-0.08258815321932642 0.026920538812879962 0.03174379220766113
-0.08786513929376495 0.00923658730789838 0.027342084003761175
-0.0891074133284167 -0.009188314339357484 0.022991967627798714
-0.08625688797010977 -0.02749263820566934 0.01889684968670665
-0.0794468506164672 -0.04482049445084324 0.015248213344013758
-0.06899573104533242 -0.06036165177538383 0.012216664779936328
-0.05539221199226657 -0.0733894229355514 0.009943955836006378
-0.03927237888896551 -0.08329464383122417 0.008536355856507504
-0.021389977215431875 -0.0896141573421828 0.008059682652046074
-0.002581168199058156 -0.0920524700402897 0.008536224931878474
0.01627456915503981 -0.09049556913377127 0.009943700108638454
0.03429556152483127 -0.08501625357864526 0.01221629620735702
0.050639167335999234 -0.07587073008044751 0.01524774916026724
0.06454117774542664 -0.06348663315343446 0.018896311596508987
0.07535155019734362 -0.04844302940597806 0.022991380791649516
0.08256480369076448 -0.031443341029544686 0.027341475861466555
0.08151310748580466 -0.03584974153610366 0.04630510435089507
0.08479195830433246 -0.017688855065378734 0.050706819684707395
0.08398309102787382 0.0007840466326422222 0.05495433596566117
0.07912432739128455 0.018705191205715375 0.05884904405323426
0.07044285778208363 0.035236605851525396 0.062208831725908895
0.0583446180704368 0.04960529999458199 0.06487659904624661
0.04339530849903304 0.061139409466412345 0.06672760417935883
0.02629394216846693 0.06929961212735557 0.06767529618246565
0.007840159961552207 0.07370434597039992 0.06767536203078585
-0.011103159775621619 0.07414765053655462 0.06672779864532512
-0.029650248466131974 0.07060879739700392 0.06487691303684658
-0.04693386485641915 0.06325325939140046 0.062209250559291045
-0.06214584625343326 0.05242497330179291 0.05884954814521514
-0.07457489731395289 0.038630257750955736 0.05495490174546001
-0.08363984942428623 0.022514138306320968 0.05070742069708964
-0.08891683549872477 0.0048301868013393865 0.04630571249318968
-0.09015910953337652 -0.013594714845916478 0.041955596117227226
-0.08730858417506959 -0.031899038712228336 0.03786047817613516
-0.08049854682142701 -0.049226894957402234 0.034211841833442266
-0.07004742725029224 -0.06476805228194282 0.031180293269364837
-0.056443908197226396 -0.07779582344211039 0.028907584325434887
-0.040324075093925334 -0.08770104433778317 0.027499984345936014
-0.022441673420391696 -0.09402055784874179 0.027023311141474583
-0.0036328644040179796 -0.0964588705468487 0.027499853421306984
0.015222872950079987 -0.09490196964033026 0.028907328598066964
0.033243865319871446 -0.08942265408520425 0.03117992469678553
0.04958747113103941 -0.0802771305870065 0.03421137764969575
0.06348948154046682 -0.06789303365999345 0.037859940085937495
0.0742998539923838 -0.052849429912537056 0.04195500928107802
0.08151310748580466 -0.03584974153610368 0.04630510435089506
0.08046141128084483 -0.04025614204266265 0.06526873284032358
0.08374026209937263 -0.022095255571937727 0.06967044817413591
0.08293139482291399 -0.003622353873916771 0.07391796445508968
0.07807263118632472 0.01429879069915638 0.07781267254266276
0.0693911615771238 0.030830205344966406 0.0811724602153374
0.05729292186547698 0.045198899488023 0.08384022753567512
0.04234361229407321 0.05673300895985335 0.08569123266878732
0.025242245963507104 0.06489321162079657 0.08663892467189416
0.006788463756592383 0.06929794546384092 0.08663899052021434
-0.012154855980581442 0.06974125002999562 0.08569142713475363
-0.0307019446710918 0.06620239689044492 0.08384054152627507
-0.047985561061378974 0.058846858884841466 0.08117287904871955
-0.06319754245839308 0.048018572795233916 0.07781317663464364
-0.07562659351891272 0.03422385724439674 0.07391853023488852
-0.08469154562924606 0.018107737799761974 0.06967104918651815
-0.0899685317036846 0.0004237862947803929 0.06526934098261819
-0.09121080573833636 -0.01800111535247547 0.060919224606655734
-0.08836028038002942 -0.03630543921878733 0.056824106665563666
-0.08155024302638685 -0.05363329546396123 0.053175470322870774
-0.07109912345525207 -0.06917445278850182 0.05014392175879334
-0.05749560440218622 -0.08220222394866938 0.047871212814863395
-0.04137577129888516 -0.09210744484434216 0.04646361283536452
-0.02349336962535152 -0.09842695835530078 0.04598693963090309
-0.004684560608977804 -0.10086527105340769 0.04646348191073549
0.014171176745120164 -0.09930837014688926 0.04787095708749547
0.03219216911491162 -0.09382905459176324 0.05014355318621404
0.048535774926079585 -0.0846835310935655 0.05317500613912426
0.062437785335507 -0.07229943416655245 0.056823568575366
0.07324815778742397 -0.05725583041909605 0.06091863777050653
0.08046141128084483 -0.040256142042662674 0.06526873284032357
0.07940971507588501 -0.04466254254922165 0.08423236132975209
0.08268856589441281 -0.02650165607849672 0.08863407666356442
0.08187969861795417 -0.008028754380475766 0.09288159294451818
0.0770209349813649 0.009892390192597385 0.09677630103209128
0.06833946537216398 0.02642380483840741 0.10013608870476591
0.056241225660517154 0.040792498981464004 0.10280385602510363
0.04129191608911339 0.05232660845329436 0.10465486115821585
0.02419054975854728 0.06048681111423758 0.10560255316132267
0.005736767551632559 0.06489154495728193 0.10560261900964286
-0.013206552185541266 0.06533484952343663 0.10465505562418213
-0.03175364087605163 0.06179599638388593 0.10280417001570359
-0.0490372572663388 0.05444045837828247 0.10013650753814807
-0.06424923866335291 0.04361217228867492 0.09677680512407216
-0.07667828972387254 0.029817456737837752 0.09288215872431703
-0.08574324183420588 0.013701337293202978 0.08863467767594665
-0.09102022790864442 -0.003982614211778602 0.0842329694720467
-0.09226250194329617 -0.022407515859034464 0.07988285309608424
-0.08941197658498924 -0.040711839725346324 0.07578773515499218
-0.08260193923134666 -0.05803969597052022 0.07213909881229928
-0.07215081966021189 -0.07358085329506081 0.06910755024822186
-0.058547300607146045 -0.08660862445522838 0.0668348413042919
-0.04242746750384498 -0.09651384535090116 0.06542724132479304
-0.024545065830311345 -0.10283335886185978 0.0649505681203316
-0.005736256813937628 -0.10527167155996668 0.06542711040016401
0.01311948054016034 -0.10371477065344825 0.06683458557692398
0.031140472909951797 -0.09823545509832224 0.06910718167564255
0.04748407872111976 -0.08908993160012449 0.07213863462855277
0.061386089130547175 -0.07670583467311144 0.07578719706479452
0.07219646158246415 -0.061662230925655044 0.07988226625993504
0.07940971507588501 -0.04466254254922167 0.08423236132975209
0.004732632922319208 0.01982880227951547 -0.08533632820242829
0.014081782699897454 0.017069497805103674 -0.0854589911882812
0.0234309324774757 0.014310193330691875 -0.0855816541741341
0.032780082255053945 0.01155088885628008 -0.08570431715998701
0.04212923203263219 0.008791584381868282 -0.08582698014583992
0.051478381810210444 0.006032279907456485 -0.08594964313169283
0.060827531587788676 0.003272975433044689 -0.08607230611754574
0.07017668136536692 0.0005136709586328907 -0.08619496910339866
0.07952583114294517 -0.002245633515778908 -0.08631763208925157
0.08887498092052343 -0.005004937990190703 -0.08644029507510448
0.004732632922319208 0.01982880227951547 -0.08533632820242829
0.014455646115366266 0.020169441185468862 -0.0847179524770134
0.024178659308413324 0.02051008009142225 -0.08409957675159853
0.03390167250146039 0.02085071899737564 -0.08348120102618364
0.04362468569450744 0.02119135790332903 -0.08286282530076877
0.0533476988875545 0.02153199680928242 -0.08224444957535389
0.06307071208060157 0.02187263571523581 -0.08162607384993902
0.07279372527364864 0.022213274621189195 -0.08100769812452413
0.08251673846669567 0.02255391352714259 -0.08038932239910926
0.09223975165974274 0.022894552433095978 -0.07977094667369437
0.004732632922319208 0.01982880227951547 -0.08533632820242829
0.013775870183274263 0.023232471054816784 -0.08404392437068231
0.022819107444229318 0.026636139830118095 -0.08275152053893635
0.03186234470518437 0.030039808605419403 -0.08145911670719037
0.04090558196613943 0.03344347738072072 -0.08016671287544441
0.04994881922709449 0.036847146156022026 -0.07887430904369844
0.05899205648804953 0.04025081493132334 -0.07758190521195246
0.06803529374900459 0.04365448370662465 -0.0762895013802065
0.07707853100995965 0.04705815248192596 -0.07499709754846053
0.08612176827091471 0.05046182125722728 -0.07370469371671456
0.004732632922319208 0.01982880227951547 -0.08533632820242829
0.012116119173673976 0.025926660598998206 -0.08350994827323255
0.019499605425028745 0.03202451891848094 -0.08168356834403682
0.026883091676383513 0.03812237723796368 -0.0798571884148411
0.03426657792773828 0.04422023555744641 -0.07803080848564536
0.04165006417909305 0.050318093876929156 -0.07620442855644964
0.04903355043044782 0.05641595219641189 -0.0743780486272539
0.05641703668180259 0.06251381051589464 -0.07255166869805818
0.06380052293315736 0.06861166883537735 -0.07072528876886246
0.07118400918451212 0.07470952715486011 -0.06889890883966672
0.004732632922319208 0.01982880227951547 -0.08533632820242829
0.009656252862146003 0.027960052576243018 -0.08317388878031565
0.014579872801972796 0.03609130287297057 -0.08101144935820301
0.01950349274179959 0.044222553169698114 -0.07884900993609036
0.024427112681626385 0.052353803466425666 -0.07668657051397772
0.02935073262145318 0.06048505376315322 -0.07452413109186508
0.034274352561279975 0.06861630405988076 -0.07236169166975244
0.039197972501106765 0.07674755435660831 -0.0701992522476398
0.04412159244093356 0.08487880465333586 -0.06803681282552716
0.04904521238076036 0.09301005495006341 -0.06587437340341452
0.004732632922319208 0.01982880227951547 -0.08533632820242829
0.006662835932302887 0.02911229741448937 -0.08307216315248943
0.008593038942286567 0.038395792549463265 -0.08080799810255057
0.010523241952270246 0.04767928768443716 -0.07854383305261171
0.012453444962253925 0.05696278281941106 -0.07627966800267286
0.014383647972237604 0.06624627795438495 -0.07401550295273401
0.016313850982221285 0.07552977308935885 -0.07175133790279516
0.018244053992204964 0.08481326822433276 -0.0694871728528563
0.020174257002188643 0.09409676335930665 -0.06722300780291744
0.022104460012172325 0.10338025849428056 -0.06495884275297859
0.004732632922319208 0.01982880227951547 -0.08533632820242829
0.0034602515561424677 0.029258531506592467 -0.08321579493996463
0.0021878701899657274 0.03868826073366947 -0.08109526167750097
0.0009154888237889886 0.04811798996074646 -0.07897472841503732
-0.0003568925423877535 0.05754771918782346 -0.07685419515257366
-0.0016292739085644913 0.06697744841490047 -0.07473366189011
-0.0029016552747412306 0.07640717764197745 -0.07261312862764635
-0.0041740366409179705 0.08583690686905446 -0.0704925953651827
-0.005446418007094715 0.09526663609613145 -0.06837206210271904
-0.0067187993732714495 0.10469636532320845 -0.06625152884025538
0.004732632922319208 0.01982880227951547 -0.08533632820242829
0.0003955494440383882 0.02838290811961722 -0.08358921940989149
-0.003941534034242432 0.036937013959718976 -0.0818421106173547
-0.008278617512523248 0.04549111979982072 -0.08009500182481791
-0.012615700990804071 0.05404522563992248 -0.07834789303228112
-0.016952784469084894 0.06259933148002424 -0.07660078423974434
-0.021289867947365704 0.07115343732012597 -0.07485367544720754
-0.025626951425646527 0.07970754316022773 -0.07310656665467076
-0.02996403490392735 0.08826164900032948 -0.07135945786213396
-0.034301118382208166 0.09681575484043123 -0.06961234906959718
0.004732632922319208 0.01982880227951547 -0.08533632820242829
-0.0021991623764099706 0.026580314634239127 -0.0841519702266758
-0.00913095767513915 0.03333182698896279 -0.0829676122509233
-0.016062752973868326 0.04008333934368644 -0.08178325427517082
-0.022994548272597507 0.046834851698410104 -0.08059889629941833
-0.02992634357132669 0.053586364053133766 -0.07941453832366584
-0.03685813887005586 0.06033787640785742 -0.07823018034791335
-0.04378993416878505 0.06708938876258108 -0.07704582237216086
-0.05072172946751422 0.07384090111730474 -0.07586146439640837
-0.057653524766243414 0.08059241347202839 -0.07467710642065588
0.004732632922319208 0.01982880227951547 -0.08533632820242829
-0.00404270661835489 0.024046090024718695 -0.08484306460734034
-0.012818046159028988 0.028263377769921917 -0.0843498010122524
-0.021593385699703083 0.03248066551512514 -0.08385653741716445
-0.030368725240377183 0.03669795326032837 -0.0833632738220765
-0.03914406478105129 0.040915241005531594 -0.08287001022698856
-0.047919404321725374 0.04513252875073481 -0.08237674663190062
-0.056694743862399484 0.04934981649593804 -0.08188348303681267
-0.06547008340307357 0.053567104241141264 -0.08139021944172473
-0.07424542294374768 0.05778439198634449 -0.08089695584663678
0.004732632922319208 0.01982880227951547 -0.08533632820242829
-0.004935306657645393 0.021054856850043817 -0.08558761175230593
-0.014603246237609994 0.022280911420572164 -0.08583889530218358
-0.0242711858175746 0.023506965991100512 -0.08609017885206124
-0.0339391253975392 0.024733020561628856 -0.08634146240193889
-0.04360706497750381 0.0259590751321572 -0.08659274595181654
-0.053275004557468406 0.02718512970268555 -0.08684402950169419
-0.062942944137433 0.02841118427321389 -0.08709531305157185
-0.0726108837173976 0.02963723884374224 -0.0873465966014495
-0.0822788232973622 0.030863293414270587 -0.08759788015132715
0.004732632922319208 0.01982880227951547 -0.08533632820242829
-0.004780235429907716 0.0179307616384554 -0.08630492842557627
-0.01429310378213464 0.01603272099739533 -0.08727352864872427
-0.023805972134361565 0.014134680356335258 -0.08824212887187227
-0.03331884048658849 0.012236639715275187 -0.08921072909502026
-0.04283170883881542 0.010338599074215115 -0.09017932931816826
-0.05234457719104234 0.008440558433155046 -0.09114792954131626
-0.06185744554326926 0.006542517792094972 -0.09211652976446424
-0.07137031389549618 0.004644477151034903 -0.09308512998761224
-0.08088318224772313 0.002746436509974829 -0.09405373021076023
0.004732632922319208 0.01982880227951547 -0.08533632820242829
-0.003594297308845256 0.015012348581460848 -0.08691728223528754
-0.01192122754000972 0.010195894883406225 -0.0884982362681468
-0.020248157771174183 0.0053794411853516026 -0.09007919030100606
-0.02857508800233865 0.0005629874872969795 -0.09166014433386531
-0.036902018233503114 -0.004253466210757647 -0.09324109836672458
-0.04522894846466757 -0.009069919908812266 -0.09482205239958383
-0.053555878695832046 -0.013886373606866892 -0.0964030064324431
-0.061882808926996505 -0.018702827304921513 -0.09798396046530235
-0.07020973915816098 -0.023519281002976126 -0.0995649144981616
0.004732632922319208 0.01982880227951547 -0.08533632820242829
-0.0015060070916010704 0.012615873017629847 -0.08735831514450916
-0.007744647105521349 0.005402943755744223 -0.08938030208659005
-0.013983287119441627 -0.0018099855061414016 -0.09140228902867092
-0.020221927133361906 -0.009022914768027026 -0.09342427597075181
-0.02646056714728219 -0.01623584402991266 -0.0954462629128327
-0.03269920716120246 -0.023448773291798276 -0.09746824985491358
-0.03893784717512275 -0.030661702553683907 -0.09949023679699447
-0.04517648718904302 -0.03787463181556952 -0.10151222373907534
-0.051415127202963304 -0.04508756107745515 -0.10353421068115623
0.004732632922319208 0.01982880227951547 -0.08533632820242829
0.0012583365736250991 0.011001030259453183 -0.08758023439419631
-0.0022159597750690094 0.0021732582393908947 -0.08982414058596433
-0.005690256123763117 -0.006654513780671391 -0.09206804677773235
-0.009164552472457227 -0.015482285800733681 -0.09431195296950037
-0.012638848821151336 -0.024310057820795972 -0.09655585916126841
-0.016113145169845442 -0.03313782984085825 -0.09879976535303643
-0.019587441518539556 -0.04196560186092055 -0.10104367154480445
-0.023061737867233662 -0.05079337388098283 -0.10328757773657248
-0.026536034215927776 -0.05962114590104513 -0.10553148392834051
0.004732632922319208 0.01982880227951547 -0.08533632820242829
0.00439917415749459 0.010342813576646388 -0.08755899159021342
0.004065715392669971 0.0008568248737773046 -0.08978165497799855
0.003732256627845353 -0.008629163829091778 -0.09200431836578368
0.0033987978630207354 -0.018115152531960863 -0.09422698175356882
0.0030653390981961186 -0.02760114123482994 -0.09644964514135396
0.0027318803333714983 -0.037087129937699026 -0.0986723085291391
0.0023984215685468814 -0.046573118640568095 -0.10089497191692422
0.002064962803722263 -0.05605910734343719 -0.10311763530470935
0.0017315040388976475 -0.06554509604630628 -0.10534029869249449
0.004732632922319208 0.01982880227951547 -0.08533632820242829
0.007576147172678675 0.010712550960075725 -0.0872968887199881
0.010419661423038143 0.0015962996406359788 -0.08925744923754793
0.013263175673397607 -0.007519951678803765 -0.09121800975510776
0.016106689923757078 -0.016636202998243515 -0.09317857027266757
0.018950204174116542 -0.025752454317683266 -0.0951391307902274
0.021793718424476007 -0.034868705637123 -0.09709969130778721
0.02463723267483547 -0.04398495695656274 -0.09906025182534704
0.027480746925194945 -0.053101208276002496 -0.10102081234290687
0.030324261175554413 -0.062217459595442226 -0.10298137286046669
0.004732632922319208 0.01982880227951547 -0.08533632820242829
0.010444981297166703 0.01207017562718001 -0.08682232869645434
0.0161573296720142 0.004311548974844551 -0.08830832919048041
0.02186967804686169 -0.003447077677490909 -0.08979432968450649
0.027582026421709187 -0.01120570432982637 -0.09128033017853254
0.03329437479655668 -0.01896433098216183 -0.09276633067255861
0.039006723171404176 -0.02672295763449729 -0.09425233116658469
0.044719071546251675 -0.03448158428683275 -0.09573833166061074
0.05043141992109917 -0.04224021093916821 -0.09722433215463681
0.05614376829594667 -0.04999883759150367 -0.09871033264866289
0.004732632922319208 0.01982880227951547 -0.08533632820242829
0.012694793839022464 0.014268567879561309 -0.0861867374617195
0.02065695475572572 0.008708333479607146 -0.08703714672101069
0.028619115672428974 0.003148099079652985 -0.0878875559803019
0.03658127658913223 -0.0024121353203011794 -0.08873796523959311
0.04454343750583549 -0.007972369720255343 -0.08958837449888431
0.05250559842253874 -0.0135326041202095 -0.09043878375817552
0.06046775933924201 -0.019092838520163666 -0.09128919301746673
0.06842992025594526 -0.02465307292011783 -0.09213960227675794
0.07639208117264851 -0.030213307320071995 -0.09299001153604913
0.004732632922319208 0.01982880227951547 -0.08533632820242829
0.014081782699897454 0.01706949780510367 -0.0854589911882812
0.0234309324774757 0.014310193330691872 -0.0855816541741341
0.03278008225505394 0.011550888856280073 -0.08570431715998701
0.04212923203263219 0.008791584381868273 -0.08582698014583992
0.051478381810210444 0.006032279907456474 -0.08594964313169284
0.06082753158778867 0.0032729754330446752 -0.08607230611754575
0.07017668136536692 0.0005136709586328768 -0.08619496910339866
0.07952583114294517 -0.0022456335157789256 -0.08631763208925157
0.08887498092052343 -0.005004937990190724 -0.08644029507510448
-0.004732632922319208 -0.01982880227951547 0.08533632820242829
0.004616516855259038 -0.022588106753927268 0.08521366521657538
0.013965666632837284 -0.025347411228339067 0.08509100223072247
0.023314816410415527 -0.028106715702750862 0.08496833924486956
0.032663966187993776 -0.03086602017716266 0.08484567625901664
0.04201311596557203 -0.03362532465157446 0.08472301327316373
0.05136226574315026 -0.03638462912598625 0.08460035028731082
0.06071141552072851 -0.03914393360039805 0.08447768730145791
0.07006056529830676 -0.04190323807480985 0.084355024315605
0.07940971507588501 -0.04466254254922165 0.08423236132975209
-0.004732632922319208 -0.01982880227951547 0.08533632820242829
0.004990380270727851 -0.01948816337356208 0.08595470392784316
0.014713393463774909 -0.01914752446760869 0.08657307965325804
0.02443640665682197 -0.0188068855616553 0.08719145537867291
0.034159419849869026 -0.01846624665570191 0.0878098311040878
0.043882433042916086 -0.01812560774974852 0.08842820682950267
0.053605446235963146 -0.01778496884379513 0.08904658255491756
0.06332845942901022 -0.017444329937841743 0.08966495828033243
0.07305147262205726 -0.01710369103188835 0.09028333400574731
0.08277448581510433 -0.01676305212593496 0.09090170973116218
-0.004732632922319208 -0.01982880227951547 0.08533632820242829
0.004310604338635848 -0.016425133504214158 0.08662873203417425
0.013353841599590903 -0.013021464728912847 0.08792113586592022
0.022397078860545955 -0.009617795953611537 0.0892135396976662
0.031440316121501014 -0.006214127178310224 0.09050594352941216
0.04048355338245607 -0.0028104584030089175 0.09179834736115813
0.04952679064341112 0.000593210372292397 0.0930907511929041
0.058570027904366176 0.003996879147593708 0.09438315502465007
0.06761326516532123 0.007400547922895023 0.09567555885639603
0.0766565024262763 0.010804216698196338 0.096967962688142
-0.004732632922319208 -0.01982880227951547 0.08533632820242829
0.0026508533290355604 -0.013730943960032735 0.08716270813162401
0.01003433958039033 -0.00763308564055 0.08898908806081975
0.017417825831745098 -0.0015352273210672612 0.09081546799001547
0.024801312083099866 0.004562630998415472 0.09264184791921119
0.03218479833445464 0.010660489317898215 0.09446822784840693
0.0395682845858094 0.01675834763738095 0.09629460777760265
0.046951770837164175 0.022856205956863693 0.09812098770679839
0.05433525708851894 0.028954064276346416 0.09994736763599411
0.061718743339873705 0.03505192259582916 0.10177374756518985
-0.004732632922319208 -0.01982880227951547 0.08533632820242829
0.00019098701750758636 -0.011697551982787923 0.08749876762454092
0.005114606957334381 -0.003566301686060374 0.08966120704665356
0.010038226897161174 0.004564948610667174 0.0918236464687662
0.01496184683698797 0.012696198907394722 0.09398608589087884
0.019885466776814766 0.020827449204122276 0.09614852531299148
0.024809086716641556 0.02895869950084982 0.09831096473510413
0.02973270665646835 0.03708994979757736 0.10047340415721676
0.034656326596295146 0.045221200094304914 0.10263584357932941
0.03957994653612194 0.053352450391032466 0.10479828300144205
-0.004732632922319208 -0.01982880227951547 0.08533632820242829
-0.0028024299123355287 -0.010545307144541573 0.08760049325236714
-0.0008722269023518492 -0.0012618120095676756 0.089864658302306
0.0010579761076318298 0.00802168312540622 0.09212882335224484
0.0029881791176155094 0.01730517826038012 0.0943929884021837
0.004918382127599189 0.026588673395354017 0.09665715345212256
0.006848585137582868 0.03587216853032791 0.09892131850206141
0.008778788147566548 0.04515566366530181 0.10118548355200027
0.010708991157550227 0.05443915880027571 0.10344964860193913
0.01263919416753391 0.06372265393524962 0.10571381365187799
-0.004732632922319208 -0.01982880227951547 0.08533632820242829
-0.006005014288495948 -0.010399073052438474 0.08745686146489194
-0.007277395654672688 -0.0009693438253614761 0.0895773947273556
-0.008549777020849428 0.008460385401715521 0.09169792798981925
-0.009822158387026169 0.01789011462879252 0.09381846125228291
-0.011094539753202907 0.027319843855869528 0.09593899451474656
-0.012366921119379646 0.03674957308294651 0.09805952777721022
-0.013639302485556386 0.04617930231002351 0.10018006103967386
-0.01491168385173313 0.055609031537100506 0.10230059430213752
-0.016184065217909865 0.0650387607641775 0.10442112756460117
-0.004732632922319208 -0.01982880227951547 0.08533632820242829
-0.009069716400600027 -0.01127469643941372 0.08708343699496507
-0.013406799878880847 -0.002720590599311968 0.08883054578750187
-0.017743883357161663 0.00583351524078978 0.09057765458003865
-0.022080966835442487 0.014387621080891535 0.09232476337257545
-0.02641805031372331 0.022941726920993295 0.09407187216511223
-0.03075513379200412 0.03149583276109503 0.09581898095764903
-0.03509221727028494 0.04004993860119679 0.09756608975018581
-0.039429300748565765 0.04860404444129854 0.0993131985427226
-0.04376638422684658 0.05715815028140028 0.10106030733525939
-0.004732632922319208 -0.01982880227951547 0.08533632820242829
-0.011664428221048387 -0.013077289924791813 0.08652068617818078
-0.018596223519777567 -0.006325777570068155 0.08770504415393326
-0.02552801881850674 0.0004257347846555028 0.08888940212968575
-0.032459814117235926 0.0071772471393791604 0.09007376010543824
-0.039391609415965104 0.013928759494102822 0.09125811808119073
-0.046323404714694275 0.020680271848826478 0.09244247605694322
-0.053255200013423466 0.02743178420355014 0.09362683403269571
-0.06018699531215264 0.03418329655827379 0.0948111920084482
-0.06711879061088183 0.040934808912997445 0.09599554998420069
-0.004732632922319208 -0.01982880227951547 0.08533632820242829
-0.013507972462993305 -0.015611514534312247 0.08582959179751623
-0.022283312003667403 -0.011394226789109023 0.08632285539260418
-0.0310586515443415 -0.007176939043905801 0.08681611898769212
-0.0398339910850156 -0.002959651298702575 0.08730938258278007
-0.04860933062568971 0.0012576364465006504 0.08780264617786801
-0.05738467016636379 0.005474924191703869 0.08829590977295595
-0.0661600097070379 0.009692211936907094 0.0887891733680439
-0.07493534924771199 0.01390949968211032 0.08928243696313184
-0.0837106887883861 0.018126787427313548 0.08977570055821979
-0.004732632922319208 -0.01982880227951547 0.08533632820242829
-0.014400572502283809 -0.018602747708987125 0.08508504465255064
-0.02406851208224841 -0.017376693138458778 0.08483376110267297
-0.033736451662213014 -0.01615063856793043 0.08458247755279533
-0.04340439124217761 -0.014924583997402086 0.08433119400291768
-0.05307233082214222 -0.01369852942687374 0.08407991045304002
-0.06274027040210682 -0.012472474856345391 0.08382862690316237
-0.07240820998207141 -0.011246420285817049 0.08357734335328472
-0.08207614956203602 -0.010020365715288701 0.08332605980340707
-0.09174408914200062 -0.008794311144760356 0.08307477625352941
-0.004732632922319208 -0.01982880227951547 0.08533632820242829
-0.014245501274546131 -0.021726842920575543 0.08436772797928029
-0.023758369626773055 -0.023624883561635612 0.0833991277561323
-0.03327123797899998 -0.025522924202695682 0.0824305275329843
-0.0427841063312269 -0.027420964843755755 0.0814619273098363
-0.05229697468345384 -0.029319005484815825 0.08049332708668831
-0.06180984303568075 -0.031217046125875895 0.07952472686354031
-0.07132271138790768 -0.03311508676693597 0.07855612664039231
-0.0808355797401346 -0.03501312740799604 0.07758752641724433
-0.09034844809236155 -0.036911168049056114 0.07661892619409633
-0.004732632922319208 -0.01982880227951547 0.08533632820242829
-0.013059563153483672 -0.024645255977570092 0.08375537416956902
-0.021386493384648136 -0.029461709675624715 0.08217442013670977
-0.029713423615812598 -0.03427816337367934 0.08059346610385051
-0.038040353846977064 -0.039094617071733964 0.07901251207099125
-0.04636728407814153 -0.04391107076978859 0.077431558038132
-0.05469421430930599 -0.04872752446784321 0.07585060400527273
-0.06302114454047046 -0.053543978165897836 0.07426964997241348
-0.07134807477163492 -0.058360431863952456 0.07268869593955422
-0.07967500500279939 -0.06317688556200707 0.07110774190669496
-0.004732632922319208 -0.01982880227951547 0.08533632820242829
-0.010971272936239486 -0.027041731541401094 0.0833143412603474
-0.017209912950159764 -0.03425466080328672 0.08129235431826652
-0.023448552964080042 -0.041467590065172345 0.07927036737618563
-0.02968719297800032 -0.04868051932705797 0.07724838043410476
-0.035925832991920606 -0.0558934485889436 0.07522639349202387
-0.04216447300584088 -0.06310637785082922 0.073204406549943
-0.04840311301976116 -0.07031930711271485 0.0711824196078621
-0.054641753033681434 -0.07753223637460047 0.06916043266578122
-0.06088039304760172 -0.0847451656364861 0.06713844572370034
-0.004732632922319208 -0.01982880227951547 0.08533632820242829
-0.008206929271013316 -0.02865657429957776 0.08309242201066026
-0.011681225619707426 -0.037484346319640045 0.08084851581889224
-0.015155521968401532 -0.046312118339702335 0.0786046096271242
-0.018629818317095644 -0.055139890359764625 0.07636070343535618
-0.02210411466578975 -0.06396766237982691 0.07411679724358816
-0.025578411014483857 -0.0727954343998892 0.07187289105182014
-0.02905270736317797 -0.0816232064199515 0.0696289848600521
-0.03252700371187208 -0.09045097844001378 0.0673850786682841
-0.03600130006056619 -0.09927875046007607 0.06514117247651606
-0.004732632922319208 -0.01982880227951547 0.08533632820242829
-0.005066091687143826 -0.029314790982384552 0.08311366481464315
-0.005399550451968444 -0.03880077968525364 0.08089100142685801
-0.0057330092167930625 -0.04828676838812272 0.07866833803907287
-0.00606646798161768 -0.057772757090991805 0.07644567465128775
-0.006399926746442297 -0.06725874579386087 0.07422301126350261
-0.006733385511266917 -0.07674473449672997 0.07200034787571748
-0.007066844276091534 -0.08623072319959904 0.06977768448793235
-0.007400303040916153 -0.09571671190246814 0.06755502110014722
-0.007733761805740768 -0.10520270060533722 0.06533235771236208
-0.004732632922319208 -0.01982880227951547 0.08533632820242829
-0.0018891186719597406 -0.028945053598955217 0.08337576768486846
0.0009543955783997265 -0.03806130491839496 0.08141520716730864
0.0037979098287591914 -0.047177556237834706 0.07945464664974881
0.006641424079118661 -0.05629380755727446 0.07749408613218899
0.009484938329478127 -0.06541005887671421 0.07553352561462917
0.012328452579837591 -0.07452631019615394 0.07357296509706934
0.015171966830197055 -0.08364256151559368 0.07161240457950953
0.01801548108055653 -0.09275881283503344 0.0696518440619497
0.020858995330915998 -0.10187506415447317 0.06769128354438989
-0.004732632922319208 -0.01982880227951547 0.08533632820242829
0.0009797154525282871 -0.02758742893185093 0.08385032770840221
0.006692063827375782 -0.03534605558418639 0.08236432721437616
0.012404412202223276 -0.04310468223652185 0.08087832672035009
0.018116760577070772 -0.05086330888885731 0.07939232622632401
0.023829108951918268 -0.05862193554119277 0.07790632573229796
0.02954145732676576 -0.06638056219352823 0.07642032523827189
0.03525380570161326 -0.0741391888458637 0.07493432474424581
0.04096615407646075 -0.08189781549819915 0.07344832425021976
0.04667850245130825 -0.08965644215053462 0.07196232375619369
-0.004732632922319208 -0.01982880227951547 0.08533632820242829
0.003229527994384048 -0.025389036679469634 0.08448591894313708
0.011191688911087305 -0.030949271079423794 0.08363550968384587
0.01915384982779056 -0.03650950547937796 0.08278510042455467
0.027116010744493817 -0.04206973987933212 0.08193469116526346
0.035078171661197075 -0.04762997427928629 0.08108428190597225
0.043040332577900325 -0.053190208679240444 0.08023387264668104
0.0510024934946036 -0.05875044307919461 0.07938346338738984
0.05896465441130684 -0.06431067747914877 0.07853305412809863
0.06692681532801009 -0.06987091187910294 0.07768264486880742
-0.004732632922319208 -0.01982880227951547 0.08533632820242829
0.004616516855259038 -0.02258810675392727 0.08521366521657538
0.013965666632837284 -0.02534741122833907 0.08509100223072247
0.023314816410415523 -0.02810671570275087 0.08496833924486955
0.032663966187993776 -0.030866020177162667 0.08484567625901664
0.04201311596557203 -0.033625324651574466 0.08472301327316373
0.051362265743150254 -0.036384629125986265 0.08460035028731082
0.06071141552072851 -0.03914393360039806 0.08447768730145791
0.07006056529830676 -0.04190323807480987 0.084355024315605
0.07940971507588501 -0.04466254254922167 0.08423236132975209
