# .PCD v0.7 - Point Cloud Data file format
VERSION 0.7
FIELDS x y z
SIZE 4 4 4
TYPE F F F
COUNT 1 1 1
WIDTH 700
HEIGHT 1
VIEWPOINT 0 0 0 1 0 0 0
POINTS 700
DATA ascii
0.09705986602831235 0.06212553431879712 -0.07629192552533323
0.09442678610722248 0.07858935787239464 -0.06330839125154349
0.08734800764169068 0.09420495367147695 -0.05095497790182033
0.07615452644526799 0.10824215381196717 -0.039809317354564035
0.06136973725803834 0.12004459441652335 -0.030392568309452306
0.04368496039028362 0.12906040647994707 -0.02314504748586972
0.023927116353122262 0.134868020650508 -0.018405640902486135
0.0030200599744655164 0.13719587934429026 -0.01639595794366852
-0.018058618025944898 0.13593513447600178 -0.017209969150968958
-0.038323302092077724 0.13114473707446636 -0.02080961226504259
-0.056826438119579235 0.12304868079803553 -0.027026571974591282
-0.07270284003256217 0.11202552824007493 -0.03557015015325099
-0.08521014492292879 0.09859070976284062 -0.046040858580892734
-0.09376352511487651 0.08337242254659985 -0.05794909856879654
-0.09796303405702916 0.06708225678767264 -0.07073805405018617
-0.09761230737867066 0.0504819225317275 -0.08380972768065502
-0.09272774466947631 0.03434763295862609 -0.09655290252936408
-0.08353774265292652 0.019433809516831716 -0.10837172190340934
-0.07047201560936153 0.006437806014958451 -0.11871355094453473
-0.05414150241382584 -0.00403269886726657 -0.1270948172208946
-0.03530979971328084 -0.011488115958680897 -0.13312362203651487
-0.014857456996069766 -0.015579838242190924 -0.13651806517875237
0.006259196923496881 -0.016116541331442375 -0.13711942625892865
0.02705277077761533 -0.013073129586484563 -0.13489958630129953
0.046550980163264456 -0.006591909558002447 -0.12996234255510883
0.06384211048027455 0.0030240641088308076 -0.1225385550505761
0.0781176476927333 0.015325159172741196 -0.11297535184046614
0.0887100835467061 0.029736190100225445 -0.10171989767814676
0.09512412751430822 0.04558331310182495 -0.08929848509070909
0.09705986602831235 0.0621255343187971 -0.07629192552533325
0.09720437556472467 0.04869244593402091 -0.05922873630167171
0.0945712956436348 0.06515626948761843 -0.04624520202788197
0.087492517178103 0.08077186528670074 -0.03389178867815882
0.07629903598168031 0.09480906542719096 -0.02274612813090252
0.06151424679445066 0.10661150603174714 -0.013329379085790788
0.04382946992669594 0.11562731809517086 -0.006081858262208204
0.024071625889534584 0.12143493226573181 -0.0013424516788246182
0.003164569510877838 0.12376279095951406 0.0006672312799929962
-0.017914108489532576 0.12250204609122557 -0.00014677992730744092
-0.038178792555665406 0.11771164868969017 -0.003746423041381073
-0.05668192858316692 0.10961559241325933 -0.009963382750929764
-0.07255833049614985 0.09859243985529872 -0.018506960929589474
-0.08506563538651647 0.08515762137806442 -0.028977669357231218
-0.0936190155784642 0.06993933416182364 -0.04088590934513503
-0.09781852452061685 0.053649168402896436 -0.05367486482652466
-0.09746779784225834 0.037048834146951294 -0.06674653845699349
-0.09258323513306399 0.020914544573849884 -0.07948971330570256
-0.0833932331165142 0.006000721132055506 -0.09130853267974783
-0.07032750607294921 -0.006995282369817758 -0.10165036172087322
-0.053996992877413524 -0.01746578725204278 -0.1100316279972331
-0.03516529017686852 -0.024921204343457105 -0.11606043281285336
-0.014712947459657445 -0.029012926626967132 -0.11945487595509084
0.006403706459909202 -0.029549629716218585 -0.12005623703526713
0.027197280314027652 -0.026506217971260772 -0.117836397077638
0.046695489699676775 -0.020024997942778656 -0.1128991533314473
0.06398662001668687 -0.010409024275945401 -0.1054753658269146
0.07826215722914562 0.0018920707879649876 -0.09591216261680463
0.08885459308311842 0.016303101715449235 -0.08465670845448524
0.09526863705072054 0.032150224717048745 -0.07223529586704758
0.09720437556472467 0.04869244593402089 -0.059228736301671726
0.09734888510113698 0.03525935754924472 -0.04216554707801021
0.09471580518004712 0.051723181102842235 -0.029182012804220465
0.08763702671451531 0.06733877690192454 -0.016828599454497318
0.07644354551809263 0.08137597704241475 -0.005682938907241017
0.061658756330862985 0.09317841764697093 0.003733810137870712
0.04397397946310826 0.10219422971039466 0.010981330961453296
0.024216135425946906 0.1080018438809556 0.015720737544836882
0.0033090790472901596 0.11032970257473786 0.017730420503654497
-0.017769598953120254 0.10906895770644937 0.01691640929635406
-0.03803428301925308 0.10427856030491396 0.013316766182280428
-0.05653741904675459 0.09618250402848312 0.007099806472731736
-0.07241382095973753 0.08515935147052252 -0.0014437717059279725
-0.08492112585010415 0.07172453299328822 -0.011914480133569716
-0.09347450604205187 0.05650624577704745 -0.023822720121473528
-0.09767401498420453 0.040216080018120236 -0.03661167560286316
-0.09732328830584602 0.023615745762175098 -0.049683349233331994
-0.09243872559665167 0.007481456189073688 -0.062426524082041066
-0.08324872358010188 -0.00743236725272069 -0.07424534345608633
-0.0701829965365369 -0.020428370754593955 -0.08458717249721172
-0.0538524833410012 -0.030898875636818975 -0.0929684387735716
-0.035020780640456196 -0.0383542927282333 -0.09899724358919186
-0.014568437923245125 -0.042446015011743325 -0.10239168673142934
0.006548215996321524 -0.04298271810099478 -0.10299304781160563
0.027341789850439974 -0.039939306356036965 -0.1007732078539765
0.0468399992360891 -0.03345808632755485 -0.0958359641077858
0.06413112955309919 -0.023842112660721598 -0.0884121766032531
0.07840666676555794 -0.011541017596811209 -0.07884897339314313
0.08899910261953074 0.002870013330673039 -0.06759351923082374
0.09541314658713286 0.01871713633227255 -0.05517210664338608
0.09734888510113698 0.035259357549244696 -0.04216554707801022
0.09749339463754932 0.02182626916446851 -0.025102357854348698
0.09486031471645945 0.03829009271806603 -0.012118823580558952
0.08778153625092765 0.05390568851714834 0.0002345897691641933
0.07658805505450496 0.06794288865763855 0.011380250316420494
0.0618032658672753 0.07974532926219473 0.020796999361532224
0.04411848899952058 0.08876114132561845 0.02804452018511481
0.024360644962359228 0.0945687554961794 0.032783926768498395
0.003453588583702481 0.09689661418996165 0.03479360972731601
-0.017625089416707932 0.09563586932167316 0.03397959852001557
-0.03788977348284076 0.09084547192013775 0.03037995540594194
-0.05639290951034227 0.08274941564370691 0.024162995696393248
-0.0722693114233252 0.07172626308574631 0.015619417517733538
-0.08477661631369182 0.058291444608512016 0.005148709090091796
-0.09332999650563954 0.043073157392271244 -0.006759530897812016
-0.0975295054477922 0.026782991633344033 -0.019548486379201646
-0.09717877876943369 0.010182657377398893 -0.03262016000967048
-0.09229421606023934 -0.005951632195702516 -0.04536333485837955
-0.08310421404368955 -0.020865455637496894 -0.057182154232424814
-0.07003848700012456 -0.03386145913937016 -0.0675239832735502
-0.05370797380458888 -0.04433196402159518 -0.07590524954991008
-0.03487627110404388 -0.051787381113009505 -0.08193405436553035
-0.014423928386832803 -0.05587910339651953 -0.08532849750776783
0.006692725532733845 -0.056415806485770985 -0.08592985858794412
0.027486299386852295 -0.05337239474081317 -0.08371001863031499
0.04698450877250142 -0.046891174712331056 -0.07877277488412429
0.06427563908951152 -0.0372752010454978 -0.07134898737959158
0.07855117630197027 -0.024974105981587412 -0.06178578416948162
0.08914361215594307 -0.010563075054103166 -0.050530330007162234
0.09555765612354519 0.0052840479474963445 -0.03810891741972457
0.09749339463754932 0.02182626916446849 -0.025102357854348712
0.09763790417396163 0.008393180779692304 -0.008039168630687184
0.09500482425287177 0.02485700433328982 0.004944365643102561
0.08792604578733997 0.04047260013237213 0.017297778992825707
0.07673256459091728 0.05450980027286235 0.028443439540082008
0.06194777540368763 0.06631224087741854 0.03786018858519374
0.04426299853593291 0.07532805294084226 0.04510770940877632
0.02450515449877155 0.0811356671114032 0.04984711599215991
0.0035980981201148023 0.08346352580518546 0.05185679895097752
-0.01748057988029561 0.08220278093689697 0.051042787743677084
-0.03774526394642844 0.07741238353536156 0.04744314462960345
-0.05624839997392995 0.06931632725893072 0.04122618492005476
-0.07212480188691288 0.05829317470097011 0.03268260674139505
-0.0846321067772795 0.04485835622373581 0.02221189831375331
-0.09318548696922722 0.02964006900749504 0.010303658325849497
-0.09738499591137988 0.013349903248567828 -0.002485297155540132
-0.09703426923302137 -0.003250431007377312 -0.015556970786008971
-0.09214970652382702 -0.019384720580478722 -0.02830014563471804
-0.08295970450727723 -0.0342985440222731 -0.0401189650087633
-0.06989397746371225 -0.047294547524146364 -0.05046079404988869
-0.053563464268176555 -0.057765052406371385 -0.05884206032624857
-0.03473176156763155 -0.0652204694977857 -0.06487086514186884
-0.014279418850420481 -0.06931219178129573 -0.06826530828410632
0.006837235069146167 -0.06984889487054718 -0.06886666936428261
0.027630808923264617 -0.06680548312558937 -0.06664682940665348
0.047129018308913743 -0.06032426309710726 -0.06170958566046278
0.06442014862592384 -0.05070828943027401 -0.054285798155930064
0.07869568583838259 -0.03840719436636362 -0.04472259494582011
0.0892881216923554 -0.02399616343887937 -0.03346714078350072
0.09570216565995751 -0.008149040437279861 -0.02104572819606305
0.09763790417396163 0.008393180779692285 -0.0080391686306872
0.09778241371037395 -0.005039907605083903 0.00902402059297433
0.09514933378928409 0.011423915948513615 0.022007554866764076
0.08807055532375228 0.027039511747595925 0.03436096821648722
0.0768770741273296 0.04107671188808614 0.04550662876374352
0.06209228494009995 0.05287915249264232 0.05492337780885525
0.044407508072345225 0.061894964556066044 0.062170898632437833
0.024649664035183868 0.06770257872662698 0.06691030521582142
0.003742607656527124 0.07003043742040924 0.06891998817463904
-0.017336070343883292 0.06876969255212075 0.0681059769673386
-0.03760075441001612 0.06397929515058534 0.06450633385326497
-0.05610389043751763 0.05588323887415451 0.05828937414371627
-0.07198029235050056 0.044860086316193905 0.049745795965056565
-0.08448759724086718 0.0314252678389596 0.03927508753741482
-0.0930409774328149 0.016206980622718834 0.02736684754951101
-0.09724048637496756 -8.318513620837917e-05 0.014577892068121382
-0.09688975969660905 -0.01668351939215352 0.0015062184376525428
-0.0920051969874147 -0.03281780896525493 -0.011236956411056528
-0.08281519497086491 -0.04773163240704931 -0.02305577578510179
-0.06974946792729993 -0.06072763590892257 -0.033397604826227174
-0.05341895473176424 -0.0711981407911476 -0.04177887110258706
-0.034587252031219234 -0.07865355788256193 -0.04780767591820732
-0.014134909314008159 -0.08274528016607195 -0.051202119060444806
0.006981744605558489 -0.0832819832553234 -0.05180348014062109
0.027775318459676936 -0.08023857151036559 -0.04958364018299197
0.04727352784532606 -0.07375735148188348 -0.04464639643680127
0.06456465816233616 -0.06414137781505022 -0.03722260893226855
0.0788401953747949 -0.051840282751139825 -0.027659405722158595
0.08943263122876771 -0.03742925182365558 -0.016403951559839206
0.09584667519636983 -0.021582128822056068 -0.003982538972401538
0.09778241371037395 -0.005039907605083922 0.009024020592974314
0.09792692324678627 -0.0184729959898601 0.026087209816635832
0.0952938433256964 -0.0020091724362625825 0.039070744090425574
0.0882150648601646 0.013606423362819729 0.05142415744014872
0.07702158366374191 0.027643623503309945 0.06256981798740502
0.06223679447651227 0.03944606410786612 0.07198656703251675
0.04455201760875755 0.048461876171289844 0.07923408785609934
0.02479417357159619 0.05426949034185079 0.08397349443948292
0.0038871171929394455 0.05659734903563304 0.08598317739830054
-0.01719156080747097 0.05533660416734455 0.0851691661910001
-0.03745624487360379 0.05054620676580915 0.08156952307692647
-0.055959380901105304 0.04245015048937831 0.07535256336737778
-0.07183578281408824 0.031426997931417705 0.06680898518871807
-0.08434308770445487 0.017992179454183407 0.05633827676107633
-0.09289646789640259 0.002773892237942637 0.04443003677317251
-0.09709597683855524 -0.013516273520984575 0.031641081291782884
-0.09674525016019674 -0.030116607776929715 0.018569407661314045
-0.09186068745100238 -0.04625089735003113 0.005826232812604974
-0.08267068543445259 -0.06116472079182551 -0.005992586561440287
-0.06960495839088761 -0.07416072429369877 -0.016334415602565672
-0.05327444519535191 -0.08463122917592379 -0.024715681878925557
-0.03444274249480691 -0.09208664626733812 -0.030744486694545815
-0.013990399777595837 -0.09617836855084815 -0.0341389298367833
0.0071262541419708095 -0.0967150716400996 -0.034740290916959585
0.027919827996089257 -0.09367165989514178 -0.03252045095933046
0.04741803738173839 -0.08719043986665967 -0.027583207213139765
0.06470916769874847 -0.07757446619982641 -0.02015941970860705
0.07898470491120722 -0.06527337113591603 -0.010596216498497093
0.08957714076518003 -0.05086234020843178 0.0006592376638222964
0.09599118473278215 -0.03501521720683227 0.013080650251259963
0.09792692324678627 -0.01847299598986012 0.026087209816635818
0.0980714327831986 -0.03190608437463631 0.04315039904029735
0.09543835286210874 -0.015442260821038792 0.056133933314087094
0.08835957439657693 0.00017333497804351887 0.06848734666381023
0.07716609320015425 0.014210535118533735 0.07963300721106654
0.06238130401292459 0.026012975723089915 0.08904975625617827
0.04469652714516987 0.03502878778651364 0.09629727707976085
0.02493868310800851 0.04083640195707458 0.10103668366314444
0.004031626729351767 0.04316426065085684 0.10304636662196205
-0.01704705127105865 0.041903515782568346 0.10223235541466162
-0.037311735337191475 0.03711311838103294 0.09863271230058798
-0.055814871364692986 0.0290170621046021 0.09241575259103929
-0.07169127327767591 0.0179939095466415 0.08387217441237958
-0.08419857816804253 0.004559091069407197 0.07340146598473785
-0.09275195835999026 -0.010659196146833572 0.06149322599683403
-0.09695146730214291 -0.026949361905760784 0.0487042705154444
-0.0966007406237844 -0.043549696161705925 0.03563259688497556
-0.09171617791459005 -0.059683985734807335 0.02288942203626649
-0.08252617589804026 -0.0745978091766017 0.01107060266222123
-0.06946044885447528 -0.08759381267847498 0.000728773621095845
-0.053129935658939594 -0.0980643175607 -0.0076524926552640395
-0.03429823295839459 -0.10551973465211432 -0.013681297470884297
-0.013845890241183515 -0.10961145693562435 -0.01707574061312179
0.007270763678383131 -0.1101481600248758 -0.017677101693298072
0.02806433753250158 -0.10710474827991799 -0.015457261735668948
0.047562546918150705 -0.10062352825143588 -0.010520017989478247
0.0648536772351608 -0.09100755458460262 -0.003096230484945532
0.07912921444761956 -0.07870645952069223 0.006466972725164425
0.08972165030159236 -0.06429542859320798 0.01772242688748381
0.09613569426919448 -0.048448305591608475 0.03014383947492148
0.0980714327831986 -0.03190608437463633 0.043150399040297334
0.09821594231961092 -0.04533917275941251 0.06021358826395885
0.09558286239852105 -0.02887534920581499 0.0731971225377486
0.08850408393298925 -0.013259753406732681 0.08555053588747175
0.07731060273656656 0.000777446733757535 0.09669619643472804
0.06252581354933691 0.012579887338313715 0.10611294547983978
0.044841036681582194 0.021595699401737438 0.11336046630342236
0.025083192644420833 0.02740331357229838 0.11809987288680594
0.004176136265764088 0.029731172266080637 0.12010955584562356
-0.016902541734646327 0.028470427397792146 0.11929554463832312
-0.03716722580077915 0.023680029996256742 0.1156959015242495
-0.05567036182828066 0.015583973719825901 0.1094789418147008
-0.07154676374126359 0.004560821161865299 0.1009353636360411
-0.08405406863163022 -0.008873997315369003 0.09046465520839934
-0.09260744882357794 -0.024092284531609772 0.07855641522049553
-0.09680695776573059 -0.040382450290536984 0.0657674597391059
-0.09645623108737209 -0.056982784546482125 0.052695786108637066
-0.09157166837817773 -0.07311707411958354 0.039952611259927995
-0.08238166636162794 -0.08803089756137791 0.028133791885882737
-0.06931593931806296 -0.10102690106325118 0.017791962844757352
-0.05298542612252727 -0.1114974059454762 0.009410696568397466
-0.034153723421982266 -0.11895282303689053 0.0033818917527772088
-0.013701380704771195 -0.12304454532040056 -1.255138946028092e-05
0.007415273214795453 -0.12358124840965201 -0.0006139124696365649
0.0282088470689139 -0.1205378366646942 0.0016059274879925583
0.04770705645456303 -0.11405661663621208 0.006543171234183258
0.06499818677157312 -0.10444064296937883 0.013966958738715974
0.07927372398403187 -0.09213954790546844 0.023530161948825932
0.08986615983800468 -0.07772851697798419 0.03478561611114532
0.0962802038056068 -0.061881393976384674 0.04720702869858299
0.09821594231961092 -0.04533917275941253 0.06021358826395884
0.09836045185602324 -0.058772261144188716 0.07727677748762037
0.09572737193493337 -0.0423084375905912 0.09026031176141011
0.08864859346940157 -0.02669284179150889 0.10261372511113326
0.07745511227297888 -0.012655641651018673 0.11375938565838956
0.06267032308574924 -0.0008532010464624936 0.12317613470350129
0.04498554621799451 0.00816261101696123 0.13042365552708388
0.025227702180833155 0.013970225187522172 0.13516306211046747
0.00432064580217641 0.016298083881304427 0.13717274506928506
-0.016758032198234005 0.015037339013015938 0.13635873386198463
-0.03702271626436683 0.010246941611480534 0.132759090747911
-0.05552585229186834 0.0021508853350496924 0.12654213103836232
-0.07140225420485127 -0.00887226722291091 0.11799855285970261
-0.0839095590952179 -0.022307085700145213 0.10752784443206086
-0.09246293928716562 -0.03752537291638598 0.09561960444415706
-0.09666244822931827 -0.0538155386753132 0.08283064896276743
-0.09631172155095977 -0.07041587293125834 0.06975897533229858
-0.09142715884176542 -0.08655016250435975 0.057015800483589514
-0.08223715682521562 -0.10146398594615412 0.04519698110954425
-0.06917142978165064 -0.11445998944802739 0.03485515206841887
-0.05284091658611495 -0.12493049433025241 0.026473885792058983
-0.03400921388556995 -0.13238591142166672 0.020445080976438726
-0.013556871168358874 -0.13647763370517677 0.017050637834201236
0.007559782751207774 -0.1370143367944282 0.016449276754024952
0.028353356605326223 -0.1339709250494704 0.018669116711654075
0.04785156599097535 -0.12748970502098828 0.023606360457844776
0.06514269630798544 -0.11787373135415503 0.03103014796237749
0.07941823352044419 -0.10557263629024465 0.04059335117248745
0.090010669374417 -0.0911616053627604 0.05184880533480683
0.09642471334201912 -0.07531448236116088 0.06427021792224451
0.09836045185602324 -0.05877226114418874 0.07727677748762035
-0.0006502929138554467 0.060448897731492916 -0.07678435150647679
0.010206391413052086 0.06063519068563783 -0.07672963750857195
0.02106307573995962 0.06082148363978274 -0.07667492351066711
0.03191976006686715 0.06100777659392765 -0.07662020951276227
0.04277644439377468 0.06119406954807256 -0.07656549551485743
0.05363312872068222 0.06138036250221748 -0.07651078151695259
0.06448981304758974 0.06156665545636238 -0.07645606751904775
0.07534649737449726 0.0617529484105073 -0.07640135352114291
0.08620318170140481 0.06193924136465221 -0.07634663952323807
0.09705986602831235 0.06212553431879712 -0.07629192552533323
-0.0006502929138554467 0.060448897731492916 -0.07678435150647679
0.009559630155250598 0.06339473994065237 -0.0745516898970695
0.019769553224356643 0.06634058214981182 -0.07231902828766221
0.02997947629346268 0.06928642435897128 -0.07008636667825491
0.04018939936256873 0.07223226656813074 -0.06785370506884761
0.05039932243167477 0.0751781087772902 -0.06562104345944031
0.060609245500780805 0.07812395098644966 -0.06338838185003301
0.07081916856988688 0.0810697931956091 -0.06115572024062571
0.08102909163899291 0.08401563540476856 -0.05892305863121841
0.09123901470809895 0.08696147761392801 -0.05669039702181111
-0.0006502929138554467 0.060448897731492916 -0.07678435150647679
0.0078064653096321344 0.06583506148285301 -0.07261568581426062
0.016263223533119715 0.07122122523421309 -0.06844702012204444
0.024719981756607296 0.07660738898557319 -0.06427835442982825
0.03317673998009488 0.08199355273693328 -0.06010968873761208
0.04163349820358247 0.08737971648829336 -0.0559410230453959
0.05009025642707004 0.09276588023965346 -0.05177235735317972
0.05854701465055762 0.09815204399101354 -0.04760369166096354
0.0670037728740452 0.10353820774237363 -0.04343502596874736
0.07546053109753278 0.10892437149373373 -0.03926636027653118
-0.0006502929138554467 0.060448897731492916 -0.07678435150647679
0.005136879490374879 0.06769170860765215 -0.07113142134271615
0.010924051894605205 0.07493451948381137 -0.0654784911789555
0.01671122429883553 0.0821773303599706 -0.059825561015194845
0.022498396703065856 0.08942014123612983 -0.0541726308514342
0.028285569107296186 0.09666295211228908 -0.04851970068767355
0.034072741511526505 0.1039057629884483 -0.0428667705239129
0.03985991391575683 0.11114857386460754 -0.037213840360152246
0.04564708631998716 0.11839138474076676 -0.0315609101963916
0.05143425872421748 0.125634195616926 -0.025907980032630944
-0.0006502929138554467 0.060448897731492916 -0.07678435150647679
0.001840163743887283 0.0687634847902294 -0.07025973956866415
0.004330620401630013 0.07707807184896585 -0.0637351276308515
0.006821077059372743 0.08539265890770233 -0.057210515693038845
0.009311533717115473 0.0937072459664388 -0.05068590375522619
0.011801990374858205 0.10202183302517527 -0.044161291817413545
0.014292447032600932 0.11033642008391174 -0.0376366798796009
0.016782903690343666 0.11865100714264822 -0.031112067941788252
0.019273360348086393 0.12696559420138467 -0.02458745600397559
0.021763817005829123 0.13528018126012115 -0.018062844066162945
-0.0006502929138554467 0.060448897731492916 -0.07678435150647679
-0.0017264316248833506 0.06893424645088153 -0.07009510073785946
-0.0028025703359112544 0.07741959517027015 -0.06340584996924212
-0.003878709046939158 0.08590494388965876 -0.05671659920062478
-0.004954847757967062 0.09439029260904738 -0.05002734843200745
-0.006030986468994966 0.10287564132843599 -0.043338097663390106
-0.007107125180022869 0.1113609900478246 -0.03664884689477277
-0.008183263891050773 0.11984633876721322 -0.02995959612615543
-0.009259402602078677 0.12833168748660184 -0.0232703453575381
-0.01033554131310658 0.13681703620599045 -0.016581094588920764
-0.0006502929138554467 0.060448897731492916 -0.07678435150647679
-0.005176410666301551 0.06818548891403675 -0.07065534602225444
-0.009702528418747655 0.07592208009658058 -0.06452634053803209
-0.01422864617119376 0.08365867127912442 -0.05839733505380974
-0.018754763923639863 0.09139526246166825 -0.052268329569587386
-0.02328088167608597 0.09913185364421208 -0.04613932408536504
-0.027806999428532073 0.10686844482675592 -0.04001031860114269
-0.03233311718097818 0.11460503600929975 -0.03388131311692034
-0.03685923493342428 0.12234162719184359 -0.02775230763269798
-0.04138535268587039 0.1300782183743874 -0.02162330214847563
-0.0006502929138554467 0.060448897731492916 -0.07678435150647679
-0.008135914619289246 0.06659835167698243 -0.07187976415218364
-0.015621536324723044 0.07274780562247193 -0.06697517679789047
-0.02310715803015684 0.07889725956796144 -0.06207058944359732
-0.03059277973559064 0.08504671351345094 -0.05716600208930416
-0.038078401441024444 0.09119616745894045 -0.052261414735011
-0.04556402314645824 0.09734562140442996 -0.04735682738071785
-0.05304964485189204 0.10349507534991946 -0.0424522400264247
-0.060535266557325836 0.10964452929540897 -0.037547652672131525
-0.06802088826275964 0.11579398324089846 -0.03264306531783838
-0.0006502929138554467 0.060448897731492916 -0.07678435150647679
-0.010284235309104937 0.06434482568632502 -0.07363567042446441
-0.019918177704354428 0.06824075364115713 -0.07048698934245202
-0.029552120099603917 0.07213668159598922 -0.06733830826043964
-0.03918606249485341 0.07603260955082133 -0.06418962717842726
-0.048820004890102894 0.07992853750565344 -0.061040946096414875
-0.05845394728535239 0.08382446546048554 -0.0578922650144025
-0.06808788968060189 0.08772039341531765 -0.054743583932390115
-0.07772183207585137 0.09161632137014974 -0.05159490285037773
-0.08735577447110086 0.09551224932498185 -0.04844622176836535
-0.0006502929138554467 0.060448897731492916 -0.07678435150647679
-0.011388568854377005 0.0616691154502108 -0.0757327851488021
-0.022126844794898563 0.0628893331689287 -0.07468121879112742
-0.03286512073542011 0.06410955088764658 -0.07362965243345274
-0.04360339667594168 0.06532976860636447 -0.07257808607577805
-0.05434167261646323 0.06654998632508236 -0.07152651971810337
-0.06507994855698478 0.06777020404380024 -0.07047495336042868
-0.07581822449750635 0.06899042176251813 -0.06942338700275398
-0.08655650043802791 0.07021063948123601 -0.0683718206450793
-0.09729477637854946 0.07143085719995389 -0.06732025428740461
-0.0006502929138554467 0.060448897731492916 -0.07678435150647679
-0.011329243579974732 0.0588611756906448 -0.07794385340472706
-0.02200819424609402 0.05727345364979668 -0.07910335530297734
-0.0326871449122133 0.05568573160894856 -0.08026285720122761
-0.04336609557833259 0.05409800956810044 -0.08142235909947788
-0.054045046244451875 0.052510287527252314 -0.08258186099772816
-0.06472399691057115 0.0509225654864042 -0.08374136289597843
-0.07540294757669043 0.049334843445556074 -0.0849008647942287
-0.08608189824280973 0.04774712140470796 -0.08606036669247898
-0.09676084890892901 0.046159399363859835 -0.08721986859072925
-0.0006502929138554467 0.060448897731492916 -0.07678435150647679
-0.010112688299906082 0.05622529025025049 -0.08002927163845093
-0.01957508368595672 0.05200168276900806 -0.08327419177042507
-0.02903747907200736 0.04777807528776563 -0.08651911190239919
-0.03849987445805799 0.0435544678065232 -0.08976403203437333
-0.047962269844108625 0.03933086032528077 -0.09300895216634746
-0.05742466523015927 0.03510725284403834 -0.0962538722983216
-0.06688706061620991 0.030883645362795913 -0.09949879243029572
-0.07634945600226054 0.026660037881553484 -0.10274371256226986
-0.08581185138831118 0.02243643040031106 -0.10598863269424398
-0.0006502929138554467 0.060448897731492916 -0.07678435150647679
-0.007870735655566617 0.05404709821647128 -0.08176305242575178
-0.015091178397277787 0.047645298701449644 -0.08674175334502678
-0.022311621138988956 0.04124349918642801 -0.09172045426430177
-0.029532063880700128 0.03484169967140637 -0.09669915518357676
-0.0367525066224113 0.02843990015638474 -0.10167785610285175
-0.043972949364122466 0.022038100641363103 -0.10665655702212674
-0.051193392105833645 0.015636301126341474 -0.11163525794140174
-0.05841383484754481 0.009234501611319829 -0.11661395886067673
-0.06563427758925598 0.0028327020962981933 -0.12159265977995172
-0.0006502929138554467 0.060448897731492916 -0.07678435150647679
-0.004846336003450062 0.052562640494298894 -0.08295731371594484
-0.009042379093044678 0.04467638325710487 -0.08913027592541288
-0.013238422182639294 0.03679012601991084 -0.09530323813488092
-0.01743446527223391 0.028903868782716825 -0.10147620034434897
-0.021630508361828525 0.021017611545522796 -0.10764916255381703
-0.02582655145142314 0.013131354308328772 -0.11382212476328506
-0.030022594541017755 0.005245097071134758 -0.11999508697275311
-0.03421863763061237 -0.002641160166059272 -0.12616804918222116
-0.03841468072020699 -0.010527417403253294 -0.1323410113916892
-0.0006502929138554467 0.060448897731492916 -0.07678435150647679
-0.0013672299742590525 0.051932781111665514 -0.08348263876736445
-0.002084167034662658 0.04341666449183811 -0.0901809260282521
-0.0028011040950662643 0.03490054787201072 -0.09687921328913975
-0.00351804115546987 0.026384431252183312 -0.1035775005500274
-0.004234978215873476 0.01786831463235591 -0.11027578781091504
-0.004951915276277081 0.009352198012528514 -0.1169740750718027
-0.005668852336680687 0.0008360813927011054 -0.12367236233269036
-0.006385789397084293 -0.007680035227126296 -0.130370649593578
-0.007102726457487899 -0.016196151846953697 -0.13706893685446564
-0.0006502929138554467 0.060448897731492916 -0.07678435150647679
0.002189567309851369 0.05222577510595477 -0.08328210045943127
0.005029427533558185 0.04400265248041662 -0.08977984941238573
0.007869287757265003 0.03577952985487847 -0.09627759836534021
0.010709147980971816 0.027556407229340326 -0.10277534731829467
0.013549008204678633 0.019333284603802185 -0.10927309627124915
0.016388868428385453 0.011110161978264027 -0.11577084522420361
0.019228728652092263 0.0028870393527258864 -0.12226859417715809
0.02206858887579908 -0.005336083272812269 -0.12876634313011256
0.024908449099505903 -0.013559205898350418 -0.13526409208306703
-0.0006502929138554467 0.060448897731492916 -0.07678435150647679
0.0054386216737516155 0.05340987203161517 -0.08237743022948231
0.011527536261358677 0.046370846331737436 -0.08797050895248783
0.017616450848965737 0.03933182063185969 -0.09356358767549335
0.0237053654365728 0.03229279493198195 -0.09915666639849886
0.029794280024179866 0.02525376923210421 -0.10474974512150438
0.03588319461178692 0.018214743532226473 -0.11034282384450989
0.04197210919939398 0.011175717832348721 -0.11593590256751542
0.04806102378700105 0.004136692132470979 -0.12152898129052093
0.05414993837460811 -0.002902333567406772 -0.12712206001352644
-0.0006502929138554467 0.060448897731492916 -0.07678435150647679
0.008027847662840273 0.05535675661359458 -0.0808666631343375
0.016705988239535993 0.05026461549569623 -0.0849489747621982
0.025384128816231716 0.04517247437779789 -0.0890312863900589
0.03406226939292743 0.04008033325989954 -0.0931135980179196
0.04274040996962316 0.0349881921420012 -0.09719590964578032
0.05141855054631888 0.029896051024102862 -0.101278221273641
0.06009669112301459 0.024803909906204517 -0.10536053290150171
0.06877483169971031 0.01971176878830617 -0.10944284452936241
0.07745297227640605 0.014619627670407824 -0.11352515615722311
-0.0006502929138554467 0.060448897731492916 -0.07678435150647679
0.009676662465218899 0.057855453698408665 -0.07891351423072256
0.020003617844293244 0.055262009665324414 -0.0810426769549683
0.030330573223367577 0.052668565632240164 -0.08317183967921407
0.040657528602441935 0.05007512159915591 -0.08530100240345982
0.05098448398151626 0.047481677566071655 -0.08743016512770559
0.0613114393605906 0.044888233532987404 -0.08955932785195134
0.07163839473966496 0.04229478949990315 -0.0916884905761971
0.08196535011873932 0.0397013454668189 -0.09381765330044285
0.09229230549781364 0.037107901433734644 -0.09594681602468862
-0.0006502929138554467 0.060448897731492916 -0.07678435150647679
0.010206391413052086 0.06063519068563783 -0.07672963750857195
0.02106307573995962 0.060821483639782736 -0.07667492351066713
0.03191976006686715 0.06100777659392764 -0.07662020951276229
0.04277644439377468 0.061194069548072556 -0.07656549551485745
0.05363312872068222 0.06138036250221746 -0.0765107815169526
0.06448981304758974 0.06156665545636237 -0.07645606751904777
0.07534649737449726 0.06175294841050728 -0.07640135352114293
0.08620318170140481 0.06193924136465219 -0.07634663952323809
0.09705986602831235 0.0621255343187971 -0.07629192552533325
0.0006502929138554467 -0.060448897731492916 0.07678435150647679
0.011506977240762979 -0.06026260477734801 0.07683906550438165
0.02236366156767051 -0.060076311823203096 0.07689377950228649
0.03322034589457804 -0.05989001886905818 0.07694849350019133
0.044077030221485576 -0.059703725914913276 0.07700320749809617
0.05493371454839311 -0.05951743296076836 0.077057921496001
0.06579039887530064 -0.05933114000662345 0.07711263549390585
0.07664708320220816 -0.05914484705247854 0.07716734949181069
0.0875037675291157 -0.05895855409833363 0.07722206348971553
0.09836045185602324 -0.058772261144188716 0.07727677748762037
0.0006502929138554467 -0.060448897731492916 0.07678435150647679
0.010860215982961491 -0.057503055522333466 0.07901701311588409
0.021070139052067536 -0.05455721331317401 0.08124967472529139
0.031280062121173575 -0.05161137110401455 0.08348233633469869
0.041489985190279625 -0.0486655288948551 0.08571499794410599
0.05169990825938566 -0.04571968668569564 0.08794765955351329
0.0619098313284917 -0.042773844476536184 0.09018032116292059
0.07211975439759777 -0.03982800226737673 0.09241298277232789
0.0823296774667038 -0.036882160058217275 0.09464564438173519
0.09253960053580984 -0.03393631784905782 0.09687830599114249
0.0006502929138554467 -0.060448897731492916 0.07678435150647679
0.009107051137343027 -0.05506273398013283 0.08095301719869298
0.017563809360830608 -0.04967657022877274 0.08512168289090916
0.02602056758431819 -0.04429040647741265 0.08929034858312533
0.03447732580780577 -0.038904242726052564 0.09345901427534152
0.04293408403129336 -0.03351807897469247 0.0976276799675577
0.05139084225478093 -0.028131915223332384 0.10179634565977387
0.059847600478268516 -0.022745751471972293 0.10596501135199006
0.0683043587017561 -0.017359587720612208 0.11013367704420624
0.07676111692524368 -0.011973423969252115 0.11430234273642241
0.0006502929138554467 -0.060448897731492916 0.07678435150647679
0.006437465318085772 -0.05320608685533369 0.08243728167023745
0.012224637722316098 -0.04596327597917446 0.0880902118339981
0.018011810126546422 -0.03872046510301523 0.09374314199775875
0.02379898253077675 -0.031477654226856 0.0993960721615194
0.02958615493500708 -0.024234843350696766 0.10504900232528004
0.0353733273392374 -0.016992032474537542 0.1107019324890407
0.04116049974346772 -0.009749221598378302 0.11635486265280134
0.04694767214769805 -0.002506410722219086 0.12200779281656199
0.052734844551928374 0.004736400153940158 0.12766072298032266
0.0006502929138554467 -0.060448897731492916 0.07678435150647679
0.0031407495715981767 -0.05213431067275645 0.08330896344428945
0.005631206229340906 -0.04381972361401998 0.0898335753821021
0.008121662887083636 -0.035505136555283506 0.09635818731991475
0.010612119544826366 -0.027190549496547037 0.1028827992577274
0.013102576202569098 -0.018875962437810565 0.10940741119554005
0.015593032860311825 -0.010561375379074098 0.1159320231333527
0.01808348951805456 -0.002246788320337626 0.12245663507116535
0.020573946175797286 0.006067798738398846 0.128981247008978
0.023064402833540016 0.014382385797135319 0.13550585894679065
0.0006502929138554467 -0.060448897731492916 0.07678435150647679
-0.00042584579717245706 -0.0519635490121043 0.08347360227509414
-0.0015019845082003607 -0.04347820029271569 0.09016285304371147
-0.0025781232192282643 -0.03499285157332708 0.09685210381232881
-0.0036542619302561683 -0.02650750285393846 0.10354135458094614
-0.004730400641284073 -0.018022154134549852 0.11023060534956348
-0.005806539352311976 -0.009536805415161236 0.11691985611818083
-0.00688267806333988 -0.0010514566957726215 0.12360910688679816
-0.007958816774367784 0.007433892023616 0.1302983576554155
-0.009034955485395688 0.015919240743004607 0.13698760842403282
0.0006502929138554467 -0.060448897731492916 0.07678435150647679
-0.0038758248385906574 -0.05271230654894909 0.08291335699069916
-0.008401942591036762 -0.04497571536640525 0.0890423624749215
-0.012928060343482867 -0.03723912418386142 0.09517136795914385
-0.01745417809592897 -0.029502533001317586 0.1013003734433662
-0.02198029584837508 -0.021765941818773758 0.10742937892758855
-0.02650641360082118 -0.01402935063622992 0.1135583844118109
-0.031032531353267286 -0.006292759453686086 0.11968738989603325
-0.03555864910571339 0.0014438317288577493 0.1258163953802556
-0.040084766858159496 0.009180422911401578 0.13194540086447795
0.0006502929138554467 -0.060448897731492916 0.07678435150647679
-0.006835328791578352 -0.05429944378600341 0.08168893886076996
-0.014320950497012151 -0.048149989840513906 0.08659352621506311
-0.02180657220244595 -0.0420005358950244 0.09149811356935628
-0.029292193907879748 -0.035851081949534895 0.09640270092364943
-0.03677781561331355 -0.02970162800404539 0.1013072882779426
-0.044263437318747344 -0.023552174058555888 0.10621187563223575
-0.05174905902418115 -0.017402720113066383 0.1111164629865289
-0.05923468072961494 -0.011253266167576869 0.11602105034082207
-0.06672030243504874 -0.005103812222087378 0.12092563769511522
0.0006502929138554467 -0.060448897731492916 0.07678435150647679
-0.008983649481394044 -0.056552969776660814 0.07993303258848918
-0.018617591876643535 -0.05265704182182871 0.08308171367050156
-0.028251534271893024 -0.04876111386699661 0.08623039475251394
-0.037885476667142516 -0.044865185912164506 0.08937907583452633
-0.047519419062392 -0.040969257957332396 0.09252775691653872
-0.057153361457641494 -0.0370733300025003 0.09567643799855109
-0.066787303852891 -0.03317740204766819 0.09882511908056348
-0.07642124624814048 -0.029281474092836088 0.10197380016257586
-0.08605518864338997 -0.02538554613800398 0.10512248124458824
0.0006502929138554467 -0.060448897731492916 0.07678435150647679
-0.010087983026666112 -0.05922868001277503 0.07783591786415149
-0.02082625896718767 -0.05800846229405714 0.07888748422182618
-0.03156453490770922 -0.05678824457533926 0.07993905057950086
-0.04230281084823079 -0.05556802685662137 0.08099061693717555
-0.053041086788752335 -0.054347809137903484 0.08204218329485023
-0.06377936272927388 -0.053127591419185605 0.08309374965252492
-0.07451763866979545 -0.05190737370046772 0.08414531601019962
-0.08525591461031702 -0.05068715598174983 0.0851968823678743
-0.09599419055083856 -0.049466938263031945 0.08624844872554899
0.0006502929138554467 -0.060448897731492916 0.07678435150647679
-0.01002865775226384 -0.06203661977234104 0.07562484960822653
-0.020707608418383126 -0.06362434181318916 0.07446534770997626
-0.031386559084502406 -0.06521206385403727 0.07330584581172599
-0.0420655097506217 -0.0667997858948854 0.07214634391347571
-0.05274446041674098 -0.06838750793573352 0.07098684201522544
-0.06342341108286026 -0.06997522997658163 0.06982734011697517
-0.07410236174897954 -0.07156295201742977 0.0686678382187249
-0.08478131241509884 -0.07315067405827788 0.06750833632047462
-0.09546026308121812 -0.074738396099126 0.06634883442222435
0.0006502929138554467 -0.060448897731492916 0.07678435150647679
-0.00881210247219519 -0.06467250521273535 0.07353943137450267
-0.018274497858245826 -0.06889611269397777 0.07029451124252853
-0.027736893244296467 -0.07311972017522021 0.0670495911105544
-0.0371992886303471 -0.07734332765646264 0.06380467097858027
-0.04666168401639773 -0.08156693513770506 0.060559750846606135
-0.05612407940244838 -0.0857905426189475 0.057314830714632004
-0.06558647478849902 -0.09001415010018993 0.05406991058265787
-0.07504887017454964 -0.09423775758143235 0.05082499045068374
-0.08451126556060029 -0.09846136506267478 0.04758007031870961
0.0006502929138554467 -0.060448897731492916 0.07678435150647679
-0.006570149827855724 -0.06685069724651456 0.07180565058720181
-0.013790592569566894 -0.0732524967615362 0.06682694966792682
-0.021011035311278063 -0.07965429627655783 0.06184824874865182
-0.028231478052989235 -0.08605609579157947 0.05686954782937683
-0.03545192079470041 -0.0924578953066011 0.05189084691010184
-0.04267236353641157 -0.09885969482162274 0.046912145990826846
-0.04989280627812275 -0.10526149433664436 0.04193344507155186
-0.05711324901983392 -0.11166329385166601 0.03695474415227687
-0.06433369176154509 -0.11806509336668765 0.03197604323300187
0.0006502929138554467 -0.060448897731492916 0.07678435150647679
-0.0035457501757391687 -0.06833515496868695 0.07061138929700875
-0.007741793265333785 -0.07622141220588097 0.0644384270875407
-0.011937836354928401 -0.08410766944307499 0.058265464878072666
-0.016133879444523016 -0.09199392668026901 0.05209250266860462
-0.020329922534117632 -0.09988018391746305 0.04591954045913657
-0.02452596562371225 -0.10776644115465707 0.039746578249668534
-0.028722008713306862 -0.11565269839185108 0.03357361604020048
-0.03291805180290148 -0.12353895562904511 0.027400653830732445
-0.0371140948924961 -0.13142521286623912 0.021227691621264394
0.0006502929138554467 -0.060448897731492916 0.07678435150647679
-6.664414654815903e-05 -0.06896501435132033 0.07008606424558915
-0.0007835812069517649 -0.07748113097114773 0.0633877769847015
-0.0015005182673553706 -0.08599724759097511 0.056689489723813845
-0.0022174553277589763 -0.09451336421080253 0.049991202462926196
-0.0029343923881625824 -0.10302948083062993 0.04329291520203855
-0.003651329448566188 -0.11154559745045732 0.0365946279411509
-0.004368266508969794 -0.12006171407028474 0.029896340680263242
-0.0050852035693734 -0.12857783069011214 0.023198053419375593
-0.0058021406297770065 -0.13709394730993954 0.016499766158487944
0.0006502929138554467 -0.060448897731492916 0.07678435150647679
0.0034901531375622625 -0.06867202035703107 0.07028660255352233
0.006330013361269078 -0.07689514298256922 0.06378885360056785
0.009169873584975896 -0.08511826560810737 0.05729110464761339
0.01200973380868271 -0.09334138823364552 0.05079335569465892
0.014849594032389526 -0.10156451085918365 0.04429560674170445
0.017689454256096346 -0.10978763348472181 0.03779785778874998
0.020529314479803155 -0.11801075611025995 0.03130010883579551
0.023369174703509972 -0.1262338787357981 0.02480235988284104
0.026209034927216796 -0.13445700136133626 0.01830461092988657
0.0006502929138554467 -0.060448897731492916 0.07678435150647679
0.006739207501462508 -0.06748792343137067 0.07119127278347129
0.01282812208906957 -0.07452694913124841 0.06559819406046577
0.01891703667667663 -0.08156597483112614 0.06000511533746025
0.025005951264283694 -0.08860500053100388 0.05441203661445473
0.03109486585189076 -0.09564402623088163 0.04881895789144921
0.03718378043949781 -0.10268305193075937 0.043225879168443705
0.043272695027104874 -0.10972207763063711 0.03763280044543818
0.04936160961471194 -0.11676110333051486 0.03203972172243266
0.055450524202319 -0.12380012903039261 0.026446642999427145
0.0006502929138554467 -0.060448897731492916 0.07678435150647679
0.009328433490551166 -0.06554103884939126 0.07270203987861609
0.018006574067246886 -0.0706331799672896 0.0686197282507554
0.02668471464394261 -0.07572532108518795 0.0645374166228947
0.035362855220638326 -0.08081746220308629 0.06045510499503399
0.04404099579733405 -0.08590960332098464 0.05637279336717328
0.05271913637402977 -0.09100174443888298 0.05229048173931259
0.061397276950725485 -0.09609388555678132 0.048208170111451884
0.0700754175274212 -0.10118602667467967 0.044125858483591185
0.07875355810411694 -0.10627816779257801 0.04004354685573048
0.0006502929138554467 -0.060448897731492916 0.07678435150647679
0.010977248292929792 -0.06304234176457717 0.07465518878223104
0.021304203672004137 -0.06563578579766143 0.07252602605798529
0.031631159051078474 -0.06822922983074567 0.07039686333373953
0.04195811443015283 -0.07082267386382993 0.06826770060949378
0.052285069809227154 -0.07341611789691418 0.06613853788524801
0.0626120251883015 -0.07600956192999843 0.06400937516100226
0.07293898056737586 -0.07860300596308269 0.061880212436756496
0.08326593594645021 -0.08119644999616693 0.05975104971251074
0.09359289132552454 -0.08378989402925119 0.05762188698826498
0.0006502929138554467 -0.060448897731492916 0.07678435150647679
0.011506977240762979 -0.06026260477734801 0.07683906550438163
0.02236366156767051 -0.0600763118232031 0.07689377950228647
0.03322034589457804 -0.05989001886905819 0.07694849350019131
0.044077030221485576 -0.05970372591491328 0.07700320749809615
0.05493371454839311 -0.05951743296076837 0.07705792149600099
0.06579039887530064 -0.05933114000662346 0.07711263549390583
0.07664708320220816 -0.05914484705247856 0.07716734949181067
0.0875037675291157 -0.05895855409833364 0.07722206348971551
0.09836045185602324 -0.05877226114418874 0.07727677748762035
