# .PCD v0.7 - Point Cloud Data file format
VERSION 0.7
FIELDS x y z
SIZE 4 4 4
TYPE F F F
COUNT 1 1 1
WIDTH 700
HEIGHT 1
VIEWPOINT 0 0 0 1 0 0 0
POINTS 700
DATA ascii
0.05256110758005648 -0.038224666568294645 -0.04527219036103448
0.050899947016580696 -0.02921267966308767 -0.05319004723626797
0.04670342682420328 -0.020576276659162795 -0.060570398266044094
0.04016777162302261 -0.012719286162311032 -0.06706814643888155
0.03159858138638684 -0.006009092315747433 -0.07237946427194684
0.021396541925790154 -0.0007594563258924823 -0.07625600044647164
0.010038689267657604 0.002784154662919532 -0.07851649243939567
-0.0019438960210630956 0.004456045339292491 -0.07905524215748619
-0.01399092156995841 0.004178039953372232 -0.07784705826270262
-0.025539081853669203 0.0019631377280235856 -0.07494843409116506
-0.036048397732187445 -0.0020850949703831484 -0.07049490608754523
-0.04502746527529933 -0.007777367280157974 -0.06469471627155154
-0.05205643326420575 -0.014847514874602098 -0.05781907507253189
-0.05680663496788224 -0.02296494551010397 -0.05018947983122608
-0.0590559562341349 -0.03175009715202367 -0.042162681941431544
-0.058699221300494785 -0.04079218587357983 -0.03411400555132992
-0.05575311069597651 -0.04966841365571228 -0.02641979782346109
-0.05035538127808058 -0.057963737952547126 -0.019439831359682493
-0.04275842487524245 -0.06529027861955514 -0.013500481634164894
-0.03331746672544825 -0.07130545475801212 -0.008879466038960395
-0.022473955538910975 -0.07572800341707193 -0.005792858127410782
-0.010734921847016037 -0.07835113113674674 -0.004384984254941834
0.0013507301818024107 -0.07905218338026161 -0.004721675039090775
0.013217888890914293 -0.07779837972387339 -0.0067871871929957245
0.024311659128481124 -0.07464834663305212 -0.01048493966399197
0.034113308528034327 -0.06974937615411428 -0.015642029656292415
0.04216452285740166 -0.06333053870184037 -0.022017317373550945
0.04808883628282392 -0.055691971981473326 -0.029312701447731897
0.051609234492929854 -0.047190846883200306 -0.037187057827763666
0.05256110758005648 -0.03822466656829465 -0.04527219036103447
0.0532993376428418 -0.029947992632132193 -0.036006683340597305
0.05163817707936602 -0.02093600572692522 -0.043924540215830796
0.047441656886988606 -0.012299602723000345 -0.05130489124560692
0.040906001685807936 -0.004442612226148582 -0.05780263941844437
0.032336811449172165 0.002267581620415018 -0.06311395725150967
0.02213477198857548 0.007517217610269969 -0.06699049342603446
0.010776919330442928 0.011060828599081982 -0.06925098541895848
-0.0012056659582777714 0.012732719275454942 -0.06978973513704902
-0.013252691507173087 0.012454713889534683 -0.06858155124226543
-0.024800851790883878 0.010239811664186036 -0.06568292707072787
-0.03531016766940212 0.0061915789657793025 -0.06122939906710806
-0.044289235212514 0.0004993066560044767 -0.05542920925111437
-0.05131820320142042 -0.006570840938439648 -0.04855356805209471
-0.056068404905096916 -0.01468827157394152 -0.040923972810788904
-0.058317726171349574 -0.023473423215861218 -0.032897174920994365
-0.05796099123770946 -0.03251551193741738 -0.02484849853089275
-0.05501488063319118 -0.041391739719549826 -0.017154290803023914
-0.04961715121529525 -0.049687064016384674 -0.01017432433924532
-0.042020194812457126 -0.057013604683392685 -0.004234974613727718
-0.03257923666266292 -0.06302878082184966 0.0003860409814767814
-0.02173572547612565 -0.06745132948090948 0.003472648893026393
-0.009996691784230714 -0.07007445720058429 0.004880522765495342
0.0020889602445877346 -0.07077550944409916 0.004543831981346401
0.013956118953699616 -0.06952170578771094 0.0024783198274414505
0.02504988919126645 -0.06637167269688966 -0.0012194326435547933
0.03485153859081965 -0.06147270221795183 -0.00637652263585524
0.042902752920186984 -0.05505386476567792 -0.012751810353113771
0.048827066345609245 -0.047415298045310875 -0.02004719442729472
0.05234746455571518 -0.038914172947037855 -0.02792155080732649
0.0532993376428418 -0.029947992632132204 -0.03600668334059729
0.05403756770562712 -0.021671318695969746 -0.026741176320160133
0.05237640714215134 -0.012659331790762772 -0.034659033195393624
0.048179886949773924 -0.004022928786837898 -0.04203938422516975
0.041644231748593254 0.003834061710013864 -0.0485371323980072
0.03307504151195748 0.010544255556577464 -0.053848450231072494
0.022873002051360804 0.015793891546432414 -0.05772498640559729
0.011515149393228251 0.019337502535244428 -0.059985478398521315
-0.00046743589549244776 0.021009393211617388 -0.060524228116611845
-0.012514461444387764 0.02073138782569713 -0.05931604422182827
-0.024062621728098553 0.018516485600348482 -0.056417420050290705
-0.0345719376066168 0.014468252901941748 -0.05196389204667089
-0.043551005149728685 0.008775980592166922 -0.0461637022306772
-0.050579973138635104 0.001705832997722798 -0.03928806103165754
-0.0553301748423116 -0.006411597637779073 -0.03165846579035174
-0.057579496108564256 -0.015196749279698772 -0.023631667900557197
-0.05722276117492414 -0.024238838001254932 -0.015582991510455578
-0.054276650570405864 -0.03311506578338738 -0.007888783782586744
-0.048878921152509934 -0.04141039008022223 -0.0009088173188081485
-0.04128196474967181 -0.04873693074723024 0.0050305324067094525
-0.031841006599877604 -0.05475210688568721 0.009651548001913951
-0.020997495413340325 -0.05917465554474704 0.012738155913463563
-0.00925846172144539 -0.06179778326442185 0.014146029785932511
0.0028271903073730587 -0.06249883550793671 0.01380933900178357
0.014694349016484939 -0.06124503185154849 0.01174382684787862
0.025788119254051774 -0.05809499876072722 0.008046074376882376
0.03558976865360497 -0.053196028281789376 0.0028889843845819304
0.0436409829829723 -0.046777190829515466 -0.0034863033326766003
0.04956529640839456 -0.03913862410914842 -0.010781687406857553
0.0530856946185005 -0.03063749901087541 -0.01865604378688932
0.05403756770562712 -0.021671318695969756 -0.026741176320160123
0.054775797768412446 -0.0133946447598073 -0.017475669299722957
0.053114637204936664 -0.0043826578546003235 -0.02539352617495645
0.04891811701255925 0.00425374514932455 -0.03277387720473258
0.04238246181137858 0.012110735646176313 -0.03927162537757003
0.03381327157474281 0.01882092949273991 -0.04458294321063532
0.023611232114146126 0.024070565482594862 -0.04845947938516012
0.012253379456013576 0.027614176471406876 -0.05071997137808414
0.00027079416729287615 0.029286067147779836 -0.05125872109617467
-0.011776231381602439 0.029008061761859577 -0.0500505372013911
-0.02332439166531323 0.02679315953651093 -0.04715191302985353
-0.03383370754383148 0.022744926838104196 -0.042698385026233715
-0.04281277508694336 0.01705265452832937 -0.03689819521024003
-0.04984174307584978 0.009982506933885247 -0.03002255401122037
-0.05459194477952627 0.0018650762983833747 -0.022392958769914564
-0.05684126604577893 -0.006920075343536323 -0.014366160880120023
-0.05648453111213882 -0.01596216406509248 -0.006317484490018405
-0.05353842050762054 -0.02483839184722493 0.0013767232378504302
-0.04814069108972461 -0.03313371614405978 0.008356689701629024
-0.04054373468688648 -0.04046025681106779 0.014296039427146625
-0.03110277653709228 -0.04647543294952477 0.018917055022351123
-0.020259265350555004 -0.050897981608584594 0.022003662933900735
-0.008520231658660065 -0.0535211093282594 0.023411536806369683
0.0035654203701583824 -0.054222161571774265 0.023074846022220742
0.015432579079270264 -0.052968357915386045 0.021009333868315792
0.026526349316837096 -0.049818324824564775 0.01731158139731955
0.036327998716390295 -0.04491935434562693 0.012154491405019103
0.04437921304575763 -0.03850051689335302 0.005779203687760573
0.05030352647117989 -0.03086195017298598 -0.001516180386420379
0.05382392468128582 -0.022360825074712962 -0.009390536766452148
0.054775797768412446 -0.01339464475980731 -0.01747566929972295
0.05551402783119777 -0.005117970823644848 -0.008210162279285784
0.05385286726772199 0.0038940160815621274 -0.016128019154519276
0.049656347075344574 0.012530419085487 -0.023508370184295403
0.043120691874163904 0.020387409582338763 -0.030006118357132853
0.03455150163752813 0.027097603428902363 -0.03531743619019815
0.02434946217693145 0.03234723941875731 -0.03919397236472294
0.012991609518798899 0.03589085040756933 -0.041454464357646964
0.0010090242300782003 0.03756274108394229 -0.041993214075737494
-0.011038001318817115 0.03728473569802203 -0.04078503018095392
-0.022586161602527906 0.03506983347267338 -0.037886406009416354
-0.03309547748104615 0.031021600774266647 -0.033432878005796536
-0.042074545024158035 0.02532932846449182 -0.027632688189802856
-0.049103513013064454 0.018259180870047697 -0.020757046990783193
-0.05385371471674095 0.010141750234545825 -0.013127451749477388
-0.056103035982993606 0.0013565985926261277 -0.005100653859682847
-0.05574630104935349 -0.007685490128930032 0.0029480225304187703
-0.052800190444835214 -0.01656171791106248 0.010642230258287606
-0.047402461026939284 -0.02485704220789733 0.017622196722066198
-0.03980550462410116 -0.03218358287490534 0.0235615464475838
-0.030364546474306954 -0.03819875901336232 0.0281825620427883
-0.01952103528776968 -0.04262130767242214 0.031269169954337914
-0.007782001595874741 -0.04524443539209695 0.03267704382680686
0.004303650432943707 -0.04594548763561181 0.03234035304265792
0.016170809142055587 -0.044691683979223594 0.030274840888752968
0.02726457937962242 -0.04154165088840232 0.026577088417756724
0.03706622877917562 -0.03664268040946448 0.021419998425456277
0.04511744310854295 -0.03022384295719057 0.015044710708197748
0.05104175653396521 -0.022585276236823527 0.0077493266340167965
0.05456215474407115 -0.014084151138550511 -0.0001250297460149725
0.05551402783119777 -0.005117970823644858 -0.008210162279285775
0.056252257893983096 0.0031587031125176026 0.0010553447411513922
0.054591097330507314 0.012170690017724578 -0.006862512134082099
0.0503945771381299 0.020807093021649452 -0.014242863163858225
0.04385892193694923 0.028664083518501214 -0.020740611336695674
0.03528973170031346 0.035374277365064814 -0.02605192916976097
0.025087692239716776 0.040623913354919765 -0.029928465344285764
0.013729839581584224 0.04416752434373178 -0.03218895733720979
0.0017472542928635244 0.04583941502010474 -0.03272770705530032
-0.01029977125603179 0.04556140963418448 -0.031519523160516746
-0.02184793153974258 0.04334650740883583 -0.02862089898897918
-0.03235724741826083 0.0392982747104291 -0.02416737098535936
-0.04133631496137271 0.03360600240065427 -0.018367181169365678
-0.04836528295027913 0.02653585480621015 -0.011491539970346016
-0.05311548465395562 0.018418424170708277 -0.0038619447290402127
-0.05536480592020828 0.009633272528788579 0.004164853160754329
-0.05500807098656817 0.0005911838072324189 0.012213529550855947
-0.05206196038204989 -0.00828504397490003 0.01990773727872478
-0.04666423096415396 -0.01658036827173488 0.026887703742503377
-0.03906727456131583 -0.02390690893874289 0.03282705346802098
-0.02962631641152163 -0.029922085077199866 0.037448069063225474
-0.018782805224984354 -0.03434463373625969 0.040534676974775086
-0.007043771533089418 -0.0369677614559345 0.041942550847244034
0.00504188049572903 -0.03766881369944936 0.04160586006309509
0.016909039204840912 -0.03641501004306114 0.03954034790919014
0.028002809442407746 -0.03326497695223987 0.0358425954381939
0.037804458841960945 -0.02836600647330203 0.030685505445893456
0.04585567317132828 -0.02194716902102812 0.024310217728634925
0.05177998659675054 -0.014308602300661076 0.017014833654453974
0.05530038480685647 -0.0058074772023880596 0.009140477274422203
0.056252257893983096 0.0031587031125175926 0.0010553447411514013
0.05699048795676842 0.01143537704868005 0.010320851761588562
0.05532932739329264 0.020447363953887025 0.0024029948863550712
0.051132807200915224 0.029083766957811896 -0.004977356143421055
0.044597151999734554 0.03694075745466366 -0.011475104316258505
0.03602796176309878 0.04365095130122726 -0.016786422149323802
0.0258259223025021 0.04890058729108221 -0.020662958323848596
0.014468069644369547 0.05244419827989422 -0.02292345031677262
0.002485484355648848 0.05411608895626718 -0.02346220003486315
-0.009561541193246467 0.053838083570346924 -0.022254016140079574
-0.021109701476957256 0.05162318134499828 -0.01935539196854201
-0.0316190173554755 0.04757494864659154 -0.014901863964922192
-0.040598084898587385 0.04188267633681672 -0.009101674148928509
-0.047627052887493804 0.034812528742372596 -0.0022260329499088453
-0.0523772545911703 0.02669509810687072 0.0054035622913969576
-0.054626575857422956 0.017909946464951025 0.0134303601811915
-0.05426984092378284 0.008867857743394865 0.021479036571293117
-0.051323730319264564 -8.37003873758356e-06 0.029173244299161953
-0.045926000901368634 -0.008303694335572433 0.03615321076294055
-0.03832904449853051 -0.015630235002580446 0.04209256048845815
-0.028888086348736304 -0.02164541114103742 0.046713576083662646
-0.01804457516219903 -0.026067959800097247 0.04980018399521226
-0.006305541470304094 -0.028691087519772056 0.051208057867681206
0.005780110558514354 -0.029392139763286917 0.050871367083532265
0.017647269267626237 -0.028138336106898698 0.048805854929627315
0.02874103950519307 -0.024988303016077427 0.045108102458631075
0.03854268890474627 -0.020089332537139584 0.03995101246633063
0.0465939032341136 -0.013670495084865673 0.0335757247490721
0.05251821665953586 -0.00603192836449863 0.026280340674891142
0.0560386148696418 0.002469196733774386 0.018405984294859373
0.05699048795676842 0.01143537704868004 0.010320851761588572
0.057728718019553746 0.019712050984842498 0.019586358782025734
0.056067557456077964 0.028724037890049472 0.011668501906792245
0.05187103726370055 0.03736044089397435 0.004288150877016118
0.04533538206251988 0.04521743139082611 -0.0022095972958213325
0.03676619182588411 0.05192762523738971 -0.007520915128886629
0.026564152365287422 0.05717726122724466 -0.011397451303411422
0.01520629970715487 0.060720872216056675 -0.013657943296335446
0.003223714418434172 0.062392762892429635 -0.014196693014425976
-0.008823311130461144 0.062114757506509376 -0.0129885091196424
-0.020371471414171935 0.05989985528116073 -0.010089884948104836
-0.03088078729269018 0.055851622582753994 -0.005636356944485019
-0.03985985483580206 0.050159350272979165 0.00016383287150866408
-0.04688882282470848 0.04308920267853504 0.0070394740705283275
-0.05163902452838497 0.03497177204303317 0.014669069311834131
-0.05388834579463763 0.026186620401113473 0.022695867201628674
-0.05353161086099752 0.017144531679557314 0.03074454359173029
-0.05058550025647924 0.008268303897424865 0.038438751319599125
-0.04518777083858331 -2.702039940998497e-05 0.04541871778337772
-0.03759081443574518 -0.007353561066417996 0.05135806750889532
-0.028149856285950983 -0.013368737204874971 0.05597908310409982
-0.017306345099413707 -0.017791285863934796 0.05906569101564943
-0.00556731140751877 -0.020414413583609604 0.06047356488811838
0.0065183406212996784 -0.021115465827124466 0.06013687410396944
0.01838549933041156 -0.019861662170736247 0.05807136195006449
0.029479269567978392 -0.016711629079914976 0.05437360947906825
0.039280918967531595 -0.011812658600977135 0.0492165194867678
0.04733213329689893 -0.005393821148703225 0.04284123176950927
0.05325644672232119 0.002244745571663818 0.035545847695328314
0.05677684493242712 0.010745870669936835 0.027671491315296545
0.057728718019553746 0.019712050984842487 0.019586358782025744
0.058466948082339064 0.02798872492100495 0.02885186580246291
0.05680578751886328 0.037000711826211924 0.02093400892722942
0.05260926732648587 0.0456371148301368 0.013553657897453294
0.0460736121253052 0.05349410532698856 0.007055909724615843
0.037504421888669426 0.06020429917355216 0.0017445918915505465
0.027302382428072747 0.06545393516340711 -0.002131944282974247
0.015944529769940194 0.06899754615221912 -0.004392436275898272
0.003961944481219496 0.07066943682859209 -0.004931185993988801
-0.008085081067675819 0.07039143144267182 -0.0037230020992052256
-0.01963324135138661 0.06817652921732317 -0.0008243779276676615
-0.030142557229904856 0.06412829651891644 0.0036291500759521567
-0.03912162477301674 0.05843602420914162 0.00942933989194584
-0.04615059276192316 0.05136587661469749 0.016304981090965502
-0.050900794465599655 0.043248445979195624 0.023934576332271307
-0.05315011573185231 0.03446329433727592 0.031961374222065846
-0.0527933807982122 0.025421205615719766 0.04001005061216747
-0.04984727019369392 0.016544977833587316 0.0477042583400363
-0.04444954077579799 0.008249653536752466 0.05468422480381489
-0.036852584372959865 0.000923112869744455 0.060623574529332494
-0.027411626223165658 -0.005092063268712521 0.065244590124537
-0.016568115036628382 -0.009514611927772346 0.0683311980360866
-0.004829081344733446 -0.012137739647447155 0.06973907190855555
0.007256570684085003 -0.012838791890962016 0.06940238112440661
0.019123729393196884 -0.011584988234573797 0.06733686897050166
0.030217499630763717 -0.008434955143752526 0.06363911649950542
0.04001914903031691 -0.0035359846648146836 0.05848202650720497
0.048070363359684246 0.002882852787459226 0.05210673878994644
0.053994676785106506 0.01052141950782627 0.04481135471576549
0.05751507499521244 0.019022544606099284 0.036936998335733724
0.058466948082339064 0.02798872492100494 0.02885186580246292
0.05920517814512439 0.0362653988571674 0.038117372822900085
0.05754401758164861 0.045277385762374375 0.030199515947666594
0.05334749738927119 0.05391378876629925 0.022819164917890468
0.04681184218809052 0.06177077926315101 0.016321416745053018
0.03824265195145475 0.06848097310971461 0.011010098911987723
0.028040612490858072 0.07373060909956956 0.007133562737462928
0.01668275983272552 0.07727422008838157 0.004873070744538904
0.00470017454400482 0.07894611076475454 0.004334321026448374
-0.007346851004890495 0.07866810537883427 0.005542504921231949
-0.018895011288601285 0.07645320315348562 0.008441129092769515
-0.02940432716711953 0.07240497045507889 0.012894657096389333
-0.03838339471023142 0.06671269814530408 0.018694846912383014
-0.045412362699137836 0.059642550550859944 0.025570488111402678
-0.05016256440281433 0.051525119915358075 0.03320008335270848
-0.05241188566906699 0.04273996827343837 0.041226881242503025
-0.052055150735426874 0.033697879551882214 0.04927555763260464
-0.049109040130908596 0.024821651769749768 0.056969765360473476
-0.043711310713012666 0.016526327472914916 0.06394973182425207
-0.03611435431017454 0.009199786805906905 0.06988908154976967
-0.026673396160380333 0.00318461066744993 0.07451009714497417
-0.015829884973843057 -0.0012379379916098957 0.07759670505652379
-0.0040908512819481215 -0.0038610657112847046 0.07900457892899274
0.007994800746870326 -0.004562117954799566 0.0786678881448438
0.01986195945598221 -0.003308314298411347 0.07660237599093885
0.030955729693549042 -0.00015828120759007618 0.07290462351994259
0.04075737909310224 0.004740689271347767 0.06774753352764215
0.04880859342246957 0.011159526723621676 0.06137224581038362
0.05473290684789183 0.01879809344398872 0.054076861736202665
0.058253305057997765 0.027299218542261736 0.046202505356170896
0.05920517814512439 0.03626539885716739 0.0381173728229001
-0.003322035282533958 -0.037245032712731024 -0.04169478159196728
0.0028872028133094243 -0.03735388091890476 -0.04209227145519697
0.009096440909152808 -0.037462729125078496 -0.04248976131842666
0.015305679004996188 -0.03757157733125223 -0.042887251181656344
0.02151491710083957 -0.03768042553742596 -0.043284741044886034
0.02772415519668295 -0.0377892737435997 -0.043682230908115724
0.033933393292526336 -0.03789812194977343 -0.044079720771345414
0.040142631388369716 -0.03800697015594717 -0.044477210634575104
0.046351869484213104 -0.038115818362120905 -0.04487470049780479
0.05256110758005648 -0.038224666568294645 -0.04527219036103448
-0.003322035282533958 -0.037245032712731024 -0.04169478159196728
0.0024912505783524844 -0.03583937752600239 -0.043413596547066
0.008304536439238928 -0.03443372233927377 -0.04513241150216473
0.01411782230012537 -0.033028067152545144 -0.04685122645726345
0.01993110816101181 -0.03162241196581651 -0.048570041412362173
0.025744394021898254 -0.03021675677908789 -0.050288856367460895
0.0315576798827847 -0.028811101592359264 -0.052007671322559616
0.037370965743671145 -0.027405446405630637 -0.053726486277658345
0.043184251604557584 -0.025999791218902012 -0.055445301232757066
0.04899753746544402 -0.024594136032173385 -0.05716411618785579
-0.003322035282533958 -0.037245032712731024 -0.04169478159196728
0.0014653386179444901 -0.03447719868356956 -0.04454866136838814
0.006252712518422938 -0.03170936465440811 -0.047402541144809004
0.011040086418901382 -0.028941530625246653 -0.05025642092122986
0.015827460319379833 -0.0261736965960852 -0.05311030069765072
0.02061483421985828 -0.023405862566923744 -0.05596418047407158
0.02540220812033672 -0.020638028537762285 -0.058818060250492445
0.030189582020815172 -0.01787019450860083 -0.061671940026913306
0.03497695592129363 -0.015102360479439372 -0.06452581980333416
0.039764329821772075 -0.012334526450277918 -0.06737969957975502
-0.003322035282533958 -0.037245032712731024 -0.04169478159196728
-7.935958834013182e-05 -0.03341495760556636 -0.045374464033427764
0.003163316105853694 -0.029584882498401705 -0.04905414647488825
0.00640599180004752 -0.025754807391237047 -0.05273382891634872
0.009648667494241347 -0.02192473228407239 -0.056413511357809205
0.012891343188435178 -0.018094657176907728 -0.06009319379926969
0.016134018882628998 -0.014264582069743074 -0.06377287624073016
0.01937669457682282 -0.010434506962578412 -0.06745255868219065
0.02261937027101665 -0.006604431855413759 -0.07113224112365113
0.025862045965210474 -0.002774356748249097 -0.07481192356511161
-0.003322035282533958 -0.037245032712731024 -0.04169478159196728
-0.001975452021388216 -0.032767764595163 -0.04580151600977924
-0.0006288687602424737 -0.028290496477594976 -0.0499082504275912
0.0007177145009032674 -0.02381322836002695 -0.05401498484540316
0.0020642977620490104 -0.019335960242458927 -0.05812171926321512
0.003410881023194752 -0.014858692124890903 -0.06222845368102708
0.0047574642843404924 -0.010381424007322882 -0.06633518809883904
0.0061040475454862365 -0.005904155889754859 -0.07044192251665099
0.007450630806631979 -0.0014268877721868342 -0.07454865693446296
0.00879721406777772 0.0030503803453811903 -0.07865539135227491
-0.003322035282533958 -0.037245032712731024 -0.04169478159196728
-0.0040174676451735615 -0.03260575305727092 -0.04578353958941074
-0.004712900007813164 -0.027966473401810812 -0.04987229758685419
-0.0054083323704527675 -0.023327193746350713 -0.053961055584297646
-0.006103764733092371 -0.018687914090890604 -0.058049813581741105
-0.006799197095731974 -0.014048634435430501 -0.06213857157918456
-0.007494629458371578 -0.009409354779970402 -0.06622732957662801
-0.008190061821011181 -0.004770075124510294 -0.07031608757407147
-0.008885494183650783 -0.0001307954690501877 -0.07440484557151493
-0.009580926546290388 0.004508484186409918 -0.07849360356895839
-0.003322035282533958 -0.037245032712731024 -0.04169478159196728
-0.00598412238172199 -0.03294647945588875 -0.04532248279640209
-0.00864620948091002 -0.028647926199046485 -0.04895018400083689
-0.01130829658009805 -0.02434937294220421 -0.052577885205271686
-0.013970383679286083 -0.020050819685361945 -0.05620558640970649
-0.016632470778474115 -0.015752266428519672 -0.0598332876141413
-0.019294557877662145 -0.011453713171677402 -0.06346098881857609
-0.021956644976850178 -0.00715515991483514 -0.06708869002301089
-0.02461873207603821 -0.00285660665799287 -0.0707163912274457
-0.02728081917522624 0.001441946598849403 -0.0743440924318805
-0.003322035282533958 -0.037245032712731024 -0.04169478159196728
-0.007662298674536091 -0.033753020798811456 -0.044468308288309014
-0.012002562066538222 -0.030261008884891888 -0.04724183498465075
-0.016342825458540357 -0.026768996970972323 -0.050015361680992486
-0.02068308885054249 -0.023276985057052755 -0.05278888837733422
-0.025023352242544625 -0.01978497314313319 -0.05556241507367595
-0.029363615634546755 -0.016292961229213622 -0.058335941770017684
-0.03370387902654889 -0.012800949315294057 -0.061109468466359416
-0.038044142418551016 -0.009308937401374489 -0.06388299516270116
-0.042384405810553145 -0.0058169254874549286 -0.06665652185904289
-0.003322035282533958 -0.037245032712731024 -0.04169478159196728
-0.008870140082701322 -0.03493797581675497 -0.043313579126966505
-0.014418244882868686 -0.03263091892077893 -0.04493237666196573
-0.019966349683036053 -0.030323862024802882 -0.046551174196964945
-0.025514454483203417 -0.028016805128826833 -0.04816997173196417
-0.031062559283370778 -0.02570974823285079 -0.04978876926696339
-0.03661066408353814 -0.023402691336874743 -0.051407566801962616
-0.04215876888370551 -0.021095634440898695 -0.05302636433696183
-0.04770687368387287 -0.018788577544922646 -0.05464516187196106
-0.05325497848404023 -0.0164815206489466 -0.05626395940696028
-0.003322035282533958 -0.037245032712731024 -0.04169478159196728
-0.00947675824805252 -0.0363729362470536 -0.04198342813447505
-0.015631481213571084 -0.035500839781376185 -0.04227207467698282
-0.021786204179089646 -0.03462874331569876 -0.04256072121949059
-0.027940927144608208 -0.033756646850021346 -0.04284936776199835
-0.03409565011012677 -0.03288455038434392 -0.043138014304506124
-0.04025037307564533 -0.03201245391866651 -0.04342666084701389
-0.04640509604116389 -0.031140357452989088 -0.04371530738952166
-0.052559819006682454 -0.030268260987311668 -0.044003953932029424
-0.05871454197220102 -0.02939616452163425 -0.044292600474537196
-0.003322035282533958 -0.037245032712731024 -0.04169478159196728
-0.009416416679723228 -0.03790240186137929 -0.04062199781029031
-0.015510798076912496 -0.03855977101002756 -0.039549214028613326
-0.02160517947410177 -0.03921714015867583 -0.03847643024693635
-0.027699560871291037 -0.0398745093073241 -0.03740364646525937
-0.03379394226848031 -0.04053187845597237 -0.03633086268358239
-0.03988832366566958 -0.04118924760462064 -0.03525807890190542
-0.045982705062858835 -0.04184661675326891 -0.034185295120228436
-0.05207708646004811 -0.042503985901917174 -0.03311251133855146
-0.05817146785723738 -0.043161355050565446 -0.03203972755687448
-0.003322035282533958 -0.037245032712731024 -0.04169478159196728
-0.008695654322937825 -0.03936063132831564 -0.039376820254805725
-0.014069273363341692 -0.04147622994390026 -0.03705885891764417
-0.01944289240374556 -0.04359182855948488 -0.034740897580482606
-0.02481651144414943 -0.0457074271750695 -0.03242293624332105
-0.030190130484553296 -0.047823025790654124 -0.03010497490615949
-0.03556374952495716 -0.049938624406238745 -0.027787013568997935
-0.040937368565361024 -0.052054223021823366 -0.02546905223183638
-0.046310987605764894 -0.05416982163740798 -0.02315109089467482
-0.05168460664616876 -0.05628542025299261 -0.020833129557513257
-0.003322035282533958 -0.037245032712731024 -0.04169478159196728
-0.007392576962834285 -0.0405896028583586 -0.03838282977707854
-0.011463118643134611 -0.043934173003986186 -0.0350708779621898
-0.015533660323434938 -0.04727874314961377 -0.03175892614730106
-0.019604202003735267 -0.050623313295241355 -0.028446974332412323
-0.023674743684035597 -0.05396788344086894 -0.025135022517523583
-0.02774528536433592 -0.05731245358649652 -0.021823070702634843
-0.031815827044636244 -0.0606570237321241 -0.0185111188877461
-0.03588636872493657 -0.06400159387775169 -0.015199167072857364
-0.0399569104052369 -0.06734616402337927 -0.01188721525796862
-0.003322035282533958 -0.037245032712731024 -0.04169478159196728
-0.005648393250708333 -0.04145613831676995 -0.03774774066872188
-0.00797475121888271 -0.04566724392080887 -0.033800699745476476
-0.010301109187057084 -0.049878349524847786 -0.029853658822231077
-0.01262746715523146 -0.054089455128886715 -0.025906617898985674
-0.014953825123405835 -0.05830056073292563 -0.021959576975740268
-0.01728018309158021 -0.06251166633696456 -0.018012536052494872
-0.01960654105975459 -0.06672277194100348 -0.014065495129249468
-0.021932899027928963 -0.0709338775450424 -0.010118454206004069
-0.02425925699610334 -0.07514498314908133 -0.006171413282758665
-0.003322035282533958 -0.037245032712731024 -0.04169478159196728
-0.003652112555567592 -0.0418663351409478 -0.037540374689049034
-0.0039821898286012255 -0.046487637569164575 -0.033385967786130795
-0.00431226710163486 -0.05110893999738134 -0.02923156088321255
-0.004642344374668494 -0.055730242425598125 -0.025077153980294302
-0.004972421647702128 -0.060351544853814894 -0.020922747077376055
-0.005302498920735762 -0.06497284728203166 -0.016768340174457816
-0.005632576193769397 -0.06959414971024844 -0.012613933271539564
-0.0059626534668030294 -0.07421545213846523 -0.008459526368621325
-0.006292730739836665 -0.07883675456668199 -0.004305119465703077
-0.003322035282533958 -0.037245032712731024 -0.04169478159196728
-0.0016200628662170603 -0.04177574214013297 -0.03778320315957226
8.190955009983721e-05 -0.04630645156753492 -0.033871624727177245
0.0017838819664167344 -0.05083716099493687 -0.029960046294782224
0.003485854382733632 -0.055367870422338816 -0.026048467862387202
0.005187826799050529 -0.05989857984974076 -0.022136889429992184
0.006889799215367426 -0.06442928927714271 -0.018225310997597163
0.008591771631684326 -0.06895999870454465 -0.014313732565202146
0.010293744048001223 -0.07349070813194661 -0.010402154132807125
0.011995716464318122 -0.07802141755934855 -0.006490575700412103
-0.003322035282533958 -0.037245032712731024 -0.04169478159196728
0.0002275517030025005 -0.04119417647165899 -0.03844991184763843
0.0037771386885389587 -0.04514332023058696 -0.03520504210330957
0.007326725674075419 -0.04909246398951493 -0.031960172358980715
0.010876312659611876 -0.0530416077484429 -0.02871530261465186
0.014425899645148338 -0.05699075150737087 -0.025470432870323006
0.017975486630684795 -0.06093989526629884 -0.02222556312599415
0.02152507361622125 -0.0648890390252268 -0.018980693381665296
0.025074660601757708 -0.06883818278415478 -0.015735823637336437
0.028624247587294167 -0.07278732654308274 -0.012490953893007589
-0.003322035282533958 -0.037245032712731024 -0.04169478159196728
0.0016905134448222706 -0.04018465979962613 -0.039468252521844376
0.006703062172178499 -0.043124286886521236 -0.03724172345172148
0.011715610899534731 -0.046063913973416346 -0.03501519438159857
0.016728159626890955 -0.049003541060311455 -0.032788665311475666
0.02174070835424719 -0.051943168147206564 -0.030562136241352764
0.026753257081603418 -0.054882795234101674 -0.028335607171229862
0.03176580580895964 -0.057822422320996776 -0.02610907810110696
0.03677835453631587 -0.06076204940789189 -0.023882549030984055
0.041790903263672116 -0.063701676494787 -0.02165601996086115
-0.003322035282533958 -0.037245032712731024 -0.04169478159196728
0.0026102877543257765 -0.03885658891971426 -0.04072787216895629
0.008542610791185512 -0.0404681451266975 -0.0397609627459453
0.014474933828045244 -0.04207970133368073 -0.038794053322934306
0.02040725686490498 -0.04369125754066397 -0.03782714389992332
0.026339579901764713 -0.045302813747647205 -0.03686023447691233
0.03227190293862445 -0.04691436995463044 -0.03589332505390134
0.03820422597548419 -0.048525926161613685 -0.03492641563089035
0.04413654901234392 -0.05013748236859692 -0.03395950620787935
0.05006887204920365 -0.05174903857558016 -0.032992596784868364
-0.003322035282533958 -0.037245032712731024 -0.04169478159196728
0.0028872028133094243 -0.03735388091890476 -0.04209227145519697
0.009096440909152808 -0.037462729125078496 -0.042489761318426654
0.015305679004996188 -0.037571577331252236 -0.042887251181656344
0.02151491710083957 -0.03768042553742597 -0.043284741044886034
0.02772415519668295 -0.03778927374359971 -0.04368223090811572
0.033933393292526336 -0.03789812194977344 -0.04407972077134541
0.040142631388369716 -0.03800697015594718 -0.0444772106345751
0.046351869484213104 -0.03811581836212092 -0.04487470049780478
0.05256110758005648 -0.03822466656829465 -0.04527219036103447
0.003322035282533958 0.037245032712731024 0.04169478159196728
0.00953127337837734 0.037136184506557285 0.04129729172873759
0.015740511474220724 0.03702733630038355 0.04089980186550791
0.021949749570064105 0.03691848809420981 0.04050231200227822
0.02815898766590749 0.03680963988803608 0.04010482213904853
0.034368225761750866 0.03670079168186234 0.03970733227581884
0.04057746385759425 0.03659194347568861 0.039309842412589155
0.04678670195343763 0.03648309526951487 0.038912352549359465
0.052995940049281015 0.036374247063341136 0.038514862686129775
0.05920517814512439 0.0362653988571674 0.038117372822900085
0.003322035282533958 0.037245032712731024 0.04169478159196728
0.0091353211434204 0.03865068789945965 0.03997596663686856
0.014948607004306842 0.04005634308618827 0.03825715168176984
0.020761892865193286 0.0414619982729169 0.03653833672667112
0.02657517872607973 0.04286765345964553 0.03481952177157239
0.03238846458696617 0.04427330864637415 0.03310070681647367
0.03820175044785261 0.04567896383310278 0.031381891861374946
0.044015036308739056 0.04708461901983141 0.02966307690627622
0.049828322169625495 0.04849027420656003 0.0279442619511775
0.05564160803051193 0.04989592939328866 0.026225446996078778
0.003322035282533958 0.037245032712731024 0.04169478159196728
0.008109409183012405 0.04001286674189248 0.03884090181554642
0.012896783083490853 0.042780700771053934 0.035987022039125564
0.017684156983969298 0.04554853480021539 0.0331331422627047
0.02247153088444775 0.04831636882937684 0.03027926248628384
0.027258904784926197 0.0510842028585383 0.027425382709862983
0.03204627868540463 0.05385203688769976 0.02457150293344212
0.03683365258588309 0.056619870916861215 0.02171762315702126
0.04162102648636154 0.05938770494602267 0.018863743380600397
0.046408400386839986 0.062155538975184124 0.01600986360417954
0.003322035282533958 0.037245032712731024 0.04169478159196728
0.006564710976727784 0.04107510781989568 0.0380150991505068
0.00980738667092161 0.04490518292706034 0.03433541670904632
0.013050062365115436 0.048735258034224994 0.03065573426758584
0.016292738059309263 0.052565333141389656 0.026976051826125357
0.019535413753503095 0.05639540824855432 0.023296369384664874
0.022778089447696916 0.06022548335571897 0.019616686943204398
0.026020765141890737 0.06405555846288363 0.01593700450174391
0.029263440836084568 0.06788563357004829 0.012257322060283434
0.03250611653027839 0.07171570867721294 0.008577639618822951
0.003322035282533958 0.037245032712731024 0.04169478159196728
0.0046686185436797005 0.04172230083029904 0.03758804717415532
0.006015201804825442 0.046199568947867066 0.03348131275634336
0.007361785065971183 0.05067683706543509 0.029374578338531406
0.008708368327116927 0.055154105183003115 0.025267843920719447
0.010054951588262667 0.05963137330057114 0.021161109502907487
0.011401534849408408 0.06410864141813916 0.01705437508509553
0.012748118110554152 0.06858590953570719 0.012947640667283577
0.014094701371699894 0.0730631776532752 0.008840906249471614
0.015441284632845635 0.07754044577084324 0.004734171831659661
0.003322035282533958 0.037245032712731024 0.04169478159196728
0.0026266029198943547 0.04188431236819112 0.03760602359452383
0.0019311705572547515 0.04652359202365123 0.03351726559708037
0.0012357381946151481 0.05116287167911133 0.029428507599636916
0.0005403058319755451 0.05580215133457144 0.025339749602193457
-0.00015512653066405827 0.06044143099003154 0.021250991604750004
-0.0008505588933036617 0.06508071064549165 0.01716223360730655
-0.001545991255943265 0.06971999030095175 0.01307347560986309
-0.0022414236185828674 0.07435926995641186 0.008984717612419634
-0.0029368559812224717 0.07899854961187196 0.00489595961497618
0.003322035282533958 0.037245032712731024 0.04169478159196728
0.0006599481833459264 0.04154358596957329 0.03806708038753248
-0.002002138915842105 0.04584213922641556 0.034439379183097675
-0.004664226015030135 0.05014069248325783 0.030811677978662876
-0.007326313114218168 0.054439245740100096 0.027183976774228073
-0.009988400213406199 0.05873779899694237 0.023556275569793266
-0.012650487312594228 0.06303635225378464 0.01992857436535847
-0.015312574411782262 0.0673349055106269 0.01630087316092367
-0.017974661510970293 0.07163345876746917 0.012673171956488866
-0.020636748610158323 0.07593201202431145 0.00904547075205406
0.003322035282533958 0.037245032712731024 0.04169478159196728
-0.0010182281094681747 0.040737044626650586 0.03892125489562555
-0.005358491501470307 0.044229056540570154 0.036147728199283816
-0.00969875489347244 0.04772106845448972 0.03337420150294208
-0.014039018285474573 0.05121308036840929 0.030600674806600347
-0.018379281677476707 0.05470509228232885 0.027827148110258614
-0.022719545069478837 0.05819710419624842 0.025053621413916878
-0.02705980846148097 0.06168911611016799 0.022280094717575145
-0.031400071853483105 0.06518112802408756 0.01950656802123341
-0.035740335245485234 0.06867313993800711 0.01673304132489168
0.003322035282533958 0.037245032712731024 0.04169478159196728
-0.0022260695176334064 0.03955208960870707 0.04007598405696806
-0.007774174317800771 0.041859146504683115 0.03845718652196884
-0.013322279117968136 0.04416620340065916 0.03683838898696962
-0.0188703839181355 0.04647326029663521 0.03521959145197039
-0.02441848871830286 0.04878031719261126 0.03360079391697117
-0.029966593518470228 0.0510873740885873 0.03198199638197195
-0.0355146983186376 0.05339443098456335 0.03036319884697273
-0.04106280311880496 0.0557014878805394 0.028744401311973505
-0.04661090791897232 0.058008544776515444 0.027125603776974285
0.003322035282533958 0.037245032712731024 0.04169478159196728
-0.002832687682984604 0.03811712917840844 0.041406135049459517
-0.008987410648503167 0.038989225644085856 0.041117488506951745
-0.01514213361402173 0.03986132210976328 0.04082884196444398
-0.02129685657954029 0.040733418575440695 0.04054019542193621
-0.027451579545058852 0.04160551504111812 0.04025154887942844
-0.03360630251057742 0.042477611506795535 0.03996290233692067
-0.03976102547609598 0.04334970797247296 0.0396742557944129
-0.04591574844161454 0.044221804438150374 0.03938560925190514
-0.05207047140713311 0.0450939009038278 0.03909696270939737
0.003322035282533958 0.037245032712731024 0.04169478159196728
-0.0027723461146553115 0.03658766356408275 0.04276756537364426
-0.008866727511844582 0.03593029441543448 0.043840349155321236
-0.014961108909033854 0.035272925266786215 0.04491313293699822
-0.02105549030622312 0.03461555611813794 0.04598591671867519
-0.02714987170341239 0.03395818696948968 0.04705870050035217
-0.03324425310060167 0.033300817820841405 0.048131484282029145
-0.039338634497790924 0.03264344867219314 0.049204268063706126
-0.0454330158949802 0.03198607952354487 0.0502770518453831
-0.05152739729216947 0.031328710374896596 0.05134983562706008
0.003322035282533958 0.037245032712731024 0.04169478159196728
-0.0020515837578699092 0.0351294340971464 0.04401274292912884
-0.007425202798273777 0.03301383548156178 0.0463307042662904
-0.012798821838677645 0.03089823686597716 0.048648665603451956
-0.01817244087908151 0.028782638250392543 0.05096662694061351
-0.023546059919485378 0.026667039634807918 0.053284588277775075
-0.028919678959889245 0.0245514410192233 0.05560254961493663
-0.03429329800029311 0.02243584240363868 0.057920510952098186
-0.03966691704069698 0.02032024378805406 0.06023847228925974
-0.04504053608110085 0.018204645172469437 0.06255643362642131
0.003322035282533958 0.037245032712731024 0.04169478159196728
-0.000748506397766369 0.03390046256710344 0.04500673340685602
-0.004819048078066696 0.030555892421475855 0.04831868522174476
-0.008889589758367024 0.027211322275848274 0.0516306370366335
-0.01296013143866735 0.02386675213022069 0.05494258885152224
-0.01703067311896768 0.020522181984593105 0.05825454066641098
-0.021101214799268003 0.017177611838965524 0.06156649248129972
-0.025171756479568326 0.01383304169333794 0.06487844429618847
-0.029242298159868656 0.010488471547710359 0.0681903961110772
-0.03331283984016899 0.007143901402082779 0.07150234792596595
0.003322035282533958 0.037245032712731024 0.04169478159196728
0.0009956773143595824 0.0330339271086921 0.045641822515212684
-0.0013306806538147932 0.028822821504653175 0.049588863438458086
-0.003657038621989168 0.024611715900614256 0.05353590436170349
-0.005983396590163544 0.02040061029657533 0.05748294528494889
-0.00830975455833792 0.01618950469253641 0.061429986208194294
-0.010636112526512295 0.011978399088497488 0.0653770271314397
-0.012962470494686672 0.0077672934844585624 0.06932406805468509
-0.015288828462861047 0.0035561878804196393 0.0732711089779305
-0.01761518643103542 -0.0006549177236192903 0.0772181499011759
0.003322035282533958 0.037245032712731024 0.04169478159196728
0.002991958009500324 0.03262373028451425 0.04584918849488553
0.00266188073646669 0.02800242785629747 0.050003595397803774
0.0023318034634330557 0.023381125428080702 0.054158002300722013
0.002001726190399422 0.01875982299986392 0.05831240920364026
0.0016716489173657877 0.014138520571647148 0.062466816106558506
0.0013415716443321536 0.00951721814343038 0.06662122300947675
0.0010114943712985194 0.004895915715213602 0.070775629912395
0.0006814170982648862 0.0002746132869968192 0.07493003681531324
0.00035133982523125116 -0.004346689141219949 0.07908444371823149
0.003322035282533958 0.037245032712731024 0.04169478159196728
0.005024007698850855 0.032714323285329076 0.0456063600243623
0.006725980115167753 0.028183613857927125 0.049517938456757324
0.00842795253148465 0.023652904430525177 0.05342951688915234
0.010129924947801548 0.01912219500312323 0.05734109532154736
0.011831897364118445 0.014591485575721284 0.06125267375394238
0.013533869780435342 0.010060776148319333 0.0651642521863374
0.01523584219675224 0.005530066720917386 0.06907583061873242
0.01693781461306914 0.0009993572935154376 0.07298740905112744
0.018639787029386037 -0.0035313521338865106 0.07689898748352246
0.003322035282533958 0.037245032712731024 0.04169478159196728
0.0068716222680704165 0.03329588895380305 0.04493965133629614
0.010421209253606874 0.029346745194875082 0.048184521080624994
0.013970796239143334 0.025397601435947114 0.05142939082495385
0.017520383224679793 0.021448457677019143 0.05467426056928271
0.021069970210216254 0.017499313918091175 0.05791913031361156
0.024619557195752713 0.013550170159163207 0.06116400005794041
0.028169144181289168 0.009601026400235236 0.06440886980226927
0.03171873116682562 0.0056518826413072655 0.06765373954659813
0.03526831815236208 0.001702738882379301 0.07089860929092698
0.003322035282533958 0.037245032712731024 0.04169478159196728
0.008334584009890187 0.034305405625835915 0.043921310662090186
0.013347132737246414 0.031365778538940806 0.04614783973221309
0.018359681464602647 0.028426151452045696 0.04837436880233599
0.023372230191958873 0.025486524365150587 0.050600897872458896
0.02838477891931511 0.02254689727825548 0.0528274269425818
0.03339732764667133 0.01960727019136037 0.0550539560127047
0.038409876374027555 0.016667643104465266 0.057280485082827605
0.043422425101383784 0.013728016017570153 0.05950701415295051
0.04843497382874003 0.010788388930675047 0.061733543223073416
0.003322035282533958 0.037245032712731024 0.04169478159196728
0.009254358319393693 0.03563347650574778 0.04266169101497827
0.015186681356253427 0.034021920298764545 0.043628600437989266
0.02111900439311316 0.03241036409178131 0.044595509861000256
0.027051327429972898 0.030798807884798073 0.045562419284011245
0.03298365046683263 0.029187251677814836 0.04652932870702224
0.03891597350369236 0.0275756954708316 0.04749623813003323
0.0448482965405521 0.02596413926384836 0.04846314755304422
0.05078061957741183 0.024352583056865124 0.04943005697605521
0.05671294261427156 0.022741026849881885 0.050396966399066205
0.003322035282533958 0.037245032712731024 0.04169478159196728
0.00953127337837734 0.037136184506557285 0.0412972917287376
0.015740511474220724 0.037027336300383545 0.04089980186550791
0.021949749570064105 0.03691848809420981 0.04050231200227822
0.02815898766590749 0.03680963988803607 0.040104822139048535
0.034368225761750866 0.036700791681862334 0.039707332275818845
0.04057746385759425 0.0365919434756886 0.039309842412589155
0.04678670195343763 0.03648309526951486 0.03891235254935947
0.052995940049281015 0.03637424706334112 0.03851486268612978
0.05920517814512439 0.03626539885716739 0.0381173728229001
