# .PCD v0.7 - Point Cloud Data file format
VERSION 0.7
FIELDS x y z
SIZE 4 4 4
TYPE F F F
COUNT 1 1 1
WIDTH 700
HEIGHT 1
VIEWPOINT 0 0 0 1 0 0 0
POINTS 700
DATA ascii
0.09911838339744843 -0.05395301334550305 -0.011139041076847433
0.10458715326011486 -0.03949733661470676 -0.018998620628484966
0.10677193354616203 -0.025261895887988866 -0.02865398114492424
0.10557056635762326 -0.011912324552174714 -0.039653648699579006
0.10103922628901088 -7.283372594408113e-05 -0.051483291062846014
0.09338979376571045 0.009702975158317442 -0.0635897673055221
0.08297994775077787 0.016957996142212984 -0.07540699205388163
0.07029644107415854 0.02135299250791225 -0.08638240501259328
0.05593234041134597 0.02268245911004282 -0.09600280807000311
0.04055929514478202 0.02088423156788499 -0.10381836187145663
0.024896131785218642 0.016042393002723785 -0.10946361980756204
0.00967524244299321 0.008383342404549018 -0.1126746158914806
-0.004391661013055248 -0.0017347915330919908 -0.11330120751509415
-0.016646825811562186 -0.013838896112773311 -0.11131409595048902
-0.02651721406718679 -0.027362996857095027 -0.10680619632591033
-0.03354129739524473 -0.041674721846211106 -0.09998829301763275
-0.037390637466023884 -0.05610487072597032 -0.0911791836067961
-0.03788524341604884 -0.06997870577271371 -0.08079077225882915
-0.035001988020811454 -0.08264750187931567 -0.06930880954247293
-0.02887568909808483 -0.0935188802201871 -0.05727017927305927
-0.019792805576603446 -0.10208450722677803 -0.04523779442200938
-0.008178042994931791 -0.10794386370027095 -0.033774275931923094
0.005425505257492627 -0.11082297264417226 -0.023415645186611184
0.020381752383644376 -0.11058721012416498 -0.014646260246933204
0.03599136089057937 -0.10724760013365335 -0.007876167806197196
0.05152444283334713 -0.10096029912408382 -0.003421929862514647
0.06625468856408447 -0.09201929430283066 -0.0014918216316022746
0.07949332816391431 -0.08084265711812261 -0.0021760928291762807
0.09062133755883985 -0.06795299470277648 -0.0054427476945509215
0.09911838339744841 -0.053953013345503065 -0.011139041076847427
0.09148399668466915 -0.04412915297571848 0.0016173468597578033
0.09695276654733559 -0.02967347624492219 -0.006242232691879729
0.09913754683338276 -0.0154380355182043 -0.015897593208319006
0.09793617964484398 -0.002088464182390148 -0.02689726076297377
0.09340483957623161 0.009751026643840486 -0.038726903126240775
0.08575540705293118 0.019526835528102006 -0.05083337936891687
0.0753455610379986 0.026781856511997548 -0.0626506041172764
0.06266205436137927 0.031176852877696816 -0.07362601707598804
0.048297953698566695 0.032506319479827385 -0.08324642013339788
0.03292490843200275 0.030708091937669553 -0.0910619739348514
0.017261745072439365 0.02586625337250835 -0.09670723187095681
0.0020408557302139365 0.018207202774333582 -0.09991822795487537
-0.01202604772583452 0.008089068836692576 -0.10054481957848892
-0.024281212524341463 -0.004015035742988745 -0.09855770801388379
-0.03415160077996607 -0.017539136487310463 -0.0940498083893051
-0.041175684108024004 -0.03185086147642654 -0.08723190508102752
-0.04502502417880316 -0.04628101035618575 -0.07842279567019086
-0.04551963012882811 -0.06015484540292914 -0.06803438432222392
-0.04263637473359073 -0.0728236415095311 -0.056552421605867695
-0.03651007581086411 -0.08369501985040254 -0.044513791336454035
-0.027427192289382722 -0.09226064685699346 -0.032481406485404145
-0.015812429707711066 -0.09812000333048639 -0.02101788799531786
-0.002208881455286647 -0.1009991122743877 -0.010659257250005947
0.012747365670865101 -0.10076334975438041 -0.0018898723103279674
0.02835697417780009 -0.09742373976386878 0.004880220130408041
0.04389005612056786 -0.09113643875429925 0.00933445807409059
0.058620301851305186 -0.0821954339330461 0.011264566305002962
0.07185894145113504 -0.07101879674833804 0.010580295107428956
0.08298695084606057 -0.05812913433299192 0.0073136402420543156
0.09148399668466914 -0.044129152975718504 0.0016173468597578103
0.08384960997188988 -0.03430529260593393 0.01437373479636303
0.08931837983455632 -0.01984961587513763 0.0065141552447254975
0.09150316012060349 -0.005614175148419741 -0.0031412052717137776
0.09030179293206471 0.007735396187394411 -0.014140872826368542
0.08577045286345233 0.019574887013625045 -0.02597051518963555
0.0781210203401519 0.029350695897886567 -0.03807699143231164
0.06771117432521932 0.03660571688178211 -0.04989421618067117
0.055027667648599995 0.04100071324748138 -0.06086962913938282
0.04066356698578743 0.042330179849611946 -0.07049003219679265
0.02529052171922348 0.040531952307454114 -0.07830558599824616
0.009627358359660098 0.03569011374229291 -0.08395084393435158
-0.005593530982565331 0.028031063144118143 -0.08716184001827015
-0.01966043443861379 0.017912929206477135 -0.08778843164188369
-0.03191559923712073 0.005808824626795814 -0.08580132007727857
-0.041785987492745334 -0.007715276117525902 -0.08129342045269987
-0.04881007082080327 -0.02202700110664198 -0.0744755171444223
-0.05265941089158242 -0.03645714998640119 -0.06566640773358563
-0.05315401684160738 -0.050330985033144586 -0.05527799638561869
-0.050270761446369994 -0.06299978113974655 -0.04379603366926247
-0.044144462523643374 -0.07387115948061798 -0.03175740339984881
-0.03506157900216199 -0.08243678648720891 -0.019725018548798916
-0.023446816420490332 -0.08829614296070183 -0.00826150005871263
-0.009843268168065916 -0.09117525190460314 0.00209713068659928
0.005112978958085833 -0.09093948938459585 0.01086651562627726
0.020722587465020825 -0.08759987939408423 0.017636608067013268
0.036255669407788585 -0.0813125783845147 0.022090846010695817
0.05098591513852592 -0.07237157356326154 0.02402095424160819
0.06422455473835577 -0.061194936378553486 0.023336683044034183
0.0753525641332813 -0.04830527396320736 0.020070028178659542
0.08384960997188987 -0.03430529260593394 0.014373734796363037
0.0762152232591106 -0.02448143223614936 0.027130122732968266
0.08168399312177704 -0.010025755505353066 0.019270543181330733
0.08386877340782421 0.0042096852213648235 0.009615182664891456
0.08266740621928544 0.017559256557178975 -0.0013844848897633078
0.07813606615067306 0.02939874738340961 -0.013214127253030316
0.07048663362737263 0.039174556267671135 -0.025320603495706404
0.06007678761244005 0.04642957725156668 -0.03713782824406594
0.04739328093582072 0.050824573617265945 -0.04811324120277758
0.033029180273008156 0.052154040219396514 -0.057733644260187414
0.017656135006444206 0.05035581267723868 -0.06554919806164093
0.001992971646880826 0.04551397411207748 -0.07119445599774635
-0.013227917695344604 0.03785492351390271 -0.07440545208166491
-0.02729482115139306 0.0277367895762617 -0.07503204370527845
-0.0395499859499 0.015632684996580378 -0.07304493214067333
-0.04942037420552461 0.002108584252258662 -0.06853703251609464
-0.05644445753358254 -0.012203140736857417 -0.06171912920781706
-0.060293797604361696 -0.026633289616616627 -0.0529100197969804
-0.06078840355438665 -0.04050712466336002 -0.042521608449013454
-0.05790514815914927 -0.053175920769961985 -0.031039645732657235
-0.05177884923642265 -0.06404729911083341 -0.01900101546324357
-0.04269596571494126 -0.07261292611742434 -0.006968630612193682
-0.031081203133269605 -0.07847228259091726 0.0044948878778926045
-0.017477654880845187 -0.08135139153481857 0.014853518623204514
-0.00252140775469344 -0.08111562901481129 0.023622903562882495
0.013088200752241552 -0.07777601902429966 0.030392996003618503
0.028621282695009315 -0.07148871801473013 0.03484723394730105
0.04335152842574665 -0.06254771319347698 0.03677734217821342
0.056590168025576496 -0.05137107600876892 0.036093070980639415
0.06771817742050203 -0.03848141359342279 0.032826416115264774
0.07621522325911059 -0.024481432236149375 0.027130122732968272
0.06858083654633133 -0.014657571866364795 0.0398865106695735
0.07404960640899777 -0.00020189513556849987 0.03202693111793597
0.07623438669504494 0.01403354559114939 0.022371570601496693
0.07503301950650616 0.02738311692696354 0.011371903046841927
0.07050167943789379 0.03922260775319417 -0.0004577393164250804
0.06285224691459336 0.048998416637455695 -0.01256421555910117
0.05244240089966078 0.05625343762135124 -0.0243814403074607
0.03975889422304145 0.060648433987050505 -0.03535685326617235
0.025394793560228883 0.061977900589181074 -0.044977256323582175
0.010021748293664933 0.06017967304702324 -0.05279281012503569
-0.005641415065898447 0.05533783448186204 -0.05843806806114111
-0.020862304408123877 0.04767878388368727 -0.061649064145059676
-0.034929207864172335 0.037560649946046264 -0.062275655768673215
-0.047184372662679275 0.025456545366364942 -0.060288544204068095
-0.05705476091830388 0.011932444622043228 -0.0557806445794894
-0.06407884424636182 -0.0023792803670728514 -0.04896274127121182
-0.06792818431714097 -0.016809429246832062 -0.04015363186037516
-0.06842279026716593 -0.030683264293575454 -0.02976522051240822
-0.06553953487192854 -0.043352060400177424 -0.018283257796052
-0.05941323594920192 -0.054223438741048846 -0.006244627526638337
-0.050330352427720534 -0.06278906574763977 0.005787757324411553
-0.03871558984604888 -0.0686484222211327 0.01725127581449784
-0.02511204159362446 -0.071527531165034 0.02760990655980975
-0.010155794467472713 -0.07129176864502672 0.03637929149948773
0.0054538140394622785 -0.0679521586545151 0.04314938394022374
0.020986895982230042 -0.06166485764494556 0.04760362188390629
0.035717141712967374 -0.05272385282369241 0.04953373011481866
0.04895578131279722 -0.04154721563898436 0.048849458917244654
0.06008379070772275 -0.02865755322363823 0.04558280405187001
0.06858083654633132 -0.014657571866364811 0.03988651066957351
0.06094644983355206 -0.004833711496580231 0.05264289860617873
0.0664152196962185 0.009621965234216065 0.0447833190545412
0.06859999998226567 0.023857405960933956 0.035127958538101925
0.06739863279372689 0.03720697729674811 0.02412829098344716
0.06286729272511452 0.04904646812297874 0.012298648620180154
0.05521786020181409 0.05882227700724026 0.00019217237750406477
0.044808014186881504 0.0660772979911358 -0.011625052370855466
0.032124507510262176 0.07047229435683507 -0.022600465329567113
0.01776040684744961 0.07180176095896564 -0.03222086838697694
0.0023873615808856605 0.0700035334168078 -0.04003642218843046
-0.01327580177867772 0.0651616948516466 -0.04568168012453588
-0.02849669112090315 0.05750264425347184 -0.048892676208454444
-0.04256359457695161 0.04738451031583083 -0.04951926783206798
-0.05481875937545855 0.03528040573614951 -0.04753215626746286
-0.06468914763108315 0.021756304991827794 -0.043024256642884166
-0.07171323095914109 0.007444580002711713 -0.03620635333460659
-0.07556257102992024 -0.006985568877047496 -0.02739724392376993
-0.0760571769799452 -0.020859403923790886 -0.017008832575802987
-0.07317392158470781 -0.033528200030392856 -0.005526869859446767
-0.0670476226619812 -0.04439957837126428 0.0065117604099668965
-0.05796473914049981 -0.05296520537785521 0.018544145261016786
-0.04634997655882815 -0.058824561851348135 0.030007663751103072
-0.03274642830640373 -0.061703670795249445 0.04036629449641498
-0.017790181180251986 -0.06146790827524216 0.04913567943609296
-0.002180572673316994 -0.05812829828473053 0.05590577187682897
0.01335250926945077 -0.05184099727516099 0.06036000982051152
0.0280827550001881 -0.04289999245390784 0.06229011805142389
0.04132139460001795 -0.03172335526919979 0.061605846853849885
0.05244940399494348 -0.01883369285385366 0.058339191988475245
0.06094644983355205 -0.004833711496580247 0.05264289860617874
0.053312063120772794 0.004990148873204329 0.06539928654278396
0.05878083298343923 0.019445825604000624 0.05753970699114643
0.0609656132694864 0.033681266330718516 0.04788434647470716
0.059764246080947624 0.04703083766653267 0.03688467892005239
0.05523290601233525 0.0588703284927633 0.02505503655678538
0.04758347348903482 0.06864613737702482 0.012948560314109292
0.03717362747410224 0.07590115836092036 0.0011313355657497609
0.024490120797482907 0.08029615472661963 -0.009844077392961885
0.010126020134670342 0.0816256213287502 -0.019464480450371715
-0.005247025131893609 0.07982739378659237 -0.027280034251825232
-0.02091018849145699 0.07498555522143116 -0.032925292187930645
-0.03613107783368242 0.0673265046232564 -0.03613628827184921
-0.050197981289730874 0.05720837068561539 -0.03676287989546275
-0.062453146088237814 0.04510426610593407 -0.03477576833085763
-0.07232353434386242 0.03158016536161235 -0.030267868706278938
-0.07934761767192036 0.017268440372496273 -0.02344996539800136
-0.08319695774269951 0.0028382914927370636 -0.014640855987164702
-0.08369156369272447 -0.011035543554006327 -0.004252444639197757
-0.08080830829748709 -0.0237043396606083 0.007229518077158462
-0.07468200937476047 -0.03457571800147972 0.019268148346572124
-0.06559912585327908 -0.043141345008070646 0.031300533197622014
-0.05398436327160742 -0.049000701481563574 0.042764051687708304
-0.040380815019183 -0.051879810425464884 0.053122682433020214
-0.025424567893031255 -0.051644047905457596 0.061892067372698194
-0.009814959386096262 -0.04830443791494597 0.0686621598134342
0.0057181225566715005 -0.04201713690537643 0.07311639775711674
0.02044836828740883 -0.03307613208412328 0.07504650598802912
0.03368700788723868 -0.021899494899415232 0.07436223479045512
0.044815017282164214 -0.009009832484069101 0.07109557992508048
0.05331206312077278 0.004990148873204313 0.06539928654278397
0.04567767640799352 0.014814009242988896 0.0781556744793892
0.05114644627065996 0.02926968597378519 0.07029609492775167
0.05333122655670713 0.04350512670050308 0.06064073441131239
0.05212985936816835 0.05685469803631723 0.049641066856657624
0.047598519299555976 0.06869418886254787 0.037811424493390616
0.03994908677625555 0.07846999774680939 0.02570494825071453
0.02953924076132296 0.08572501873070493 0.013887723502354997
0.016855734084703634 0.0901200150964042 0.0029123105436433525
0.0024916334218910677 0.09144948169853477 -0.006708092513766478
-0.012881411844672883 0.08965125415637694 -0.014523646315219995
-0.028544575204236262 0.08480941559121573 -0.02016890425132541
-0.04376546454646169 0.07715036499304097 -0.023379900335243977
-0.05783236800251015 0.06703223105539996 -0.024006491958857516
-0.0700875328010171 0.05492812647571863 -0.022019380394252396
-0.07995792105664169 0.04140402573139692 -0.0175114807696737
-0.08698200438469963 0.02709230074228084 -0.010693577461396124
-0.09083134445547879 0.01266215186252163 -0.0018844680505594644
-0.09132595040550374 -0.0012116831842217612 0.008503943297407479
-0.08844269501026636 -0.01388047929082373 0.0199859060137637
-0.08231639608753974 -0.024751857631695153 0.03202453628317736
-0.07323351256605835 -0.033317484638286085 0.04405692113422725
-0.06161874998438669 -0.039176841111779014 0.055520439624313536
-0.048015201731962276 -0.04205595005568032 0.06587907036962545
-0.03305895460581053 -0.041820187535673035 0.07464845530930343
-0.017449346098875537 -0.03848057754516141 0.08141854775003944
-0.001916264156107773 -0.03219327653559187 0.08587278569372199
0.012813981574629558 -0.023252271714338715 0.08780289392463436
0.026052621174459407 -0.012075634529630664 0.08711862272706035
0.03718063056938494 0.0008140278857154646 0.08385196786168571
0.04567767640799351 0.01481400924298888 0.0781556744793892
0.03804328969521425 0.02463786961277346 0.09091206241599444
0.043512059557880685 0.039093546343569756 0.0830524828643569
0.045696839843927854 0.053328987070287645 0.07339712234791762
0.04449547265538908 0.06667855840610179 0.062397454793262856
0.0399641325867767 0.07851804923233242 0.05056781242999585
0.032314700063476275 0.08829385811659395 0.03846133618731976
0.02190485404854369 0.0955488791004895 0.02664411143896023
0.009221347371924362 0.09994387546618876 0.015668698480248586
-0.005142753290888203 0.10127334206831932 0.006048295422838754
-0.020515798557452152 0.09947511452616149 -0.0017672583786147633
-0.036178961917015535 0.0946332759610003 -0.00741251631472018
-0.051399851259240965 0.08697422536282552 -0.010623512398638747
-0.06546675471528943 0.07685609142518451 -0.011250104022252285
-0.07772191951379637 0.06475198684550319 -0.009262992457647166
-0.08759230776942097 0.05122788610118148 -0.004755092833068469
-0.09461639109747891 0.0369161611120654 0.002062810475209108
-0.09846573116825806 0.022486012232306195 0.010871919886045767
-0.09896033711828302 0.008612177185562802 0.021260331234012712
-0.09607708172304563 -0.004056618921039168 0.03274229395036893
-0.08995078280031901 -0.01492799726191059 0.044780924219782595
-0.08086789927883763 -0.023493624268501517 0.056813309070832485
-0.06925313669716597 -0.029352980741994446 0.06827682756091877
-0.05564958844474155 -0.032232089685895755 0.07863545830623068
-0.0406933413185898 -0.03199632716588847 0.08740484324590866
-0.025083732811654807 -0.028656717175376843 0.09417493568664467
-0.009550650868887045 -0.0223694161658073 0.09862917363032722
0.005179594861850287 -0.013428411344554152 0.1005592818612396
0.018418234461680137 -0.0022517741598461014 0.09987501066366558
0.029546243856605668 0.010637888255500027 0.09660835579829094
0.038043289695214234 0.024637869612773443 0.09091206241599444
0.03040890298243497 0.034461729982558024 0.10366845035259967
0.03587767284510141 0.048917406713354324 0.09580887080096213
0.03806245313114858 0.06315284744007221 0.08615351028452285
0.036861085942609804 0.07650241877588636 0.0751538427298681
0.03232974587399743 0.08834190960211699 0.06332420036660108
0.024680313350696998 0.09811771848637851 0.051217724123924994
0.014270467335764416 0.10537273947027406 0.039400499375565466
0.0015869606591450893 0.10976773583597332 0.02842508641685382
-0.012777140003667477 0.11109720243810389 0.01880468335944399
-0.02815018527023143 0.10929897489594606 0.010989129557990474
-0.04381334862979481 0.10445713633078486 0.005343871621885057
-0.05903423797202024 0.09679808573261009 0.00213287553796649
-0.0731011414280687 0.08667995179496908 0.0015062839143529514
-0.08535630622657564 0.07457584721528776 0.003493395478958071
-0.09522669448220024 0.06105174647096605 0.008001295103536768
-0.10225077781025818 0.04674002148184997 0.014819198411814345
-0.10610011788103733 0.03230987260209076 0.023628307822651004
-0.10659472383106229 0.018436037555347368 0.034016719170617944
-0.1037114684358249 0.005767241448745399 0.04549868188697417
-0.09758516951309829 -0.005104136892126024 0.057537312156387826
-0.0885022859916169 -0.013669763898716953 0.06956969700743772
-0.07688752340994524 -0.01952912037220988 0.081033215497524
-0.06328397515752082 -0.02240822931611119 0.09139184624283592
-0.048327728031369074 -0.022172466796103903 0.1001612311825139
-0.03271811952443408 -0.01883285680559228 0.1069313236232499
-0.01718503758166632 -0.012545555796022737 0.11138556156693245
-0.0024547918509289866 -0.003604550974769585 0.11331566979784483
0.010783847748900862 0.0075720862099384655 0.11263139860027081
0.02191185714382639 0.020461748625284593 0.10936474373489617
0.030408902982434958 0.03446172998255801 0.10366845035259967
0.03435474020750672 -0.04420737166403054 -0.05740374571472355
0.04155070056194469 -0.045290220739749705 -0.05226322297718176
0.04874666091638266 -0.046373069815468876 -0.047122700239639964
0.05594262127082062 -0.04745591889118804 -0.04198217750209818
0.0631385816252586 -0.04853876796690721 -0.036841654764556385
0.07033454197969656 -0.04962161704262638 -0.03170113202701459
0.07753050233413453 -0.050704466118345545 -0.026560609289472806
0.0847264626885725 -0.051787315194064716 -0.02142008655193102
0.09192242304301046 -0.05287016426978389 -0.01627956381438922
0.09911838339744843 -0.05395301334550305 -0.011139041076847433
0.03435474020750672 -0.04420737166403054 -0.05740374571472355
0.04233271998805825 -0.04284374341595207 -0.05367926747196707
0.05031069976860978 -0.04148011516787359 -0.04995478922921059
0.05828867954916131 -0.040116486919795115 -0.046230310986454116
0.06626665932971285 -0.03875285867171664 -0.04250583274369763
0.07424463911026437 -0.03738923042363817 -0.038781354500941154
0.08222261889081589 -0.036025602175559696 -0.035056876258184676
0.09020059867136743 -0.03466197392748122 -0.031332398015428184
0.09817857845191896 -0.03329834567940275 -0.027607919772671713
0.10615655823247049 -0.031934717431324276 -0.023883441529915235
0.03435474020750672 -0.04420737166403054 -0.05740374571472355
0.042250201513838126 -0.04054503637170607 -0.05549891697558942
0.05014566282016952 -0.036882701079381595 -0.05359408823645529
0.05804112412650091 -0.03322036578705713 -0.051689259497321165
0.06593658543283232 -0.029558030494732653 -0.049784430758187025
0.07383204673916371 -0.025895695202408184 -0.0478796020190529
0.0817275080454951 -0.022233359910083714 -0.04597477327991877
0.08962296935182651 -0.01857102461775924 -0.044069944540784646
0.09751843065815792 -0.014908689325434765 -0.042165115801650506
0.1054138919644893 -0.011246354033110303 -0.04026028706251638
0.03435474020750672 -0.04420737166403054 -0.05740374571472355
0.041312087296372105 -0.03864320018337058 -0.05752498422956015
0.04826943438523748 -0.033079028702710615 -0.05764622274439674
0.05522678147410285 -0.027514857222050652 -0.05776746125923334
0.06218412856296823 -0.02195068574139069 -0.05788869977406994
0.06914147565183361 -0.01638651426073073 -0.058009938288906535
0.07609882274069898 -0.010822342780070767 -0.058131176803743134
0.08305616982956436 -0.005258171299410798 -0.05825241531857973
0.09001351691842975 0.0003060001812491581 -0.05837365383341633
0.09697086400729513 0.005870171661909135 -0.058494892348252926
0.03435474020750672 -0.04420737166403054 -0.05740374571472355
0.03962003656746451 -0.03734432831198072 -0.059537913409238946
0.04488533292742229 -0.030481284959930913 -0.06167208110375434
0.05015062928738007 -0.023618241607881098 -0.06380624879826974
0.055415925647337855 -0.016755198255831286 -0.06594041649278513
0.060681222007295636 -0.009892154903781463 -0.06807458418730053
0.06594651836725342 -0.0030291115517316588 -0.07020875188181593
0.0712118147272112 0.0038339318003181534 -0.07234291957633132
0.076477111087169 0.010696975152367966 -0.07447708727084672
0.08174240744712677 0.017560018504417785 -0.0766112549653621
0.03435474020750672 -0.04420737166403054 -0.05740374571472355
0.03735740927846467 -0.036789173678875235 -0.06131957240419326
0.04036007834942262 -0.029370975693719933 -0.06523539909366297
0.04336274742038057 -0.021952777708564634 -0.06915122578313268
0.04636541649133852 -0.014534579723409324 -0.0730670524726024
0.049368085562296465 -0.007116381738254023 -0.0769828791620721
0.05237075463325441 0.0003018162469012695 -0.08089870585154181
0.05537342370421236 0.007720014232056582 -0.08481453254101153
0.05837609277517031 0.015138212217211889 -0.08873035923048123
0.061378761846128255 0.022556410202367188 -0.09264618591995094
0.03435474020750672 -0.04420737166403054 -0.05740374571472355
0.03476939620441545 -0.037037895902662765 -0.0626768908170321
0.03518405220132418 -0.029868420141294986 -0.06795003591934064
0.0355987081982329 -0.022698944379927213 -0.07322318102164918
0.03601336419514163 -0.015529468618559434 -0.07849632612395772
0.03642802019205036 -0.008359992857191651 -0.08376947122626627
0.03684267618895908 -0.0011905170958238897 -0.0890426163285748
0.037257332185867804 0.005978958665543886 -0.09431576143088334
0.037671988182776533 0.01314843442691167 -0.09958890653319188
0.03808664417968526 0.02031791018827944 -0.10486205163550043
0.03435474020750672 -0.04420737166403054 -0.05740374571472355
0.032136448719050456 -0.03806354207107299 -0.0634627821367592
0.029918157230594183 -0.03191971247811543 -0.06952181855879484
0.02769986574213791 -0.025775882885157884 -0.07558085498083048
0.02548157425368164 -0.01963205329220033 -0.08163989140286612
0.02326328276522537 -0.013488223699242775 -0.08769892782490177
0.021044991276769096 -0.007344394106285232 -0.0937579642469374
0.018826699788312827 -0.0012005645133276843 -0.09981700066897305
0.016608408299856558 0.004943265079629877 -0.10587603709100869
0.01439011681140028 0.011087094672587425 -0.11193507351304434
0.03435474020750672 -0.04420737166403054 -0.05740374571472355
0.029743887536798585 -0.03975496750721862 -0.06359208284452188
0.025133034866090444 -0.03530256335040671 -0.0697804199743202
0.020522182195382304 -0.030850159193594802 -0.07596875710411853
0.015911329524674164 -0.026397755036782888 -0.08215709423391686
0.011300476853966025 -0.021945350879970973 -0.08834543136371519
0.006689624183257881 -0.017492946723159066 -0.09453376849351351
0.0020787715125497406 -0.013040542566347148 -0.10072210562331184
-0.0025320811581584 -0.008588138409535238 -0.10691044275311017
-0.007142933828866533 -0.004135734252723328 -0.11309877988290849
0.03435474020750672 -0.04420737166403054 -0.05740374571472355
0.02785098378616864 -0.04192888001992352 -0.06305078120232686
0.021347227364830558 -0.039650388375816505 -0.06869781668993016
0.014843470943492478 -0.03737189673170949 -0.07434485217753348
0.008339714522154392 -0.035093405087602475 -0.07999188766513679
0.001835958100816314 -0.032814913443495464 -0.08563892315274009
-0.004667798320521768 -0.030536421799388445 -0.0912859586403434
-0.011171554741859857 -0.02825793015528143 -0.09693299412794672
-0.017675311163197937 -0.025979438511174412 -0.10258002961555002
-0.024179067584536033 -0.023700946867067398 -0.10822706510315333
0.03435474020750672 -0.04420737166403054 -0.05740374571472355
0.02666286295996931 -0.04434970245670797 -0.06189753564226635
0.018970985712431897 -0.044492033249385395 -0.06639132556980915
0.011279108464894485 -0.04463436404206283 -0.07088511549735194
0.003587231217357068 -0.044776694834740255 -0.07537890542489473
-0.004104646030180346 -0.04491902562741769 -0.07987269535243752
-0.011796523277717753 -0.045061356420095115 -0.08436648527998031
-0.019488400525255165 -0.04520368721277255 -0.0888602752075231
-0.027180277772792586 -0.045346018005449976 -0.0933540651350659
-0.03487215502033001 -0.0454883487981274 -0.0978478550626087
0.03435474020750672 -0.04420737166403054 -0.05740374571472355
0.026308276385313394 -0.046755101143616015 -0.060257318215221484
0.018261812563120067 -0.049302830623201496 -0.06311089071571942
0.010215348740926737 -0.05185056010278698 -0.06596446321621734
0.0021688849187334065 -0.05439828958237245 -0.06881803571671527
-0.005877578903459918 -0.05694601906195793 -0.0716716082172132
-0.013924042725653249 -0.05949374854154341 -0.07452518071771114
-0.021970506547846578 -0.06204147802112889 -0.07737875321820907
-0.03001697037003991 -0.06458920750071437 -0.08023232571870699
-0.03806343419223324 -0.06713693698029985 -0.08308589821920492
0.03435474020750672 -0.04420737166403054 -0.05740374571472355
0.026825649019542454 -0.048884413809314964 -0.058307871930008234
0.019296557831578187 -0.05356145595459939 -0.05921199814529291
0.011767466643613918 -0.05823849809988382 -0.060116124360577596
0.004238375455649647 -0.06291554024516825 -0.06102025057586227
-0.0032907157323146235 -0.06759258239045268 -0.06192437679114696
-0.010819806920278887 -0.07226962453573711 -0.06282850300643164
-0.018348898108243156 -0.07694666668102154 -0.06373262922171631
-0.025877989296207427 -0.08162370882630597 -0.064636755437001
-0.0334070804841717 -0.0863007509715904 -0.06554088165228568
0.03435474020750672 -0.04420737166403054 -0.05740374571472355
0.028158915509874215 -0.05050689638678614 -0.0562604495404052
0.021963090812241706 -0.05680642110954174 -0.05511715336608685
0.015767266114609196 -0.06310594583229734 -0.0539738571917685
0.009571441416976684 -0.06940547055505293 -0.05283056101745015
0.0033756167193441673 -0.07570499527780854 -0.0516872648431318
-0.0028202079782883357 -0.08200452000056413 -0.050543968668813444
-0.009016032675920852 -0.08830404472331974 -0.04940067249449509
-0.015211857373553355 -0.09460356944607533 -0.048257376320176744
-0.021407682071185877 -0.10090309416883093 -0.04711408014585839
0.03435474020750672 -0.04420737166403054 -0.05740374571472355
0.030163595744320093 -0.051446727713349426 -0.054336921031357524
0.025972451281133464 -0.05868608376266831 -0.051270096347991505
0.021781306817946836 -0.06592543981198719 -0.048203271664625486
0.017590162354760203 -0.07316479586130607 -0.04513644698125946
0.013399017891573573 -0.08040415191062496 -0.04206962229789344
0.009207873428386944 -0.08764350795994384 -0.03900279761452742
0.005016728965200308 -0.09488286400926273 -0.03593597293116139
0.0008255845020136796 -0.10212222005858161 -0.03286914824779537
-0.003365559961172949 -0.1093615761079005 -0.02980232356442935
0.03435474020750672 -0.04420737166403054 -0.05740374571472355
0.032622451513659105 -0.05160206248178612 -0.052745730563440556
0.03089016281981148 -0.0589967532995417 -0.048087715412157554
0.029157874125963858 -0.06639144411729729 -0.04342970026087456
0.027425585432116237 -0.07378613493505287 -0.038771685109591565
0.025693296738268617 -0.08118082575280845 -0.034113669958308564
0.023961008044420994 -0.08857551657056403 -0.02945565480702557
0.022228719350573373 -0.09597020738831961 -0.024797639655742575
0.020496430656725753 -0.1033648982060752 -0.02013962450445958
0.018764141962878133 -0.11075958902383078 -0.015481609353176579
0.03435474020750672 -0.04420737166403054 -0.05740374571472355
0.03526902764220505 -0.05095606775966884 -0.051659308313717074
0.03618331507690337 -0.05770476385530715 -0.0459148709127106
0.0370976025116017 -0.06445345995094547 -0.04017043351170413
0.038011889946300025 -0.07120215604658377 -0.03442599611069765
0.03892617738099835 -0.07795085214222207 -0.028681558709691177
0.039840464815696676 -0.08469954823786038 -0.022937121308684708
0.040754752250395 -0.09144824433349868 -0.01719268390767824
0.04166903968509333 -0.098196940429137 -0.011448246506671755
0.042583327119791646 -0.1049456365247753 -0.005703809105665286
0.03435474020750672 -0.04420737166403054 -0.05740374571472355
0.03781652654057018 -0.049578747098779886 -0.05119538499052274
0.04127831287363364 -0.05495012253352924 -0.044987024266321916
0.0447400992066971 -0.060321497968278584 -0.0387786635421211
0.04820188553976056 -0.06569287340302793 -0.03257030281792029
0.051663671872824016 -0.07106424883777729 -0.026361942093719476
0.055125458205887476 -0.07643562427252663 -0.020153581369518662
0.058587244538950936 -0.08180699970727598 -0.013945220645317849
0.062049030872014396 -0.08717837514202532 -0.007736859921117029
0.06551081720507786 -0.09254975057677468 -0.001528499196916208
0.03435474020750672 -0.04420737166403054 -0.05740374571472355
0.039988887174598475 -0.04761935456405859 -0.05140423388443768
0.04562303414169022 -0.05103133746408663 -0.045404722054151817
0.05125718110878196 -0.05444332036411468 -0.03940521022386596
0.056891328075873715 -0.057855303264142725 -0.03340569839358008
0.06252547504296546 -0.06126728616417077 -0.027406186563294223
0.06815962201005721 -0.06467926906419882 -0.021406674733008363
0.07379376897714897 -0.06809125196422687 -0.015407162902722482
0.07942791594424072 -0.07150323486425492 -0.009407651072436622
0.08506206291133245 -0.07491521776428296 -0.0034081392421507622
0.03435474020750672 -0.04420737166403054 -0.05740374571472355
0.04155070056194469 -0.045290220739749705 -0.05226322297718176
0.048746660916382654 -0.046373069815468876 -0.047122700239639964
0.05594262127082062 -0.04745591889118805 -0.04198217750209818
0.0631385816252586 -0.04853876796690722 -0.03684165476455638
0.07033454197969656 -0.04962161704262639 -0.031701132027014585
0.07753050233413451 -0.05070446611834556 -0.026560609289472802
0.08472646268857248 -0.05178731519406473 -0.021420086551931013
0.09192242304301046 -0.0528701642697839 -0.016279563814389213
0.09911838339744841 -0.053953013345503065 -0.011139041076847427
-0.03435474020750672 0.04420737166403054 0.05740374571472355
-0.027158779853068755 0.04312452258831137 0.06254426845226534
-0.01996281949863079 0.0420416735125922 0.06768479118980714
-0.012766859144192825 0.040958824436873036 0.07282531392734892
-0.005570898789754855 0.039875975361153865 0.07796583666489071
0.001625061564683115 0.038793126285434694 0.08310635940243251
0.008821021919121074 0.03771027720971553 0.0882468821399743
0.01601698227355904 0.03662742813399636 0.09338740487751608
0.023212942627997012 0.035544579058277195 0.09852792761505788
0.03040890298243497 0.034461729982558024 0.10366845035259967
-0.03435474020750672 0.04420737166403054 0.05740374571472355
-0.026376760426955196 0.045570999912109014 0.06112822395748003
-0.018398780646403667 0.04693462816018749 0.0648527022002365
-0.01042080086585214 0.04829825640826596 0.06857718044299299
-0.0024428210853006064 0.049661884656344434 0.07230165868574946
0.005535158695250923 0.05102551290442291 0.07602613692850595
0.013513138475802445 0.05238914115250139 0.07975061517126242
0.02149111825635398 0.05375276940057986 0.08347509341401892
0.02946909803690551 0.055116397648658326 0.08719957165677539
0.037447077817457035 0.056480025896736806 0.09092404989953186
-0.03435474020750672 0.04420737166403054 0.05740374571472355
-0.026459278901175325 0.04786970695635501 0.05930857445385768
-0.018563817594843927 0.05153204224867948 0.06121340319299181
-0.010668356288512535 0.05519437754100395 0.06311823193212594
-0.002772894982181128 0.058856712833328426 0.06502306067126007
0.0051225663241502625 0.0625190481256529 0.0669278894103942
0.013018027630481653 0.06618138341797736 0.06883271814952832
0.020913488936813055 0.06984371871030183 0.07073754688866246
0.028808950243144466 0.07350605400262632 0.07264237562779659
0.03670441154947585 0.07716838929495078 0.07454720436693071
-0.03435474020750672 0.04420737166403054 0.05740374571472355
-0.027397393118641346 0.0497715431446905 0.05728250719988695
-0.02044004602977597 0.05533571462535046 0.05716126868505036
-0.013482698940910596 0.06089988610601042 0.05704003017021376
-0.006525351852045213 0.06646405758667039 0.05691879165537716
0.00043199523682015643 0.07202822906733035 0.056797553140540566
0.0073893423256855325 0.07759240054799031 0.056676314625703966
0.014346689414550909 0.08315657202865027 0.05655507611086737
0.021304036503416297 0.08872074350931024 0.05643383759603077
0.028261383592281673 0.09428491498997021 0.05631259908119417
-0.03435474020750672 0.04420737166403054 0.05740374571472355
-0.02908944384754894 0.05107041501608035 0.055269578020208154
-0.02382414748759116 0.057933458368130165 0.05313541032569276
-0.018558851127633377 0.06479650172017998 0.05100124263117736
-0.01329355476767559 0.0716595450722298 0.04886707493666197
-0.008028258407717809 0.07852258842427962 0.04673290724214657
-0.0027629620477600276 0.08538563177632942 0.044598739547631175
0.002502334312197754 0.09224867512837923 0.04246457185311578
0.007767630672155542 0.09911171848042905 0.04033040415860038
0.013032927032113324 0.10597476183247886 0.038196236464084994
-0.03435474020750672 0.04420737166403054 0.05740374571472355
-0.031352071136548774 0.05162556964918584 0.05348791902525384
-0.028349402065590827 0.059043767634341146 0.04957209233578413
-0.02534673299463288 0.06646196561949644 0.04565626564631442
-0.022344063923674932 0.07388016360465176 0.041740438956844705
-0.019341394852716985 0.08129836158980705 0.037824612267375
-0.016338725781759038 0.08871655957496234 0.03390878557790529
-0.013336056710801085 0.09613475756011766 0.029992958888435575
-0.010333387639843138 0.10355295554527297 0.026077132198965867
-0.007330718568885191 0.11097115353042826 0.02216130550949616
-0.03435474020750672 0.04420737166403054 0.05740374571472355
-0.033940084210598 0.05137684742539832 0.05213060061241501
-0.03352542821368927 0.05854632318676609 0.04685745551010646
-0.03311077221678054 0.06571579894813387 0.04158431040779792
-0.03269611621987182 0.07288527470950164 0.036311165305489376
-0.03228146022296309 0.08005475047086942 0.031038020203180833
-0.03186680422605436 0.08722422623223719 0.025764875100872296
-0.03145214822914564 0.09439370199360496 0.020491729998563753
-0.031037492232236914 0.10156317775497274 0.01521858489625521
-0.030622836235328188 0.10873265351634051 0.009945439793946673
-0.03435474020750672 0.04420737166403054 0.05740374571472355
-0.036573031695962994 0.05035120125698809 0.051344709292687904
-0.03879132318441927 0.05649503084994564 0.045285672870652265
-0.04100961467287554 0.06263886044290319 0.03922663644861662
-0.043227906161331806 0.06878269003586075 0.03316760002658097
-0.04544619764978808 0.0749265196288183 0.02710856360454533
-0.04766448913824435 0.08107034922177585 0.021049527182509693
-0.049882780626700624 0.0872141788147334 0.014990490760474054
-0.05210107211515689 0.09335800840769096 0.0089314543384384
-0.05431936360361317 0.0995018380006485 0.0028724179164027613
-0.03435474020750672 0.04420737166403054 0.05740374571472355
-0.03896559287821486 0.04865977582084245 0.05121540858492522
-0.043576445548923 0.05311217997765436 0.045027071455126896
-0.04818729821963114 0.05756458413446627 0.03883873432532857
-0.052798150890339283 0.06201698829127819 0.03265039719553024
-0.057409003561047424 0.06646939244809011 0.026462060065731915
-0.062019856231755564 0.07092179660490201 0.02027372293593359
-0.06663070890246371 0.07537420076171393 0.014085385806135255
-0.07124156157317185 0.07982660491852583 0.007897048676336935
-0.07585241424387998 0.08427900907533775 0.0017087115465386075
-0.03435474020750672 0.04420737166403054 0.05740374571472355
-0.040858496628844804 0.04648586330813755 0.051756710227120244
-0.04736225305018289 0.04876435495224457 0.04610967473951693
-0.05386600947152097 0.05104284659635158 0.040462639251913624
-0.060369765892859056 0.0533213382404586 0.03481560376431031
-0.06687352231419713 0.05559982988456562 0.029168568276707003
-0.07337727873553522 0.05787832152867263 0.023521532789103697
-0.07988103515687331 0.06015681317277965 0.017874497301500383
-0.08638479157821138 0.062435304816886666 0.012227461813897077
-0.09288854799954949 0.06471379646099368 0.006580426326293763
-0.03435474020750672 0.04420737166403054 0.05740374571472355
-0.042046617455044136 0.04406504087135311 0.05290995578718075
-0.04973849470258155 0.04392271007867568 0.04841616585963796
-0.057430371950118964 0.04378037928599825 0.043922375932095165
-0.06512224919765638 0.04363804849332082 0.03942858600455237
-0.07281412644519379 0.043495717700643394 0.034934796077009576
-0.0805060036927312 0.04335338690796596 0.030441006149466786
-0.08819788094026862 0.043211056115288526 0.025947216221923995
-0.09588975818780604 0.0430687253226111 0.02145342629438119
-0.10358163543534346 0.04292639452993367 0.016959636366838407
-0.03435474020750672 0.04420737166403054 0.05740374571472355
-0.04240120402970005 0.04165964218444506 0.05455017321422562
-0.050447667851893384 0.03911191270485958 0.05169660071372769
-0.05849413167408671 0.036564183225274105 0.04884302821322976
-0.06654059549628004 0.034016453745688624 0.04598945571273183
-0.07458705931847337 0.03146872426610314 0.0431358832122339
-0.0826335231406667 0.028920994786517665 0.040282310711735964
-0.09067998696286003 0.026373265306932188 0.03742873821123803
-0.09872645078505336 0.023825535827346707 0.034575165710740104
-0.1067729146072467 0.021277806347761226 0.03172159321024217
-0.03435474020750672 0.04420737166403054 0.05740374571472355
-0.04188383139547099 0.03953032951874611 0.056499619499438866
-0.04941292258343526 0.03485328737346168 0.05559549328415419
-0.05694201377139953 0.030176245228177252 0.054691367068869505
-0.0644711049593638 0.025499203082892823 0.05378724085358482
-0.07200019614732807 0.020822160937608393 0.052883114638300144
-0.07952928733529234 0.016145118792323963 0.05197898842301546
-0.08705837852325661 0.011468076647039537 0.05107486220773078
-0.09458746971122088 0.006791034501755108 0.0501707359924461
-0.10211656089918515 0.002113992356470679 0.049266609777161414
-0.03435474020750672 0.04420737166403054 0.05740374571472355
-0.04055056490513923 0.03790784694127494 0.058547041889041904
-0.04674638960277174 0.03160832221851934 0.05969033806336025
-0.05294221430040425 0.02530879749576374 0.060833634237678604
-0.05913803899803676 0.01900927277300814 0.06197693041199695
-0.06533386369566928 0.012709748050252535 0.0631202265863153
-0.07152968839330179 0.006410223327496943 0.06426352276063366
-0.0777255130909343 0.00011069860474133688 0.06540681893495201
-0.08392133778856681 -0.006188826118014255 0.06655011510927035
-0.09011716248619933 -0.012488350840769862 0.0676934112835887
-0.03435474020750672 0.04420737166403054 0.05740374571472355
-0.03854588467069336 0.036968015614711656 0.06047057039808957
-0.042737029133879986 0.02972865956539277 0.06353739508145559
-0.046928173597066615 0.022489303516073887 0.06660421976482161
-0.051119318060253244 0.015249947466754999 0.06967104444818764
-0.05531046252343987 0.008010591417436114 0.07273786913155367
-0.0595016069866265 0.0007712353681172373 0.07580469381491968
-0.06369275144981314 -0.006468120681201654 0.0788715184982857
-0.06788389591299977 -0.01370747673052054 0.08193834318165173
-0.0720750403761864 -0.020946832779839424 0.08500516786501774
-0.03435474020750672 0.04420737166403054 0.05740374571472355
-0.036087028901354345 0.03681268084627495 0.062061760866006545
-0.03781931759520197 0.029417990028519372 0.06671977601728954
-0.039551606289049586 0.02202329921076379 0.07137779116857254
-0.04128389498289721 0.014628608393008207 0.07603580631985553
-0.04301618367674483 0.007233917575252627 0.08069382147113853
-0.04474847237059246 -0.00016077324250295404 0.08535183662242153
-0.046480761064440074 -0.007555464060258535 0.09000985177370452
-0.0482130497582877 -0.014950154878014123 0.09466786692498752
-0.049945338452135314 -0.022344845695769704 0.09932588207627052
-0.03435474020750672 0.04420737166403054 0.05740374571472355
-0.033440452772808396 0.03745867556839223 0.06314818311573002
-0.03252616533811007 0.030709979472753925 0.0688926205167365
-0.031611877903411745 0.023961283377115616 0.07463705791774297
-0.030697590468713423 0.017212587281477308 0.08038149531874944
-0.029783303034015097 0.010463891185839003 0.08612593271975592
-0.02886901559931677 0.003715195090200696 0.09187037012076239
-0.027954728164618445 -0.0030335010054376053 0.09761480752176886
-0.027040440729920123 -0.009782197101075921 0.10335924492277535
-0.0261261532952218 -0.01653089319671423 0.10910368232378181
-0.03435474020750672 0.04420737166403054 0.05740374571472355
-0.030892953874443265 0.03883599622928119 0.06361210643892437
-0.027431167541379805 0.033464620794531844 0.06982046716312518
-0.023969381208316348 0.02809324535978249 0.076028827887326
-0.020507594875252888 0.022721869925033143 0.0822371886115268
-0.01704580854218943 0.01735049449028379 0.08844554933572762
-0.01358402220912597 0.011979119055534445 0.09465391005992843
-0.01012223587606251 0.0066077436207851005 0.10086227078412925
-0.006660449542999049 0.001236368186035748 0.10707063150833007
-0.0031986632099355854 -0.004135007248713611 0.11327899223253089
-0.03435474020750672 0.04420737166403054 0.05740374571472355
-0.028720593240414975 0.04079538876400249 0.06340325754500942
-0.02308644627332323 0.03738340586397444 0.06940276937529528
-0.017452299306231486 0.033971422963946396 0.07540228120558114
-0.01181815233913973 0.03055944006391835 0.08140179303586702
-0.006184005372047984 0.027147457163890304 0.08740130486615287
-0.0005498584049562442 0.023735474263862258 0.09340081669643874
0.005084288562135516 0.02032349136383421 0.09940032852672462
0.010718435529227263 0.016911508463806162 0.10539984035701047
0.016352582496319 0.013499525563778116 0.11139935218729634
-0.03435474020750672 0.04420737166403054 0.05740374571472355
-0.02715877985306876 0.04312452258831137 0.06254426845226534
-0.019962819498630793 0.0420416735125922 0.06768479118980714
-0.012766859144192828 0.04095882443687303 0.07282531392734892
-0.005570898789754858 0.03987597536115386 0.07796583666489072
0.0016250615646831081 0.03879312628543469 0.08310635940243251
0.008821021919121068 0.037710277209715516 0.0882468821399743
0.016016982273559032 0.036627428133996345 0.09338740487751608
0.023212942627997005 0.03554457905827718 0.09852792761505788
0.030408902982434958 0.03446172998255801 0.10366845035259967
