# .PCD v0.7 - Point Cloud Data file format
VERSION 0.7
FIELDS x y z
SIZE 4 4 4
TYPE F F F
COUNT 1 1 1
WIDTH 700
HEIGHT 1
VIEWPOINT 0 0 0 1 0 0 0
POINTS 700
DATA ascii
0.0986449559215948 0.03931281237496976 -0.1399532431934444
0.09155864023052168 0.06478622810285607 -0.13521462521971853
0.07916267190243212 0.08799802531893433 -0.12981854160019832
0.06203667263921829 0.10786284618344043 -0.12401730720761633
0.04098143513224703 0.12345183375091265 -0.11808218131456076
0.016981478886128543 0.1340360642886113 -0.11229068381137224
-0.008840984819104163 0.13912063094012095 -0.1069136186845127
-0.03527852628020147 0.1384677850199069 -0.10220241152313544
-0.061094955441659445 0.1321080528776123 -0.09837735313797578
-0.08508312476878846 0.12033880851987615 -0.09561729900787674
-0.10612137412478723 0.10371036873229068 -0.09405130619638193
-0.12322597835210405 0.08300026087813993 -0.09375259878688079
-0.13559714516747182 0.05917686658305229 -0.09473514400585219
-0.1426564125601682 0.03335414128646508 -0.09695299913087761
-0.144073697032723 0.006739526923348935 -0.10030245972127977
-0.13978272793839802 -0.01942250671869625 -0.10462690872250954
-0.12998414622297438 -0.04390865202358036 -0.10972413970554928
-0.1151361226771238 -0.06557396405124287 -0.1153558118147974
-0.09593293437945744 -0.08340539689053512 -0.12125859432157944
-0.07327250107196327 -0.09656917256010597 -0.12715647967634983
-0.048214399430837 -0.10444976754013217 -0.13277368931494826
-0.02193031843873801 -0.10667869396799994 -0.137847568757754
0.004350727489800987 -0.10315172972121589 -0.1421408690412334
0.029399865856446123 -0.0940337917280205 -0.14545284021579155
0.0520458267912908 -0.07975122463511536 -0.14762861819029763
0.07122971033019947 -0.06097186540583149 -0.1485664660048673
0.08605449940024795 -0.03857381600597153 -0.14822253093803428
0.09582700334109037 -0.013604384331829103 -0.14661289501126729
0.10009027072981108 0.012768886743043186 -0.1438128230115201
0.0986449559215948 0.03931281237496973 -0.1399532431934444
0.10353278419788194 0.03566424399992528 -0.1130301626779794
0.09644646850680881 0.0611376597278116 -0.10829154470425353
0.08405050017871925 0.08434945694388986 -0.10289546108473333
0.06692450091550542 0.10421427780839596 -0.09709422669215133
0.04586926340853416 0.11980326537586818 -0.09115910079909575
0.021869307162415676 0.13038749591356683 -0.08536760329590723
-0.003953156542817031 0.13547206256507646 -0.07999053816904769
-0.030390698003914342 0.1348192166448624 -0.07527933100767044
-0.056207127165372316 0.1284594845025678 -0.07145427262251078
-0.08019529649250133 0.11669024014483168 -0.06869421849241175
-0.1012335458485001 0.10006180035724621 -0.06712822568091692
-0.11833815007581693 0.07935169250309546 -0.06682951827141578
-0.13070931689118467 0.05552829820800781 -0.0678120634903872
-0.13776858428388108 0.029705572911420598 -0.0700299186154126
-0.13918586875643585 0.003090958548304457 -0.07337937920581476
-0.1348948996621109 -0.02307107509374073 -0.07770382820704454
-0.12509631794668724 -0.04755722039862484 -0.08280105919008428
-0.11024829440083667 -0.06922253242628734 -0.08843273129933239
-0.0910451061031703 -0.0870539652655796 -0.09433551380611443
-0.06838467279567614 -0.10021774093515044 -0.1002333991608848
-0.043326571154549874 -0.10809833591517665 -0.10585060879948326
-0.017042490162450876 -0.11032726234304441 -0.110924488242289
0.009238555766088119 -0.10680029809626036 -0.1152177885257684
0.034287694132733255 -0.09768236010306497 -0.11852975970032653
0.05693365506757793 -0.08339979301015983 -0.12070553767483262
0.0761175386064866 -0.06462043378087597 -0.1216433854894023
0.09094232767653508 -0.04222238438101601 -0.12129945042256927
0.1007148316173775 -0.017252952706873582 -0.11968981449580228
0.10497809900609821 0.009120318367998708 -0.11688974249605509
0.10353278419788194 0.03566424399992525 -0.1130301626779794
0.10842061247416906 0.0320156756248808 -0.08610708216251439
0.10133429678309594 0.05748909135276712 -0.08136846418878853
0.08893832845500638 0.08070088856884537 -0.07597238056926832
0.07181232919179255 0.10056570943335147 -0.07017114617668632
0.05075709168482129 0.11615469700082369 -0.06423602028363075
0.026757135438702808 0.12673892753852234 -0.058444522780442223
0.0009346717334701005 0.13182349419003198 -0.053067457653582686
-0.02550286972762721 0.13117064826981795 -0.04835625049220544
-0.05131929888908519 0.12481091612752333 -0.04453119210704578
-0.0753074682162142 0.11304167176978719 -0.041771137976946746
-0.09634571757221297 0.09641323198220172 -0.040205145165451914
-0.1134503217995298 0.07570312412805097 -0.03990643775595078
-0.12582148861489753 0.05187972983296333 -0.04088898297492219
-0.13288075600759394 0.026057004536376122 -0.0431068380999476
-0.1342980404801487 -0.0005576098267400213 -0.04645629869034976
-0.13000707138582376 -0.026719643468785206 -0.05078074769157953
-0.12020848967040011 -0.05120578877366932 -0.05587797867461927
-0.10536046612454954 -0.07287110080133183 -0.061509650783867394
-0.08615727782688318 -0.09070253364062408 -0.06741243329064943
-0.06349684451938901 -0.10386630931019493 -0.07331031864541981
-0.03843874287826274 -0.11174690429022113 -0.07892752828401825
-0.012154661886163745 -0.1139758307180889 -0.08400140772682399
0.01412638404237525 -0.11044886647130485 -0.0882947080103034
0.039175522409020384 -0.10133092847810946 -0.09160667918486154
0.06182148334386506 -0.08704836138520432 -0.09378245715936763
0.08100536688277372 -0.06826900215592045 -0.0947203049739373
0.09583015595282221 -0.04587095275606049 -0.09437636990710427
0.10560265989366463 -0.02090152108191806 -0.09276673398033727
0.10986592728238534 0.00547174999295423 -0.0899666619805901
0.10842061247416906 0.03201567562488077 -0.08610708216251439
0.1133084407504562 0.028367107249836324 -0.05918400164704939
0.10622212505938307 0.05384052297772264 -0.05444538367332353
0.0938261567312935 0.0770523201938009 -0.04904930005380332
0.07670015746807968 0.096917141058307 -0.04324806566122132
0.055644919961108416 0.11250612862577922 -0.037312939768165757
0.031644963714989933 0.12309035916347787 -0.03152144226497723
0.005822500009757231 0.12817492581498752 -0.026144377138117687
-0.02061504145134008 0.12752207989477346 -0.02143316997674044
-0.04643147061279806 0.12116234775247886 -0.017608111591580784
-0.07041963993992707 0.10939310339474272 -0.014848057461481746
-0.09145788929592584 0.09276466360715725 -0.013282064649986918
-0.10856249352324267 0.0720545557530065 -0.012983357240485782
-0.12093366033861042 0.04823116145791885 -0.01396590245945719
-0.1279929277313068 0.022408436161331643 -0.016183757584482605
-0.1294102122038616 -0.0042061782017844985 -0.01953321817488476
-0.12511924310953662 -0.030368211843829686 -0.023857667176114535
-0.11532066139411298 -0.0548543571487138 -0.028954898159154276
-0.10047263784826241 -0.0765196691763763 -0.034586570268402395
-0.08126944955059605 -0.09435110201566856 -0.04048935277518443
-0.058609016243101886 -0.1075148776852394 -0.046387238129954815
-0.03355091460197561 -0.1153954726652656 -0.05200444776855325
-0.007266833609876615 -0.11762439909313337 -0.05707832721135899
0.01901421231866238 -0.11409743484634932 -0.0613716274948384
0.04406335068530751 -0.10497949685315393 -0.06468359866939653
0.06670931162015219 -0.09069692976024879 -0.06685937664390262
0.08589319515906085 -0.07191757053096492 -0.0677972244584723
0.10071798422910934 -0.04951952113110497 -0.06745328939163928
0.11049048816995176 -0.024550089456962538 -0.06584365346487228
0.11475375555867247 0.0018231816179097528 -0.06304358146512509
0.1133084407504562 0.028367107249836293 -0.05918400164704939
0.11819626902674332 0.02471853887479185 -0.03226092113158439
0.1111099533356702 0.05019195460267816 -0.02752230315785853
0.09871398500758063 0.07340375181875643 -0.022126219538338317
0.0815879857443668 0.09326857268326252 -0.01632498514575632
0.06053274823739555 0.10885756025073474 -0.010389859252700752
0.03653279199127707 0.1194417907884334 -0.004598361749512225
0.010710328286044362 0.12452635743994303 0.0007787033773473148
-0.015727213175052948 0.12387351151972899 0.005489910538724564
-0.04154364233651092 0.11751377937743439 0.00931496892388422
-0.06553181166363994 0.10574453501969824 0.012075023053983258
-0.08657006101963871 0.08911609523211278 0.013641015865478086
-0.10367466524695554 0.06840598737796202 0.013939723274979223
-0.11604583206232329 0.04458259308287437 0.012957178056007814
-0.12310509945501968 0.018759867786287167 0.0107393229309824
-0.12452238392757446 -0.007854746576828976 0.007389862340580243
-0.1202314148332495 -0.034016780218874165 0.0030654133393504686
-0.11043283311782585 -0.05850292552375828 -0.002031817643689274
-0.09558480957197528 -0.08016823755142077 -0.00766348975293739
-0.07638162127430892 -0.09799967039071303 -0.013566272259719427
-0.05372118796681475 -0.11116344606028387 -0.01946415761448981
-0.028663086325688477 -0.11904404104031008 -0.02508136725308825
-0.0023790053335894837 -0.12127296746817784 -0.030155246695893992
0.023902040594949513 -0.1177460032213938 -0.0344485469793734
0.04895117896159465 -0.1086280652281984 -0.037760518153931534
0.07159713989643932 -0.09434549813529326 -0.039936296128437625
0.09078102343534798 -0.0755661389060094 -0.0408741439430073
0.10560581250539647 -0.05316808950614945 -0.04053020887617427
0.11537831644623889 -0.028198657832007014 -0.038920572949407276
0.1196415838349596 -0.0018253867571347254 -0.03612050094966009
0.11819626902674332 0.024718538874791817 -0.032260921131584394
0.12308409730303047 0.02106997049974737 -0.005337840616119386
0.11599778161195734 0.04654338622763369 -0.000599222642393525
0.10360181328386778 0.06975518344371194 0.004796860977126687
0.08647581402065395 0.08962000430821804 0.010598095369708682
0.06542057651368269 0.10520899187569026 0.016533221262764252
0.0414206202675642 0.11579322241338891 0.022324718765952777
0.015598156562331494 0.12087778906489854 0.027701783892812318
-0.010839384898765817 0.1202249431446845 0.032412991054189565
-0.03665581406022379 0.1138652110023899 0.036238049439349225
-0.06064398338735281 0.10209596664465376 0.03899810356944826
-0.08168223274335157 0.0854675268570683 0.04056409638094309
-0.0987868369706684 0.06475741900291754 0.04086280379044423
-0.11115800378603614 0.0409340247078299 0.039880258571472815
-0.11821727117873254 0.015111299411242687 0.037662403446447404
-0.11963455565128732 -0.011503314951873456 0.03431294285604525
-0.11534358655696236 -0.03766534859391864 0.029988493854815473
-0.10554500484153871 -0.06215149389880275 0.02489126287177573
-0.09069698129568814 -0.08381680592646526 0.019259590762527614
-0.07149379299802178 -0.10164823876575751 0.013356808255745575
-0.04883335969052762 -0.11481201443532836 0.0074589229009751935
-0.023775258049401348 -0.12269260941535456 0.0018417132623767562
0.0025088229426976478 -0.12492153584322233 -0.003232166180428987
0.02878986887123664 -0.12139457159643828 -0.007525466463908394
0.05383900723788178 -0.11227663360324289 -0.01083743763846653
0.07648496817272646 -0.09799406651033775 -0.01301321561297262
0.09566885171163513 -0.07921470728105388 -0.013951063427542295
0.11049364078168361 -0.05681665788119392 -0.013607128360709266
0.12026614472252603 -0.03184722620705149 -0.011997492433942271
0.12452941211124674 -0.005473955132179203 -0.00919742043419509
0.12308409730303047 0.021069970499747338 -0.00533784061611939
0.12797192557931758 0.017421402124702893 0.021585239899345604
0.12088560988824447 0.04289481785258921 0.026323857873071465
0.1084896415601549 0.06610661506866747 0.03171994149259168
0.09136364229694108 0.08597143593317357 0.037521175885173674
0.07030840478996982 0.10156042350064579 0.04345630177822924
0.04630844854385133 0.11214465403834444 0.049247799281417766
0.02048598483861862 0.11722922068985407 0.05462486440827731
-0.005951556622478689 0.11657637476964003 0.05933607156965456
-0.031767985783936664 0.11021664262734543 0.06316112995481421
-0.05575615511106568 0.09844739826960928 0.06592118408491325
-0.07679440446706444 0.08181895848202382 0.06748717689640808
-0.09389900869438127 0.061108850627873065 0.06778588430590922
-0.10627017550974902 0.03728545633278542 0.06680333908693781
-0.11332944290244541 0.011462731036198211 0.0645854839619124
-0.11474672737500019 -0.015151883326917932 0.06123602337151023
-0.11045575828067523 -0.04131391696896312 0.05691157437028046
-0.10065717656525158 -0.06580006227384723 0.05181434338724072
-0.08580915301940101 -0.08746537430150973 0.0461826712779926
-0.06660596472173465 -0.10529680714080199 0.04027988877121057
-0.04394553141424049 -0.11846058281037283 0.03438200341644018
-0.01888742977311422 -0.12634117779039902 0.028764793777841746
0.007396651218984777 -0.12857010421826678 0.023690914335036003
0.03367769714752377 -0.12504313997148275 0.019397614051556596
0.05872683551416891 -0.11592520197828736 0.01608564287699846
0.08137279644901359 -0.10164263488538222 0.01390986490249237
0.10055667998792225 -0.08286327565609836 0.012972017087922696
0.11538146905797074 -0.0604652262562384 0.013315952154755725
0.12515397299881315 -0.035495794582095966 0.01492558808152272
0.12941724038753386 -0.00912252350722368 0.0177256600812699
0.12797192557931758 0.01742140212470286 0.0215852398993456
0.13285975385560472 0.013772833749658413 0.04850832041481062
0.1257734381645316 0.03924624947754473 0.053246938388536474
0.11337746983644204 0.06245804669362299 0.05864302200805669
0.0962514705732282 0.08232286755812909 0.06444425640063868
0.07519623306625695 0.09791185512560131 0.07037938229369425
0.05119627682013846 0.10849608566329996 0.07617087979688278
0.025373813114905754 0.1135806523148096 0.08154794492374232
-0.0010637283461915564 0.11292780639459556 0.08625915208511957
-0.026880157507649532 0.10656807425230096 0.09008421047027923
-0.05086832683477854 0.09479882989456481 0.09284426460037826
-0.07190657619077731 0.07817039010697935 0.09441025741187309
-0.08901118041809414 0.057460282252828586 0.09470896482137423
-0.10138234723346189 0.03363688795774094 0.09372641960240281
-0.10844161462615828 0.007814162661153732 0.0915085644773774
-0.10985889909871306 -0.01880045170196241 0.08815910388697525
-0.1055679300043881 -0.0449624853440076 0.08383465488574547
-0.09576934828896445 -0.0694486306488917 0.07873742390270573
-0.08092132474311388 -0.0911139426765542 0.07310575179345762
-0.06171813644544752 -0.10894537551584646 0.06720296928667557
-0.039057703137953356 -0.1221091511854173 0.061305083931905195
-0.013999601496827085 -0.1299897461654435 0.05568787429330676
0.01228447949527191 -0.13221867259331127 0.05061399485050101
0.038565525423810906 -0.12869170834652724 0.046320694567021606
0.06361466379045604 -0.11957377035333183 0.04300872339246347
0.08626062472530072 -0.1052912032604267 0.04083294541795738
0.10544450826420938 -0.08651184403114283 0.039895097603387705
0.12026929733425787 -0.06411379463128287 0.040239032670220734
0.1300418012751003 -0.039144362957140445 0.04184866859698773
0.134305068663821 -0.01277109188226816 0.04464874059673491
0.13285975385560472 0.013772833749658382 0.04850832041481061
0.13774758213189187 0.010124265374613936 0.07543140093027562
0.13066126644081874 0.03559768110250025 0.08017001890400148
0.11826529811272916 0.05880947831857851 0.08556610252352169
0.10113929884951534 0.0786742991830846 0.09136733691610369
0.08008406134254407 0.09426328675055683 0.09730246280915926
0.05608410509642559 0.10484751728825548 0.10309396031234778
0.030261641391192886 0.10993208393976511 0.10847102543920732
0.0038240999300955753 0.10927923801955107 0.11318223260058458
-0.0219923292313624 0.10291950587725647 0.11700729098574422
-0.045980498558491414 0.09115026151952033 0.11976734511584326
-0.06701874791449018 0.07452182173193486 0.1213333379273381
-0.08412335214180701 0.053811713877784106 0.12163204533683923
-0.09649451895717476 0.029988319582696463 0.12064950011786782
-0.10355378634987115 0.004165594286109254 0.11843164499284241
-0.10497107082242593 -0.022449020077006887 0.11508218440244025
-0.10068010172810098 -0.048611053719052076 0.11075773540121048
-0.09088152001267732 -0.07309719902393619 0.10566050441817074
-0.07603349646682675 -0.09476251105159869 0.10002883230892262
-0.05683030816916039 -0.11259394389089095 0.09412604980214058
-0.03416987486166623 -0.12575771956046178 0.0882281644473702
-0.009111773220539954 -0.133638314540488 0.08261095480877176
0.01717230777155904 -0.13586724096835576 0.07753707536596602
0.043453353700098035 -0.1323402767215717 0.07324377508248661
0.06850249206674318 -0.12322233872837632 0.06993180390792847
0.09114845300158785 -0.10893977163547118 0.06775602593342238
0.11033233654049651 -0.09016041240618732 0.06681817811885271
0.125157125610545 -0.06776236300632736 0.06716211318568574
0.13492962955138743 -0.042792931332184925 0.06877174911245273
0.13919289694010814 -0.016419660257312636 0.07157182111219991
0.13774758213189187 0.010124265374613904 0.07543140093027562
0.14263541040817898 0.006475696999569458 0.10235448144574062
0.13554909471710586 0.03194911272745577 0.10709309941946649
0.12315312638901629 0.05516090994353403 0.1124891830389867
0.10602712712580246 0.07502573080804013 0.11829041743156869
0.0849718896188312 0.09061471837551235 0.12422554332462425
0.06097193337271272 0.101198948913211 0.1300170408278128
0.03514946966748002 0.10628351556472064 0.13539410595467233
0.008711928206382707 0.1056306696445066 0.14010531311604957
-0.017104500955075267 0.099270937502212 0.14393037150120924
-0.041092670282204286 0.08750169314447585 0.14669042563130827
-0.06213091963820305 0.07087325335689039 0.1482564184428031
-0.07923552386551988 0.05016314550273963 0.14855512585230424
-0.09160669068088763 0.026339751207651984 0.1475725806333328
-0.09866595807358403 0.0005170259110647761 0.14535472550830741
-0.1000832425461388 -0.026097588452051367 0.14200526491790524
-0.09579227345181385 -0.052259622094096556 0.13768081591667547
-0.0859936917363902 -0.07674576739898066 0.13258358493363573
-0.07114566819053962 -0.09841107942664316 0.1269519128243876
-0.05194247989287326 -0.11624251226593542 0.12104913031760559
-0.029282046585379095 -0.12940628793550626 0.1151512449628352
-0.004223944944252822 -0.13728688291553248 0.10953403532423676
0.022060136047846172 -0.13951580934340024 0.10446015588143102
0.048341181976385164 -0.13598884509661618 0.10016685559795162
0.07339032034303031 -0.1268709071034208 0.09685488442339348
0.09603628127787497 -0.11258834001051565 0.09467910644888738
0.11522016481678364 -0.09380898078123179 0.09374125863431772
0.13004495388683213 -0.07141093138137183 0.09408519370115075
0.13981745782767455 -0.046441499707229404 0.09569482962791774
0.14408072521639526 -0.020068228632357115 0.09849490162766492
0.14263541040817898 0.006475696999569427 0.10235448144574062
-0.02199522724329209 0.01641855768770015 -0.1211538623195925
-0.008590762447193548 0.01896236376406344 -0.12324268241668716
0.004813702348904995 0.02150616984042673 -0.1253315025137818
0.018218167145003534 0.02404997591679002 -0.12742032261087646
0.03162263194110208 0.02659378199315331 -0.12950914270797112
0.045027096737200636 0.0291375880695166 -0.13159796280506578
0.05843156153329916 0.031681394145879886 -0.13368678290216043
0.07183602632939771 0.03422520022224318 -0.1357756029992551
0.08524049112549625 0.036769006298606466 -0.13786442309634975
0.0986449559215948 0.03931281237496976 -0.1399532431934444
-0.02199522724329209 0.01641855768770015 -0.1211538623195925
-0.010032969813475347 0.023189475352546257 -0.12240800201702799
0.0019292876163413966 0.02996039301739236 -0.12366214171446349
0.013891545046158135 0.03673131068223846 -0.12491628141189898
0.025853802475974883 0.04350222834708457 -0.12617042110933446
0.03781605990579162 0.050273146011930676 -0.12742456080676995
0.04977831733560836 0.05704406367677677 -0.12867870050420543
0.06174057476542512 0.06381498134162288 -0.12993284020164095
0.07370283219524186 0.07058589900646899 -0.13118697989907643
0.08566508962505859 0.0773568166713151 -0.13244111959651192
-0.02199522724329209 0.01641855768770015 -0.1211538623195925
-0.012771473385826243 0.026682852950430554 -0.12143741612116926
-0.0035477195283603945 0.03694714821316095 -0.12172096992274602
0.005676034329105444 0.04721144347589136 -0.12200452372432276
0.0148997881865713 0.05747573873862176 -0.12228807752589951
0.024123542044037143 0.06774003400135216 -0.12257163132747627
0.03334729590150298 0.07800432926408256 -0.12285518512905302
0.04257104975896883 0.08826862452681296 -0.12313873893062977
0.051794803616434695 0.09853291978954336 -0.12342229273220652
0.061018557473900545 0.10879721505227376 -0.12370584653378328
-0.02199522724329209 0.01641855768770015 -0.1211538623195925
-0.016509513809920957 0.029063934889647165 -0.12043610277111913
-0.011023800376549823 0.041709312091594175 -0.11971834322264574
-0.005538086943178696 0.054354689293541196 -0.11900058367417236
-5.2373509807554924e-05 0.0670000664954882 -0.11828282412569897
0.005433339923563579 0.07964544369743522 -0.11756506457722558
0.010919053356934699 0.09229082089938223 -0.11684730502875221
0.016404766790305832 0.10493619810132926 -0.11612954548027882
0.02189048022367698 0.11758157530327625 -0.11541178593180544
0.027376193657048107 0.1302269525052233 -0.11469402638333205
-0.02199522724329209 0.01641855768770015 -0.1211538623195925
-0.020842016404135535 0.03007469399578898 -0.11951256980533298
-0.01968880556497898 0.0437308303038778 -0.11787127729107345
-0.018535594725822422 0.057386966611966635 -0.11622998477681391
-0.017382383886665867 0.07104310292005546 -0.11458869226255439
-0.016229173047509312 0.08469923922814429 -0.11294739974829486
-0.015075962208352757 0.09835537553623311 -0.11130610723403533
-0.013922751369196197 0.11201151184432194 -0.1096648147197758
-0.012769540530039647 0.12566764815241077 -0.10802352220551627
-0.011616329690883085 0.1393237844604996 -0.10638222969125674
-0.02199522724329209 0.01641855768770015 -0.1211538623195925
-0.025299487286682566 0.029605598836162064 -0.1187668963507442
-0.02860374733007304 0.04279263998462398 -0.11637993038189588
-0.03190800737346352 0.055979681133085886 -0.11399296441304757
-0.035212267416853994 0.0691667222815478 -0.11160599844419926
-0.03851652746024447 0.08235376343000972 -0.10921903247535095
-0.041820787503634944 0.09554080457847161 -0.10683206650650263
-0.04512504754702542 0.10872784572693354 -0.10444510053765432
-0.048429307590415895 0.12191488687539545 -0.102058134568806
-0.05173356763380637 0.13510192802385737 -0.09967116859995769
-0.02199522724329209 0.01641855768770015 -0.1211538623195925
-0.029398890322651042 0.027707483150073358 -0.11827988769647325
-0.03680255340200999 0.03899640861244657 -0.11540591307335399
-0.044206216481368944 0.05028533407481977 -0.11253193845023474
-0.05160987956072789 0.061574259537192984 -0.10965796382711547
-0.059013542640086854 0.07286318499956618 -0.10678398920399622
-0.0664172057194458 0.08415211046193938 -0.10391001458087695
-0.07382086879880476 0.09544103592431259 -0.1010360399577577
-0.0812245318781637 0.1067299613866858 -0.09816206533463843
-0.08862819495752267 0.11801888684905901 -0.09528809071151918
-0.02199522724329209 0.01641855768770015 -0.1211538623195925
-0.03269599158430184 0.024586037224410016 -0.11810431878692826
-0.043396755925311586 0.032753516761119886 -0.11505477525426402
-0.054097520266321336 0.04092099629782974 -0.11200523172159978
-0.06479828460733109 0.04908847583453962 -0.10895568818893553
-0.07549904894834084 0.05725595537124947 -0.10590614465627128
-0.08619981328935059 0.06542343490795932 -0.10285660112360705
-0.09690057763036034 0.0735909144446692 -0.0998070575909428
-0.10760134197137007 0.08175839398137907 -0.09675751405827855
-0.11830210631237983 0.08992587351808892 -0.09370797052561432
-0.02199522724329209 0.01641855768770015 -0.1211538623195925
-0.03483349899013784 0.020579518159441545 -0.11825921523769076
-0.04767177073698359 0.024740478631182936 -0.11536456815578901
-0.06051004248382933 0.02890143910292433 -0.11246992107388726
-0.07334831423067509 0.033062399574665724 -0.10957527399198551
-0.08618658597752084 0.03722336004640712 -0.10668062691008376
-0.09902485772436657 0.041384320518148505 -0.10378597982818201
-0.11186312947121232 0.0455452809898899 -0.10089133274628026
-0.12470140121805807 0.049706241461631294 -0.09799668566437851
-0.13753967296490385 0.05386720193337269 -0.09510203858247676
-0.02199522724329209 0.01641855768770015 -0.1211538623195925
-0.03557978044589201 0.01612209446340592 -0.11872779161485454
-0.04916433364849193 0.01582563123911169 -0.11630172091011658
-0.06274888685109185 0.01552916801481746 -0.11387565020537861
-0.07633344005369178 0.015232704790523228 -0.11144957950064065
-0.0899179932562917 0.014936241566228997 -0.10902350879590268
-0.1035025464588916 0.014639778341934768 -0.10659743809116472
-0.11708709966149153 0.014343315117640537 -0.10417136738642675
-0.13067165286409146 0.014046851893346306 -0.10174529668168879
-0.1442562060666914 0.013750388669052073 -0.09931922597695082
-0.02199522724329209 0.01641855768770015 -0.1211538623195925
-0.034853964776083504 0.011696797157823466 -0.1194592703972423
-0.047712702308874914 0.006975036627946782 -0.1177646784748921
-0.060571439841666325 0.002253276098070098 -0.11607008655254189
-0.07343017737445774 -0.0024684844318065865 -0.1143754946301917
-0.08628891490724915 -0.007190244961683273 -0.1126809027078415
-0.09914765244004056 -0.011912005491559956 -0.11098631078549129
-0.11200638997283197 -0.016633766021436642 -0.10929171886314108
-0.1248651275056234 -0.021355526551313325 -0.10759712694079088
-0.1377238650384148 -0.026077287081190014 -0.10590253501844067
-0.02199522724329209 0.01641855768770015 -0.1211538623195925
-0.03273470537072656 0.007783175871316593 -0.12037438450871958
-0.04347418349816103 -0.0008522059450669635 -0.11959490669784666
-0.0542136616255955 -0.00948758776145052 -0.11881542888697373
-0.06495313975302998 -0.01812296957783408 -0.1180359510761008
-0.07569261788046446 -0.026758351394217634 -0.11725647326522788
-0.08643209600789892 -0.035393733210601186 -0.11647699545435496
-0.0971715741353334 -0.044029115026984735 -0.11569751764348202
-0.10791105226276786 -0.052664496843368304 -0.11491803983260909
-0.11865053039020235 -0.06129987865975186 -0.11413856202173617
-0.02199522724329209 0.01641855768770015 -0.1211538623195925
-0.029451656870089424 0.004805332196369416 -0.12137396713584934
-0.03690808649688676 -0.006807893294961318 -0.1215940719521062
-0.04436451612368409 -0.01842111878629205 -0.12181417676836304
-0.05182094575048143 -0.030034344277622787 -0.12203428158461987
-0.05927737537727877 -0.041647569768953514 -0.12225438640087671
-0.0667338050040761 -0.053260795260284245 -0.12247449121713355
-0.07419023463087343 -0.06487402075161498 -0.1226945960333904
-0.08164666425767077 -0.07648724624294573 -0.12291470084964724
-0.0891030938844681 -0.08810047173427646 -0.12313480566590408
-0.02199522724329209 0.01641855768770015 -0.1211538623195925
-0.025360588520962308 0.003085961701167836 -0.12234969799085958
-0.02872594979863253 -0.01024663428536448 -0.12354553366212664
-0.032091311076302746 -0.023579230271896793 -0.12474136933339372
-0.035456672353972964 -0.036911826258429106 -0.1259372050046608
-0.03882203363164319 -0.050244422244961416 -0.12713304067592784
-0.042187394909313405 -0.06357701823149374 -0.12832887634719492
-0.04555275618698362 -0.07690961421802606 -0.129524712018462
-0.04891811746465384 -0.09024221020455837 -0.13072054768972907
-0.052283478742324065 -0.10357480619109069 -0.13191638336099612
-0.02199522724329209 0.01641855768770015 -0.1211538623195925
-0.020904831058439096 0.0028113848576489923 -0.12319584149558577
-0.0198144348735861 -0.010795787972402167 -0.12523782067157901
-0.018724038688733107 -0.024402960802453317 -0.12727979984757226
-0.017633642503880113 -0.03801013363250448 -0.1293217790235655
-0.016543246319027118 -0.05161730646255564 -0.13136375819955876
-0.015452850134174126 -0.06522447929260679 -0.13340573737555203
-0.01436245394932113 -0.07883165212265797 -0.13544771655154528
-0.013272057764468135 -0.09243882495270912 -0.13748969572753852
-0.01218166157961514 -0.10604599778276029 -0.13953167490353177
-0.02199522724329209 0.01641855768770015 -0.1211538623195925
-0.01656723494178476 0.004011356327306856 -0.12382070487202158
-0.011139242640277432 -0.008395845033086439 -0.12648754742445065
-0.005711250338770107 -0.020803046393479737 -0.12915438997687972
-0.00028325803726277397 -0.033210247753873025 -0.1318212325293088
0.005144734264244551 -0.04561744911426632 -0.13448807508173788
0.010572726565751877 -0.05802465047465962 -0.13715491763416696
0.016000718867259203 -0.07043185183505292 -0.13982176018659603
0.021428711168766542 -0.08283905319544621 -0.1424886027390251
0.026856703470273868 -0.09524625455583952 -0.1451554452914542
-0.02199522724329209 0.01641855768770015 -0.1211538623195925
-0.012817846014977203 0.006555840581928211 -0.12415657447757596
-0.0036404647866623142 -0.0033068765238437286 -0.1271592866355594
0.0055369164416525715 -0.013169593629615665 -0.13016199879354284
0.014714297669967461 -0.02303231073538761 -0.1331647109515263
0.023891678898282354 -0.032895027841159545 -0.13616742310950972
0.03306906012659724 -0.04275774494693148 -0.13917013526749317
0.04224644135491212 -0.052620462052703425 -0.14217284742547662
0.051423822583227016 -0.062483179158475365 -0.14517555958346007
0.06060120381154191 -0.07234589626424731 -0.1481782717414435
-0.02199522724329209 0.01641855768770015 -0.1211538623195925
-0.010062968745999483 0.01016910327078368 -0.12416705362893316
0.0018692897512931248 0.003919648853867211 -0.12718024493827382
0.013801548248585736 -0.002329805563049257 -0.13019343624761445
0.02573380674587834 -0.008579259979965729 -0.1332066275569551
0.03766606524317096 -0.014828714396882194 -0.13621981886629575
0.049598323740463565 -0.021078168813798665 -0.13923301017563638
0.06153058223775619 -0.027327623230715126 -0.14224620148497705
0.07346284073504877 -0.033577077647631605 -0.14525939279431768
0.0853950992323414 -0.03982653206454807 -0.14827258410365834
-0.02199522724329209 0.01641855768770015 -0.1211538623195925
-0.008601136833270464 0.014459591315988524 -0.12385100674744286
0.004792953576751163 0.012500624944276898 -0.1265481511752932
0.018187043986772785 0.010541658572565268 -0.12924529560314355
0.03158113439679442 0.008582692200853644 -0.1319424400309939
0.04497522480681604 0.0066237258291420124 -0.13463958445884425
0.058369315216837664 0.004664759457430386 -0.1373367288866946
0.0717634056268593 0.0027057930857187604 -0.14003387331454495
0.08515749603688093 0.0007468267140071376 -0.14273101774239527
0.09855158644690254 -0.001212139657704492 -0.14542816217024562
-0.02199522724329209 0.01641855768770015 -0.1211538623195925
-0.008590762447193548 0.018962363764063437 -0.12324268241668716
0.004813702348904995 0.021506169840426723 -0.1253315025137818
0.018218167145003534 0.02404997591679001 -0.12742032261087646
0.03162263194110208 0.026593781993153296 -0.12950914270797112
0.045027096737200636 0.029137588069516582 -0.13159796280506578
0.05843156153329916 0.03168139414587987 -0.13368678290216043
0.07183602632939771 0.03422520022224316 -0.1357756029992551
0.08524049112549625 0.03676900629860644 -0.13786442309634975
0.0986449559215948 0.03931281237496973 -0.1399532431934444
0.02199522724329209 -0.01641855768770015 0.1211538623195925
0.03539969203939063 -0.01387475161133686 0.11906504222249785
0.04880415683548917 -0.011330945534973573 0.1169762221254032
0.06220862163158771 -0.008787139458610283 0.11488740202830855
0.07561308642768626 -0.006243333382246993 0.11279858193121389
0.08901755122378481 -0.0036995273058837035 0.11070976183411924
0.10242201601988334 -0.0011557212295204137 0.10862094173702458
0.11582648081598189 0.0013880848468428779 0.10653212163992992
0.12923094561208043 0.003931890923206165 0.10444330154283528
0.14263541040817898 0.006475696999569458 0.10235448144574062
0.02199522724329209 -0.01641855768770015 0.1211538623195925
0.033957484673108836 -0.009647640022854046 0.11989972262215702
0.04591974210292558 -0.0028767223580079414 0.11864558292472153
0.05788199953274231 0.003894195306838158 0.11739144322728604
0.06984425696255907 0.010665112971684269 0.11613730352985055
0.0818065143923758 0.017436030636530372 0.11488316383241506
0.09376877182219254 0.024206948301376468 0.11362902413497958
0.10573102925200929 0.030977865966222578 0.11237488443754408
0.11769328668182603 0.037748783631068684 0.11112074474010859
0.12965554411164276 0.04451970129591479 0.10986660504267311
0.02199522724329209 -0.01641855768770015 0.1211538623195925
0.031218981100757937 -0.006154262424969749 0.12087030851801575
0.040442734958223786 0.004110032837760652 0.12058675471643901
0.04966648881568962 0.014374328100491055 0.12030320091486225
0.05889024267315548 0.024638623363221455 0.1200196471132855
0.06811399653062132 0.03490291862595185 0.11973609331170874
0.07733775038808716 0.04516721388868226 0.119452539510132
0.086561504245553 0.05543150915141266 0.11916898570855525
0.09578525810301887 0.06569580441414306 0.11888543190697849
0.10500901196048472 0.07596009967687346 0.11860187810540174
0.02199522724329209 -0.01641855768770015 0.1211538623195925
0.027480940676663224 -0.0037731804857531388 0.1218716218680659
0.032966654110034355 0.008872196716193874 0.12258938141653927
0.03845236754340548 0.02151757391814089 0.12330714096501266
0.04393808097677662 0.034162951120087895 0.12402490051348604
0.049423794410147756 0.046808328322034916 0.12474266006195943
0.054909507843518876 0.05945370552398193 0.1254604196104328
0.06039522127689001 0.07209908272592896 0.1261781791589062
0.06588093471026116 0.08474445992787595 0.12689593870737959
0.07136664814363229 0.09738983712982299 0.12761369825585298
0.02199522724329209 -0.01641855768770015 0.1211538623195925
0.023148438082448645 -0.0027624213796113247 0.12279515483385203
0.0243016489216052 0.010893714928477502 0.12443644734811157
0.025454859760761755 0.02454985123656633 0.12607773986237109
0.02660807059991831 0.03820598754465515 0.12771903237663063
0.027761281439074866 0.05186212385274399 0.12936032489089017
0.028914492278231424 0.06551826016083281 0.13100161740514968
0.030067703117387982 0.07917439646892165 0.13264290991940922
0.031220913956544534 0.09283053277701046 0.13428420243366876
0.03237412479570109 0.1064866690850993 0.13592549494792827
0.02199522724329209 -0.01641855768770015 0.1211538623195925
0.018690967199901615 -0.003231516539238238 0.12354082828844082
0.015386707156511139 0.009955524609223675 0.12592779425728914
0.012082447113120664 0.02314256575768558 0.12831476022613744
0.008778187069730187 0.0363296069061475 0.13070172619498577
0.005473927026339712 0.04951664805460942 0.13308869216383407
0.002169666982949236 0.06270368920307132 0.1354756581326824
-0.0011345930604412422 0.07589073035153325 0.1378626241015307
-0.004438853103831717 0.08907777149999516 0.14024959007037902
-0.007743113147222192 0.10226481264845708 0.1426365560392273
0.02199522724329209 -0.01641855768770015 0.1211538623195925
0.01459156416393314 -0.005129632225326943 0.12402783694271177
0.007187901084574188 0.006159293237046264 0.12690181156583102
-0.00021576199478476706 0.017448218699419465 0.12977578618895028
-0.007619425074143715 0.02873714416179268 0.13264976081206956
-0.015023088153502676 0.040026069624165876 0.1355237354351888
-0.022426751232861624 0.05131499508653908 0.13839771005830806
-0.02983041431222058 0.0626039205489123 0.1412716846814273
-0.03723407739157952 0.07389284601128551 0.14414565930454656
-0.04463774047093849 0.08518177147365871 0.14701963392766584
0.02199522724329209 -0.01641855768770015 0.1211538623195925
0.011294462902282342 -0.008251078150990285 0.12420340585225675
0.0005936985612725942 -8.359861428041932e-05 0.127252949384921
-0.010107065779737159 0.008083880922429437 0.13030249291758525
-0.0208078301207469 0.016251360459139313 0.13335203645024948
-0.03150859446175666 0.024418839995849168 0.13640157998291372
-0.04220935880276641 0.03258631953255902 0.13945112351557798
-0.05291012314377616 0.04075379906926889 0.1425006670482422
-0.0636108874847859 0.04892127860597877 0.14555021058090645
-0.07431165182579566 0.05708875814268862 0.1485997541135707
0.02199522724329209 -0.01641855768770015 0.1211538623195925
0.009156955496446342 -0.012257597215958758 0.12404850940149426
-0.003681316250399407 -0.008096636744217366 0.12694315648339602
-0.016519587997245153 -0.003935676272475973 0.12983780356529775
-0.029357859744090904 0.00022528419926541894 0.13273245064719952
-0.042196131490936664 0.0043862446710068136 0.13562709772910125
-0.0550344032377824 0.008547205142748204 0.13852174481100302
-0.06787267498462815 0.012708165614489599 0.14141639189290475
-0.0807109467314739 0.01686912608623099 0.14431103897480652
-0.09354921847831967 0.021030086557972383 0.14720568605670825
0.02199522724329209 -0.01641855768770015 0.1211538623195925
0.008410674040692168 -0.01671502091199438 0.12357993302433047
-0.005173879161907754 -0.017011484136288613 0.12600600372906845
-0.01875843236450767 -0.017307947360582842 0.12843207443380641
-0.0323429855671076 -0.017604410584877075 0.13085814513854438
-0.045927538769707524 -0.017900873809171304 0.13328421584328234
-0.05951209197230743 -0.018197337033465533 0.1357102865480203
-0.07309664517490735 -0.018493800257759766 0.13813635725275827
-0.08668119837750729 -0.018790263482053995 0.14056242795749624
-0.10026575158010721 -0.019086726706348228 0.1429884986622342
0.02199522724329209 -0.01641855768770015 0.1211538623195925
0.009136489710500677 -0.021140318217576837 0.12284845424194271
-0.0037222478222907374 -0.02586207874745352 0.12454304616429292
-0.016580985355082147 -0.030583839277330205 0.12623763808664312
-0.029439722887873564 -0.03530559980720689 0.12793223000899331
-0.04229846042066497 -0.040027360337083574 0.12962682193134353
-0.05515719795345639 -0.04474912086696026 0.13132141385369372
-0.06801593548624779 -0.049470881396836947 0.13301600577604394
-0.08087467301903922 -0.05419264192671363 0.13471059769839414
-0.09373341055183063 -0.05891440245659032 0.13640518962074435
0.02199522724329209 -0.01641855768770015 0.1211538623195925
0.01125574911585762 -0.02505393950408371 0.12193334013046543
0.0005162709884231478 -0.033689321320467265 0.12271281794133836
-0.010223207139011325 -0.04232470313685082 0.12349229575221128
-0.020962685266445794 -0.05096008495323438 0.12427177356308422
-0.03170216339388028 -0.05959546676961794 0.12505125137395715
-0.042441641521314744 -0.0682308485860015 0.12583072918483007
-0.05318111964874922 -0.07686623040238504 0.126610206995703
-0.06392059777618368 -0.0855016122187686 0.12738968480657592
-0.07466007590361817 -0.09413699403515216 0.12816916261744885
0.02199522724329209 -0.01641855768770015 0.1211538623195925
0.014538797616494755 -0.028031783179030885 0.12093375750333567
0.00708236798969742 -0.03964500867036162 0.12071365268707883
-0.0003740616370999132 -0.051258234161692354 0.12049354787082199
-0.00783049126389725 -0.06287145965302308 0.12027344305456514
-0.015286920890694593 -0.07448468514435382 0.1200533382383083
-0.022743350517491916 -0.08609791063568455 0.11983323342205146
-0.030199780144289253 -0.09771113612701528 0.11961312860579462
-0.03765620977108659 -0.10932436161834602 0.11939302378953778
-0.04511263939788393 -0.12093758710967675 0.11917291897328093
0.02199522724329209 -0.01641855768770015 0.1211538623195925
0.01862986596562187 -0.029751153674232467 0.11995802664832544
0.015264504687951652 -0.04308374966076478 0.11876219097705837
0.011899143410281433 -0.0564163456472971 0.1175663553057913
0.008533782132611214 -0.06974894163382941 0.11637051963452423
0.0051684208549409895 -0.08308153762036172 0.11517468396325715
0.0018030595772707753 -0.09641413360689403 0.11397884829199009
-0.0015623017003994456 -0.10974672959342635 0.11278301262072302
-0.004927662978069663 -0.12307932557995867 0.11158717694945595
-0.008293024255739887 -0.13641192156649098 0.11039134127818888
0.02199522724329209 -0.01641855768770015 0.1211538623195925
0.023085623428145085 -0.03002573051775131 0.11911188314359926
0.02417601961299808 -0.04363290334780247 0.117069903967606
0.025266415797851074 -0.05724007617785362 0.11502792479161275
0.026356811982704068 -0.07084724900790479 0.1129859456156195
0.027447208167557063 -0.08445442183795594 0.11094396643962624
0.028537604352410054 -0.09806159466800708 0.108901987263633
0.02962800053726305 -0.11166876749805826 0.10686000808763975
0.030718396722116046 -0.12527594032810943 0.10481802891164649
0.03180879290696904 -0.1388831131581606 0.10277604973565324
0.02199522724329209 -0.01641855768770015 0.1211538623195925
0.02742321954479942 -0.028825759048093445 0.11848701976716343
0.032851211846306745 -0.041232960408486743 0.11582017721473435
0.03827920414781407 -0.05364016176888004 0.11315333466230529
0.0437071964493214 -0.06604736312927333 0.11048649210987621
0.04913518875082873 -0.07845456448966663 0.10781964955744713
0.054563181052336054 -0.09086176585005992 0.10515280700501806
0.05999117335384338 -0.10326896721045321 0.10248596445258898
0.06541916565535072 -0.1156761685708465 0.0998191219001599
0.07084715795685805 -0.1280833699312398 0.09715227934773084
0.02199522724329209 -0.01641855768770015 0.1211538623195925
0.031172608471606977 -0.02628127479347209 0.11815115016160907
0.040349989699921866 -0.036143991899244034 0.11514843800362562
0.04952737092823675 -0.04600670900501597 0.11214572584564218
0.05870475215655164 -0.05586942611078791 0.10914301368765873
0.06788213338486654 -0.06573214321655985 0.10614030152967528
0.07705951461318142 -0.07559486032233179 0.10313758937169185
0.0862368958414963 -0.08545757742810373 0.1001348772137084
0.09541427706981119 -0.09532029453387567 0.09713216505572496
0.10459165829812608 -0.1051830116396476 0.09412945289774151
0.02199522724329209 -0.01641855768770015 0.1211538623195925
0.0339274857405847 -0.022668012104616622 0.11814067101025186
0.0458597442378773 -0.02891746652153309 0.11512747970091121
0.05779200273516991 -0.03516692093844956 0.11211428839157056
0.06972426123246252 -0.041416375355366034 0.10910109708222991
0.08165651972975514 -0.047665829772282495 0.10608790577288928
0.09358877822704774 -0.05391528418919897 0.10307471446354863
0.10552103672434036 -0.06016473860611543 0.10006152315420798
0.11745329522163295 -0.0664141930230319 0.09704833184486733
0.12938555371892557 -0.07266364743994838 0.09403514053552668
0.02199522724329209 -0.01641855768770015 0.1211538623195925
0.03538931765331372 -0.018377524059411777 0.11845671789174216
0.048783408063335344 -0.020336490431123403 0.11575957346389182
0.06217749847335696 -0.022295456802835033 0.11306242903604147
0.0755715888833786 -0.02425442317454666 0.11036528460819112
0.08896567929340021 -0.02621338954625829 0.10766814018034078
0.10235976970342184 -0.028172355917969915 0.10497099575249043
0.11575386011344348 -0.03013132228968154 0.10227385132464008
0.12914795052346512 -0.032090288661393164 0.09957670689678974
0.1425420409334867 -0.0340492550331048 0.09687956246893939
0.02199522724329209 -0.01641855768770015 0.1211538623195925
0.03539969203939063 -0.013874751611336864 0.11906504222249785
0.04880415683548917 -0.01133094553497358 0.11697622212540319
0.06220862163158771 -0.008787139458610291 0.11488740202830855
0.07561308642768626 -0.006243333382247007 0.11279858193121389
0.08901755122378481 -0.003699527305883719 0.11070976183411924
0.10242201601988334 -0.0011557212295204328 0.10862094173702458
0.11582648081598189 0.0013880848468428536 0.10653212163992992
0.12923094561208043 0.003931890923206137 0.10444330154283527
0.14263541040817898 0.006475696999569427 0.10235448144574062
