# .PCD v0.7 - Point Cloud Data file format
VERSION 0.7
FIELDS x y z
SIZE 4 4 4
TYPE F F F
COUNT 1 1 1
WIDTH 700
HEIGHT 1
VIEWPOINT 0 0 0 1 0 0 0
POINTS 700
DATA ascii
0.030118535289879667 0.008793249469379736 -0.1225608275414569
0.01454803445382374 0.020175781552061848 -0.1240439292516125
-0.0028477708062558805 0.02859519788195317 -0.12320636635909765
-0.021255471970446794 0.03365781590897712 -0.12008730237388203
-0.03981434539100182 0.03512691324088586 -0.11483258126132367
-0.057656598773482164 0.03293379651922376 -0.10768790794044276
-0.07394794817996338 0.027181013444421576 -0.09898735939498962
-0.08792662821873273 0.018137557759297877 -0.0891377636049845
-0.09893901134736445 0.006226291400609988 -0.07859967672252854
-0.1064701707701484 -0.007995828055131587 -0.06786584797800305
-0.11016795784275778 -0.02386379010892683 -0.057438179273708236
-0.10985946815147248 -0.04063562649111343 -0.04780425680873557
-0.10555912633139533 -0.05752710477301764 -0.039414552090211365
-0.09746801158654651 -0.07374839820370731 -0.032661358386286796
-0.08596445544976704 -0.08854101713103615 -0.027860447528921622
-0.07158635142072829 -0.1012132751347774 -0.02523630477397706
-0.05500600366371327 -0.11117263151487927 -0.024911632120149133
-0.03699869081210702 -0.11795339783603782 -0.026901610899883088
-0.01840641480115991 -0.12123851300135613 -0.03111319191714115
-9.852979331318887e-05 -0.12087436867684719 -0.03734944632439239
0.01706890785621901 -0.11687799184640768 -0.04531877379665274
0.03229316784318105 -0.10943624864897514 -0.05464853743859061
0.04486238069113224 -0.09889710672555797 -0.06490248787159651
0.05418882397697915 -0.08575336463908026 -0.07560116176987046
0.05983640357827276 -0.07061960916128557 -0.08624430103265115
0.061541044949690496 -0.054203477878354445 -0.09633424429701065
0.05922304095527767 -0.03727257084385726 -0.10539919703007401
0.05299077888553662 -0.02061855845337555 -0.11301529211701447
0.04313567238818666 -0.005020163816682775 -0.11882640941624852
0.03011853528987968 0.008793249469379722 -0.1225608275414569
0.03556042160744424 0.018391988364119937 -0.10602449844320834
0.01998992077138832 0.02977452044680205 -0.10750760015336396
0.002594115511308697 0.038193936776693374 -0.1066700372608491
-0.015813585652882215 0.04325655480371733 -0.10355097327563348
-0.03437245907343725 0.04472565213562607 -0.09829625216307511
-0.05221471245591759 0.04253253541396397 -0.0911515788421942
-0.0685060618623988 0.03677975233916178 -0.08245103029674107
-0.08248474190116815 0.027736296654038078 -0.07260143450673594
-0.09349712502979987 0.01582503029535019 -0.06206334762427999
-0.10102828445258383 0.0016029108396086148 -0.05132951887975449
-0.1047260715251932 -0.014265051214186628 -0.040901850175459685
-0.1044175818339079 -0.031036887596373224 -0.03126792771048701
-0.10011724001383075 -0.04792836587827743 -0.02287822299196281
-0.09202612526898193 -0.0641496593089671 -0.01612502928803824
-0.08052256913220246 -0.07894227823629595 -0.011324118430673066
-0.06614446510316371 -0.0916145362400372 -0.008699975675728505
-0.04956411734614869 -0.10157389262013906 -0.008375303021900577
-0.03155680449454245 -0.10835465894129762 -0.010365281801634532
-0.01296452848359533 -0.11163977410661592 -0.014576862818892594
0.0053433565242513885 -0.11127562978210698 -0.020813117226143835
0.02251079417378359 -0.10727925295166747 -0.028782444698404186
0.03773505416074562 -0.09983750975423493 -0.038112208340342055
0.050304267008696814 -0.08929836783081777 -0.04836615877334796
0.05963071029454372 -0.07615462574434005 -0.0590648326716219
0.06527828989583734 -0.06102087026654536 -0.06970797193440259
0.06698293126725507 -0.04460473898361424 -0.0797979151987621
0.06466492727284225 -0.027673831949117055 -0.08886286793182545
0.05843266520310119 -0.01101981955863535 -0.09647896301876592
0.048577558705751235 0.004578575078057427 -0.10229008031799995
0.035560421607444256 0.018391988364119923 -0.10602449844320834
0.04100230792500882 0.027990727258860138 -0.08948816934495979
0.025431807088952894 0.039373259341542254 -0.09097127105511539
0.008036001828873275 0.047792675671433575 -0.09013370816260054
-0.010371699335317638 0.05285529369845753 -0.08701464417738491
-0.02893057275587267 0.05432439103036627 -0.08175992306482656
-0.04677282613835301 0.05213127430870417 -0.07461524974394565
-0.06306417554483422 0.04637849123390198 -0.0659147011984925
-0.07704285558360358 0.03733503554877828 -0.05606510540848739
-0.08805523871223529 0.02542376919009039 -0.04552701852603143
-0.09558639813501925 0.011201649734348817 -0.03479318978150593
-0.09928418520762862 -0.004666312319446425 -0.024365521077211127
-0.09897569551634332 -0.021438148701633023 -0.014731598612238455
-0.09467535369626617 -0.03832962698353723 -0.006341893893714256
-0.08658423895141736 -0.0545509204142269 0.00041129981021031334
-0.07508068281463788 -0.06934353934155575 0.005212210667575491
-0.060702578785599134 -0.082015797345297 0.007836353422520053
-0.04412223102858411 -0.09197515372539887 0.00816102607634798
-0.02611491817697787 -0.09875592004655742 0.006171047296614025
-0.007522642166030753 -0.10204103521187573 0.001959466279355963
0.010785242841815966 -0.10167689088736678 -0.00427678812789528
0.027952680491348164 -0.09768051405692728 -0.01224611560015563
0.0431769404783102 -0.09023877085949474 -0.0215758792420935
0.05574615332626139 -0.07969962893607757 -0.031829829675099404
0.0650725966121083 -0.06655588684959986 -0.042528503573373344
0.07072017621340192 -0.05142213137180516 -0.05317164283615404
0.07242481758481965 -0.035006000088874036 -0.06326158610051354
0.07010681359040682 -0.018075093054376854 -0.0723265388335769
0.06387455152066578 -0.0014210806638951473 -0.07994263392051736
0.054019445023315814 0.01417731397279763 -0.0857537512197514
0.041002307925008835 0.027990727258860124 -0.08948816934495979
0.0464441942425734 0.03758946615360034 -0.07295184024671124
0.030873693406517473 0.048971998236282455 -0.07443494195686684
0.013477888146437852 0.057391414566173776 -0.07359737906435199
-0.004929813017753061 0.062454032593197734 -0.07047831507913636
-0.023488686438308093 0.06392312992510647 -0.06522359396657801
-0.041330939820788434 0.06173001320344437 -0.05807892064569709
-0.05762228922726964 0.05597723012864218 -0.049378372100243956
-0.071600969266039 0.04693377444351848 -0.03952877631023883
-0.08261335239467071 0.035022508084830595 -0.02899068942778287
-0.09014451181745467 0.02080038862908902 -0.018256860683257378
-0.09384229889006404 0.004932426575293777 -0.00782919197896257
-0.09353380919877874 -0.01183940980689282 0.0018047304860101007
-0.0892334673787016 -0.02873088808879703 0.010194435204534301
-0.08114235263385278 -0.0449521815194867 0.01694762890845887
-0.0696387964970733 -0.059744800446815544 0.021748539765824047
-0.055260692468034556 -0.07241705845055679 0.02437268252076861
-0.03868034471101953 -0.08237641483065866 0.024697355174596536
-0.020673031859413292 -0.08915718115181721 0.02270737639486258
-0.002080755848466176 -0.09244229631713552 0.01849579537760452
0.016227129159380543 -0.09207815199262658 0.012259540970353276
0.03339456680891274 -0.08808177516218707 0.004290213498092926
0.04861882679587478 -0.08064003196475453 -0.005039550143844943
0.06118803964382597 -0.07010089004133736 -0.015293500576850848
0.07051448292967288 -0.05695714795485965 -0.02599217447512479
0.0761620625309665 -0.04182339247706496 -0.03663531373790548
0.07786670390238423 -0.025407261194133834 -0.046725257002264986
0.0755486999079714 -0.008476354159636651 -0.05579020973532834
0.06931643783823035 0.008177658230845054 -0.0634063048222688
0.05946133134088039 0.023776052867537832 -0.06921742212150285
0.046444194242573414 0.03758946615360033 -0.07295184024671124
0.05188608056013798 0.047188205048340544 -0.056415511148462674
0.03631557972408205 0.058570737131022656 -0.05789861285861828
0.01891977446400243 0.06699015346091398 -0.05706104996610343
0.0005120732998115179 0.07205277148793794 -0.053941985980887806
-0.018046800120743514 0.07352186881984668 -0.048687264868329444
-0.035889053503223856 0.07132875209818458 -0.041542591547448535
-0.05218040290970506 0.06557596902338239 -0.0328420430019954
-0.06615908294847442 0.056532513338258684 -0.02299244721199027
-0.07717146607710614 0.044621246979570796 -0.01245436032953431
-0.08470262549989009 0.030399127523829225 -0.0017205315850088174
-0.08840041257249946 0.014531165470033981 0.008707137119285991
-0.08809192288121416 -0.0022406709121526153 0.018341059584258662
-0.08379158106113702 -0.019132149194056824 0.026730764302782862
-0.0757004663162882 -0.035353442624746496 0.03348395800670743
-0.06419691017950872 -0.05014606155207534 0.038284868864072605
-0.04981880615046998 -0.06281831955581658 0.040909011619017166
-0.033238458393454955 -0.07277767593591845 0.04123368427284509
-0.015231145541848713 -0.079558442257077 0.03924370549311114
0.003361130469098403 -0.08284355742239531 0.03503212447585308
0.021669015476945122 -0.08247941309788637 0.028795870068601837
0.03883645312647732 -0.07848303626744686 0.020826542596341487
0.05406071311343936 -0.07104129307001432 0.011496778954403618
0.06662992596139056 -0.06050215114659716 0.001242828521397712
0.07595636924723746 -0.04735840906011945 -0.009455845376876229
0.08160394884853107 -0.03222465358232476 -0.02009898463965692
0.08330859021994881 -0.01580852229939363 -0.03018892790401642
0.08099058622553598 0.0011223847351035537 -0.03925388063707978
0.07475832415579493 0.01777639712558526 -0.04686997572402025
0.06490321765844498 0.03337479176227803 -0.052681093023254286
0.05188608056013799 0.04718820504834053 -0.056415511148462674
0.05732796687770256 0.05678694394308075 -0.03987918205021411
0.04175746604164663 0.06816947602576286 -0.04136228376036972
0.02436166078156701 0.07658889235565418 -0.040524720867854865
0.005953959617376096 0.08165151038267814 -0.03740565688263924
-0.012604913803178935 0.08312060771458687 -0.03215093577008088
-0.030447167185659277 0.08092749099292477 -0.025006262449199974
-0.04673851659214048 0.07517470791812259 -0.016305713903746837
-0.060717196630909846 0.06613125223299889 -0.006456118113741708
-0.07172957975954157 0.054219985874311004 0.0040819687687142486
-0.07926073918232553 0.03999786641856943 0.014815797513239741
-0.0829585262549349 0.024129904364774184 0.02524346621753455
-0.0826500365636496 0.007358067982587588 0.03487738868250722
-0.07834969474357245 -0.009533410299316621 0.04326709340103142
-0.07025857999872363 -0.025754703730006292 0.05002028710495599
-0.05875502386194415 -0.040547322657335134 0.05482119796232117
-0.0443769198329054 -0.053219580661076384 0.05744534071726573
-0.02779657207589038 -0.06317893704117826 0.05777001337109366
-0.009789259224284134 -0.06995970336233681 0.0557800345913597
0.008803016786662982 -0.07324481852765512 0.05156845357410164
0.0271109017945097 -0.07288067420314617 0.0453321991668504
0.0442783394440419 -0.06888429737270667 0.037362871694590044
0.05950259943100394 -0.06144255417527412 0.028033108052652175
0.07207181227895512 -0.050903412251856954 0.017779157619646272
0.08139825556480203 -0.03775967016537924 0.007080483721372329
0.08704583516609564 -0.022625914687584552 -0.0035626555414083614
0.08875047653751338 -0.006209783404653428 -0.013652598805767864
0.08643247254310055 0.010721123629843758 -0.02271755153883122
0.0802002104733595 0.02737513602032546 -0.030333646625771687
0.07034510397600954 0.04297353065701824 -0.03614476392500572
0.05732796687770257 0.05678694394308074 -0.03987918205021411
0.06276985319526714 0.06638568283782095 -0.023342852951965563
0.0471993523592112 0.07776821492050306 -0.02482595466212117
0.029803547099131585 0.08618763125039439 -0.023988391769606317
0.011395845934940672 0.09125024927741834 -0.020869327784390695
-0.00716302748561436 0.09271934660932708 -0.015614606671832332
-0.0250052808680947 0.09052622988766498 -0.008469933350951423
-0.04129663027457591 0.0847734468128628 0.00023061519450171257
-0.055275310313345274 0.0757299911277391 0.010080210984506842
-0.06628769344197699 0.0638187247690512 0.020618297866962797
-0.07381885286476095 0.04959660531330962 0.03135212661148829
-0.07751663993737032 0.033728643259514385 0.041779795315783096
-0.07720815024608502 0.016956806877327785 0.05141371778075577
-0.07290780842600787 6.532859542357637e-05 0.059803422499279967
-0.06481669368115905 -0.016155964835266094 0.06655661620320454
-0.05331313754437958 -0.03094858376259494 0.07135752706056972
-0.038935033515340826 -0.04362084176633619 0.07398166981551428
-0.022354685758325804 -0.05358019814643806 0.0743063424693422
-0.004347372906719559 -0.06036096446759661 0.07231636368960825
0.014244903104227557 -0.06364607963291491 0.06810478267235019
0.03255278811207427 -0.06328193530840596 0.06186852826509894
0.04972022576160647 -0.05928555847796647 0.053899200792838595
0.06494448574856851 -0.051843815280533924 0.044569437150900726
0.0775136985965197 -0.04130467335711676 0.03431548671789482
0.0868401418823666 -0.028160931270639046 0.02361681281962088
0.09248772148366022 -0.013027175792844353 0.012973673556840188
0.09419236285507795 0.00338895549008677 0.0028837302924806857
0.09187435886066513 0.020319862524583954 -0.006181222440582672
0.08564209679092408 0.03697387491506566 -0.013797317527523136
0.07578699029357412 0.052572269551758435 -0.019608434826757174
0.06276985319526715 0.06638568283782094 -0.023342852951965563
0.06821173951283171 0.07598442173256115 -0.006806523853717002
0.05264123867677579 0.08736695381524326 -0.00828962556387261
0.03524543341669616 0.09578637014513458 -0.0074520626713577565
0.01683773225250525 0.10084898817215854 -0.004332998686142134
-0.0017211411680497812 0.10231808550406728 0.0009217224264162288
-0.019563394550530123 0.10012496878240518 0.008066395747297138
-0.035854743957011326 0.09437218570760299 0.016766944292750274
-0.04983342399578069 0.08532873002247929 0.026616540082755404
-0.060845807124412406 0.0734174636637914 0.03715462696521136
-0.06837696654719637 0.05919534420804983 0.047888455709736856
-0.07207475361980574 0.043327382154254586 0.05831612441403166
-0.07176626392852044 0.026555545772067993 0.06795004687900433
-0.0674659221084433 0.009664067490163781 0.07633975159752854
-0.05937480736359447 -0.006557225940525887 0.0830929453014531
-0.047871251226814994 -0.021349844867854732 0.08789385615881828
-0.03349314719777624 -0.03402210287159598 0.09051799891376285
-0.016912799440761225 -0.04398145925169785 0.09084267156759077
0.0010945134108450198 -0.0507622255728564 0.08885269278785682
0.019686789421792136 -0.05404734073817471 0.08464111177059876
0.03799467442963886 -0.053683196413665764 0.07840485736334751
0.05516211207917106 -0.04968681958322626 0.07043552989108716
0.07038637206613309 -0.042245076385793716 0.06110576624914929
0.08295558491408428 -0.03170593446237655 0.050851815816143384
0.09228202819993118 -0.018562192375898838 0.040153141917869443
0.0979296078012248 -0.003428436898104148 0.02951000265508875
0.09963424917264253 0.012987694384826975 0.019420059390729248
0.0973162451782297 0.02991860141932416 0.01035510665766589
0.09108398310848866 0.04657261380980587 0.002739011570725425
0.0812288766111387 0.06217100844649864 -0.0030721057285086127
0.06821173951283173 0.07598442173256113 -0.006806523853717002
0.0736536258303963 0.08558316062730136 0.009729805244531561
0.05808312499434037 0.09696569270998347 0.008246703534375953
0.04068731973426074 0.10538510903987479 0.009084266426890806
0.02227961857006983 0.11044772706689875 0.012203330412106429
0.0037207451495147982 0.11191682439880749 0.01745805152466479
-0.014121508232965544 0.10972370767714539 0.0246027248455457
-0.03041285763944675 0.1039709246023432 0.03330327339099884
-0.04439153767821611 0.0949274689172195 0.043152869181003965
-0.05540392080684783 0.08301620255853161 0.05369095606345992
-0.06293508022963179 0.06879408310279003 0.06442478480798541
-0.06663286730224116 0.052926121048994794 0.07485245351228022
-0.06632437761095586 0.036154284666808194 0.08448637597725289
-0.06202403579087871 0.019262806384903988 0.09287608069577709
-0.05393292104602989 0.003041512954214318 0.09962927439970166
-0.042429364909250415 -0.011751105973114528 0.10443018525706683
-0.028051260880211665 -0.024423363976855777 0.1070543280120114
-0.011470913123196647 -0.03438272035695765 0.10737900066583933
0.006536399728409599 -0.0411634866781162 0.10538902188610537
0.025128675739356714 -0.04444860184343451 0.10117744086884731
0.04343656074720344 -0.04408445751892556 0.09494118646159606
0.06060399839673564 -0.04008808068848606 0.08697185898933572
0.07582825838369767 -0.032646337491053515 0.07764209534739785
0.08839747123164886 -0.022107195567636347 0.06738814491439195
0.09772391451749576 -0.008963453481158633 0.056689471016118
0.10337149411878938 0.006170301996636057 0.04604633175333731
0.10507613549020711 0.02258643327956718 0.03595638848897781
0.10275813149579428 0.03951734031406436 0.02689143575591445
0.09652586942605323 0.05617135270454607 0.019275340668973986
0.08667076292870328 0.07176974734123885 0.01346422336973995
0.07365362583039631 0.08558316062730134 0.009729805244531561
0.07909551214796087 0.09518189952204156 0.026266134342780117
0.06352501131190494 0.10656443160472368 0.02478303263262451
0.04612920605182532 0.114983847934615 0.025620595525139362
0.027721504887634408 0.12004646596163895 0.028739659510354985
0.009162631467079376 0.1215155632935477 0.033994380622913344
-0.008679621915400965 0.1193224465718856 0.04113905394379425
-0.024970971321882172 0.1135696634970834 0.04983960248924739
-0.03894965136065154 0.1045262078119597 0.05968919827925252
-0.049962034489283255 0.09261494145327182 0.07022728516170848
-0.05749319391206721 0.07839282199753024 0.08096111390623396
-0.06119098098467658 0.062524859943735 0.09138878261052878
-0.06088249129339128 0.0457530235615484 0.10102270507550144
-0.056582149473314136 0.02886154527964419 0.10941240979402565
-0.04849103472846532 0.01264025184895452 0.11616560349795022
-0.03698747859168584 -0.002152367078374326 0.1209665143553154
-0.022609374562647087 -0.014824625082115576 0.12359065711025996
-0.006029026805632069 -0.024783981462217445 0.12391532976408788
0.011978286045974177 -0.03156474778337599 0.12192535098435393
0.030570562056921293 -0.0348498629486943 0.11771376996709587
0.04887844706476801 -0.034485718624185355 0.11147751555984463
0.06604588471430022 -0.030489341793745853 0.10350818808758427
0.08127014470126225 -0.02304759859631331 0.0941784244456464
0.09383935754921344 -0.012508456672896146 0.0839244740126405
0.10316580083506034 0.000635285413581568 0.07322580011436655
0.10881338043635395 0.01576904089137626 0.06258266085158587
0.11051802180777169 0.032185172174307386 0.052492717587226366
0.10820001781335886 0.04911607920880457 0.043427764854163005
0.10196775574361781 0.06577009159928628 0.03581166976722254
0.09211264924626786 0.08136848623597905 0.030000552467988505
0.07909551214796089 0.09518189952204155 0.026266134342780117
-0.0244884884290406 -0.043194325026330915 -0.07441348094211851
-0.01842104134916057 -0.037417927860140844 -0.07976318611982278
-0.012353594269280543 -0.03164153069395077 -0.08511289129752704
-0.006286147189400514 -0.025865133527760698 -0.0904625964752313
-0.00021870010952048464 -0.020088736361570627 -0.09581230165293557
0.005848746970359549 -0.014312339195380549 -0.10116200683063983
0.011916194050239571 -0.008535942029190485 -0.1065117120083441
0.017983641130119608 -0.002759544863000407 -0.11186141718604836
0.02405108820999963 0.0030168523031896574 -0.11721112236375263
0.030118535289879667 0.008793249469379736 -0.1225608275414569
-0.0244884884290406 -0.043194325026330915 -0.07441348094211851
-0.021148672794215066 -0.035616636371098485 -0.07991114316772004
-0.017808857159389534 -0.02803894771586606 -0.08540880539332156
-0.014469041524564004 -0.020461259060633636 -0.09090646761892307
-0.011129225889738468 -0.012883570405401203 -0.09640412984452461
-0.007789410254912934 -0.005305881750168776 -0.10190179207012613
-0.004449594620087405 0.0022718069050636394 -0.10739945429572764
-0.0011097789852618667 0.009849495560296077 -0.11289711652132918
0.002230036649563665 0.017427184215528507 -0.1183947787469307
0.005569852284389197 0.025004872870760923 -0.12389244097253223
-0.0244884884290406 -0.043194325026330915 -0.07441348094211851
-0.02423822508588195 -0.034636505027804736 -0.07946334320845466
-0.023987961742723298 -0.026078685029278553 -0.0845132054747908
-0.023737698399564654 -0.017520865030752373 -0.08956306774112695
-0.023487435056405995 -0.008963045032226193 -0.0946129300074631
-0.02323717171324735 -0.00040522503370001397 -0.09966279227379923
-0.022986908370088707 0.008152594964826166 -0.10471265454013538
-0.02273664502693005 0.016710414963352346 -0.10976251680647153
-0.02248638168377139 0.025268234961878525 -0.11481237907280768
-0.02223611834061275 0.03382605496040471 -0.11986224133914383
-0.0244884884290406 -0.043194325026330915 -0.07441348094211851
-0.027354897294015943 -0.034583746269610215 -0.07846831231594532
-0.030221306158991285 -0.02597316751288952 -0.08252314368977214
-0.03308771502396663 -0.017362588756168824 -0.08657797506359896
-0.03595412388894197 -0.00875200999944813 -0.09063280643742577
-0.038820532753917315 -0.00014143124272742965 -0.09468763781125258
-0.04168694161889266 0.008469147513993264 -0.09874246918507941
-0.044553350483868 0.017079726270713958 -0.10279730055890622
-0.04741975934884334 0.025690305027434652 -0.10685213193273303
-0.05028616821381869 0.03430088378415534 -0.11090696330655986
-0.0244884884290406 -0.043194325026330915 -0.07441348094211851
-0.030160949624713707 -0.0354640773266018 -0.0770338775268905
-0.03583341082038681 -0.027733829626872677 -0.07965427411166251
-0.04150587201605991 -0.020003581927143566 -0.08227467069643452
-0.04717833321173302 -0.012273334227414442 -0.08489506728120651
-0.05285079440740613 -0.004543086527685324 -0.08751546386597851
-0.05852325560307922 0.003187161172043779 -0.09013586045075052
-0.06419571679875233 0.010917408871772897 -0.09275625703552251
-0.06986817799442545 0.01864765657150203 -0.09537665362029452
-0.07554063919009854 0.026377904271231132 -0.09799705020506652
-0.0244884884290406 -0.043194325026330915 -0.07441348094211851
-0.032352302767556095 -0.03718210066901067 -0.07531548210823333
-0.04021611710607159 -0.031169876311690426 -0.07621748327434814
-0.04807993144458708 -0.025157651954370187 -0.07711948444046296
-0.055943745783102586 -0.01914542759704994 -0.07802148560657779
-0.06380756012161809 -0.013133203239729701 -0.0789234867726926
-0.07167137446013357 -0.0071209788824094615 -0.07982548793880742
-0.07953518879864908 -0.0011087545250892086 -0.08072748910492225
-0.08739900313716457 0.004903469832231031 -0.08162949027103707
-0.09526281747568006 0.01091569418955127 -0.08253149143715188
-0.0244884884290406 -0.043194325026330915 -0.07441348094211851
-0.03369148960716875 -0.03955164180980802 -0.07349934086723746
-0.0428944907852969 -0.03590895859328513 -0.0725852007923564
-0.05209749196342505 -0.03226627537676224 -0.07167106071747535
-0.0613004931415532 -0.02862359216023935 -0.0707569206425943
-0.07050349431968136 -0.024980908943716455 -0.06984278056771324
-0.0797064954978095 -0.021338225727193568 -0.0689286404928322
-0.08890949667593766 -0.017695542510670674 -0.06801450041795115
-0.0981124978540658 -0.014052859294147783 -0.0671003603430701
-0.10731549903219396 -0.01041017607762489 -0.06618622026818904
-0.0244884884290406 -0.043194325026330915 -0.07441348094211851
-0.03403338846985482 -0.0423159241991694 -0.07178226088769968
-0.04357828851066904 -0.041437523372007894 -0.06915104083328083
-0.053123188551483264 -0.040559122544846386 -0.066519820778862
-0.06266808859229749 -0.03968072171768487 -0.06388860072444316
-0.07221298863311171 -0.038802320890523365 -0.06125738067002433
-0.08175788867392593 -0.03792392006336186 -0.058626160615605494
-0.09130278871474015 -0.03704551923620034 -0.05599494056118666
-0.10084768875555437 -0.036167118409038836 -0.05336372050676782
-0.11039258879636861 -0.03528871758187732 -0.050732500452348984
-0.0244884884290406 -0.043194325026330915 -0.07441348094211851
-0.03334094930873482 -0.045175394947946895 -0.07035031442864392
-0.04219341018842903 -0.047156464869562875 -0.06628714791516935
-0.05104587106812324 -0.04913753479117886 -0.06222398140169476
-0.059898331947817456 -0.05111860471279484 -0.058160814888220176
-0.06875079282751168 -0.05309967463441082 -0.054097648374745594
-0.07760325370720589 -0.05508074455602681 -0.05003448186127101
-0.0864557145869001 -0.057061814477642796 -0.04597131534779642
-0.09530817546659431 -0.059042884399258776 -0.04190814883432184
-0.10416063634628854 -0.061023954320874756 -0.03784498232084726
-0.0244884884290406 -0.043194325026330915 -0.07441348094211851
-0.03168920865121669 -0.04782018603125026 -0.06935867510784752
-0.03888992887339278 -0.05244604703616961 -0.06430386927357652
-0.04609064909556886 -0.05707190804108896 -0.059249063439305534
-0.05329136931774496 -0.061697769046008315 -0.05419425760503453
-0.060492089539921044 -0.06632363005092766 -0.04913945177076354
-0.06769280976209713 -0.07094949105584701 -0.044084645936492556
-0.07489352998427323 -0.07557535206076638 -0.03902984010222155
-0.08209425020644932 -0.08020121306568571 -0.03397503426795056
-0.08929497042862541 -0.08482707407060507 -0.028920228433679567
-0.0244884884290406 -0.043194325026330915 -0.07441348094211851
-0.029257158226939528 -0.049963693297041624 -0.06891480243258816
-0.03402582802483845 -0.05673306156775233 -0.0634161239230578
-0.03879449782273738 -0.06350242983846305 -0.05791744541352746
-0.043563167620636306 -0.07027179810917375 -0.052418766903997105
-0.04833183741853524 -0.07704116637988447 -0.04692008839446676
-0.05310050721643417 -0.08381053465059517 -0.04142140988493641
-0.057869177014333084 -0.09057990292130588 -0.03592273137540605
-0.06263784681223201 -0.0973492711920166 -0.0304240528658757
-0.06740651661013095 -0.1041186394627273 -0.02492537435634536
-0.0244884884290406 -0.043194325026330915 -0.07441348094211851
-0.02630834843652428 -0.05137363447313036 -0.0690667968946244
-0.02812820844400796 -0.05955294391992981 -0.06372011284713029
-0.029948068451491644 -0.06773225336672926 -0.058373428799636175
-0.031767928458975324 -0.0759115628135287 -0.053026744752142065
-0.033587788466459004 -0.08409087226032816 -0.04768006070464795
-0.035407648473942684 -0.0922701817071276 -0.04233337665715384
-0.03722750848142637 -0.10044949115392705 -0.03698669260965972
-0.03904736848891004 -0.1086288006007265 -0.03164000856216562
-0.04086722849639374 -0.11680811004752595 -0.026293324514671496
-0.0244884884290406 -0.043194325026330915 -0.07441348094211851
-0.023162328576260702 -0.0518972205555958 -0.06979818753555753
-0.021836168723480803 -0.06060011608486068 -0.06518289412899654
-0.020510008870700907 -0.06930301161412557 -0.06056760072243556
-0.019183849017921008 -0.07800590714339045 -0.055952307315874576
-0.017857689165141112 -0.08670880267265534 -0.05133701390931359
-0.016531529312361216 -0.09541169820192022 -0.04672172050275261
-0.015205369459581314 -0.10411459373118512 -0.04210642709619162
-0.013879209606801415 -0.11281748926044999 -0.03749113368963064
-0.012553049754021519 -0.12152038478971489 -0.032875840283069654
-0.0244884884290406 -0.043194325026330915 -0.07441348094211851
-0.02016001871353611 -0.05147771286812766 -0.07102971683074735
-0.01583154899803162 -0.059761100709924415 -0.06764595271937619
-0.011503079282527126 -0.06804448855172117 -0.06426218860800503
-0.007174609567022638 -0.07632787639351792 -0.06087842449663387
-0.0028461398515181448 -0.08461126423531468 -0.057494660385262714
0.0014823298639863494 -0.09289465207711142 -0.05411089627389156
0.005810799579490847 -0.10117803991890818 -0.0507271321625204
0.010139269294995323 -0.10946142776070492 -0.04734336805114924
0.014467739010499827 -0.11774481560250168 -0.04395960393977808
-0.0244884884290406 -0.043194325026330915 -0.07441348094211851
-0.01762676570761412 -0.05016057157799558 -0.07262792947191415
-0.010765042986187637 -0.05712681812966025 -0.07084237800170981
-0.0039033202647611623 -0.06409306468132492 -0.06905682653150545
0.0029584024566653264 -0.07105931123298959 -0.0672712750613011
0.009820125178091808 -0.07802555778465425 -0.06548572359109675
0.016681847899518275 -0.08499180433631891 -0.06370017212089239
0.023543570620944764 -0.09195805088798359 -0.06191462065068804
0.030405293342371253 -0.09892429743964826 -0.06012906918048369
0.037267016063797724 -0.10589054399131292 -0.05834351771027933
-0.0244884884290406 -0.043194325026330915 -0.07441348094211851
-0.015837086829156757 -0.04808852938153823 -0.07441963432056328
-0.0071856852292729164 -0.052982733736745544 -0.07442578769900805
0.00146571637061092 -0.057876938091952865 -0.07443194107745282
0.010117117970494766 -0.06277114244716017 -0.0744380944558976
0.0187685195703786 -0.0676653468023675 -0.07444424783434236
0.02741992117026244 -0.07255955115757481 -0.07445040121278713
0.03607132277014628 -0.07745375551278212 -0.0744565545912319
0.04472272437003014 -0.08234795986798944 -0.07446270796967668
0.05337412596991398 -0.08724216422319675 -0.07446886134812145
-0.0244884884290406 -0.043194325026330915 -0.07441348094211851
-0.014984921554373897 -0.04548612420178908 -0.07621067235517841
-0.005481354679707193 -0.04777792337724725 -0.0780078637682383
0.004022212194959512 -0.05006972255270541 -0.07980505518129821
0.013525779069626213 -0.05236152172816358 -0.08160224659435811
0.023029345944292925 -0.054653320903621745 -0.083399438007418
0.032532912818959626 -0.05694512007907991 -0.08519662942047791
0.042036479693626325 -0.05923691925453808 -0.08699382083353781
0.05154004656829303 -0.06152871842999624 -0.0887910122465977
0.061043613442959735 -0.0638205176054544 -0.09058820365965761
-0.0244884884290406 -0.043194325026330915 -0.07441348094211851
-0.015162615213494875 -0.04263536702045086 -0.0778069568138905
-0.005836741997949149 -0.042076409014570805 -0.08120043268566249
0.0034891312175965726 -0.04151745100869075 -0.08459390855743447
0.012815004433142301 -0.0409584930028107 -0.08798738442920646
0.02214087764868802 -0.04039953499693064 -0.09138086030097846
0.03146675086423375 -0.0398405769910506 -0.09477433617275044
0.040792624079779474 -0.03928161898517054 -0.09816781204452243
0.05011849729532521 -0.038722660979290495 -0.10156128791629442
0.059444370510870925 -0.03816370297341044 -0.10495476378806641
-0.0244884884290406 -0.043194325026330915 -0.07441348094211851
-0.01635091194135273 -0.03984518161217683 -0.0790355055066927
-0.008213335453664865 -0.036496038198022746 -0.08365753007126688
-7.575896597699791e-05 -0.03314689478386867 -0.08827955463584104
0.008061817521710871 -0.029797751369714576 -0.09290157920041522
0.01619939400939874 -0.02644860795556049 -0.0975236037649894
0.024336970497086604 -0.023099464541406416 -0.10214562832956357
0.03247454698477448 -0.019750321127252318 -0.10676765289413777
0.04061212347246235 -0.01640117771309824 -0.11138967745871195
0.04874969996015022 -0.013052034298944158 -0.11601170202328613
-0.0244884884290406 -0.043194325026330915 -0.07441348094211851
-0.01842104134916057 -0.037417927860140844 -0.07976318611982278
-0.01235359426928054 -0.03164153069395077 -0.08511289129752704
-0.006286147189400507 -0.0258651335277607 -0.0904625964752313
-0.0002187001095204777 -0.020088736361570634 -0.09581230165293557
0.005848746970359559 -0.014312339195380556 -0.10116200683063983
0.011916194050239585 -0.008535942029190492 -0.1065117120083441
0.01798364113011962 -0.0027595448630004208 -0.11186141718604836
0.024051088209999644 0.0030168523031896435 -0.11721112236375263
0.03011853528987968 0.008793249469379722 -0.1225608275414569
0.0244884884290406 0.043194325026330915 0.07441348094211851
0.03055593550892063 0.048970722192520987 0.06906377576441425
0.03662338258880066 0.05474711935871106 0.06371407058670998
0.04269082966868069 0.06052351652490113 0.05836436540900571
0.04875827674856072 0.0662999136910912 0.05301466023130145
0.054825723828440746 0.07207631085728128 0.04766495505359718
0.06089317090832077 0.07785270802347134 0.04231524987589291
0.06696061798820081 0.08362910518966142 0.03696554469818865
0.07302806506808084 0.08940550235585148 0.031615839520484385
0.07909551214796087 0.09518189952204156 0.026266134342780117
0.0244884884290406 0.043194325026330915 0.07441348094211851
0.027828304063866133 0.05077201368156334 0.06891581871651699
0.031168119698691668 0.05834970233679577 0.06341815649091546
0.034507935333517196 0.06592739099202818 0.05792049426531394
0.03784775096834273 0.07350507964726062 0.05242283203971241
0.04118756660316827 0.08108276830249304 0.046925169814110886
0.044527382237993796 0.08866045695772547 0.04142750758850937
0.04786719787281933 0.0962381456129579 0.03592984536290784
0.051207013507644866 0.10381583426819033 0.03043218313730631
0.054546829142470395 0.11139352292342275 0.024934520911704793
0.0244884884290406 0.043194325026330915 0.07441348094211851
0.024738751772199252 0.051752145024857095 0.06936361867578236
0.024989015115357904 0.060309965023383275 0.06431375640944621
0.025239278458516548 0.06886778502190945 0.05926389414311007
0.025489541801675206 0.07742560502043563 0.05421403187677392
0.02573980514483385 0.0859834250189618 0.04916416961043778
0.025990068487992495 0.094541245017488 0.044114307344101635
0.02624033183115115 0.10309906501601417 0.039064445077765485
0.026490595174309812 0.11165688501454035 0.03401458281142933
0.026740858517468453 0.12021470501306654 0.02896472054509319
0.0244884884290406 0.043194325026330915 0.07441348094211851
0.02162207956406526 0.05180490378305161 0.07035864956829169
0.018755670699089913 0.0604154825397723 0.06630381819446488
0.01588926183411457 0.069026061296493 0.06224898682063806
0.013022852969139229 0.07763664005321369 0.058194155446811245
0.010156444104163883 0.0862472188099344 0.05413932407298443
0.00729003523918854 0.09485779756665509 0.05008449269915761
0.004423626374213198 0.10346837632337579 0.04602966132533079
0.0015572175092378557 0.11207895508009648 0.04197482995150398
-0.00130919135573749 0.12068953383681717 0.03791999857767716
0.0244884884290406 0.043194325026330915 0.07441348094211851
0.018816027233367495 0.05092457272606003 0.0717930843573465
0.01314356603769439 0.05865482042578915 0.0691726877725745
0.007471104842021288 0.06638506812551825 0.06655229118780251
0.0017986436463481783 0.07411531582524739 0.0639318946030305
-0.003873817549324928 0.0818455635249765 0.0613114980182585
-0.009546278744998023 0.0895758112247056 0.0586911014334865
-0.015218739940671123 0.09730605892443472 0.0560707048487145
-0.020891201136344243 0.10503630662416386 0.053450308263942495
-0.026563662332017342 0.11276655432389296 0.050829911679170496
0.0244884884290406 0.043194325026330915 0.07441348094211851
0.016624674090525104 0.049206549383651155 0.07351147977600368
0.008760859752009607 0.0552187737409714 0.07260947860988887
0.000897045413494116 0.06123099809829164 0.07170747744377405
-0.006966768925021388 0.06724322245561189 0.07080547627765924
-0.014830583263536885 0.07325544681293213 0.0699034751115444
-0.022694397602052368 0.07926767117025237 0.06900147394542959
-0.03055821194056788 0.08527989552757262 0.06809947277931477
-0.03842202627908338 0.09129211988489286 0.06719747161319996
-0.04628584061759887 0.0973043442422131 0.06629547044708513
0.0244884884290406 0.043194325026330915 0.07441348094211851
0.015285487250912451 0.046837008242853806 0.07532762101699957
0.0060824860727843 0.0504796914593767 0.0762417610918806
-0.0031205151053438494 0.05412237467589959 0.07715590116676166
-0.012323516283471999 0.05776505789242248 0.07807004124164271
-0.02152651746160016 0.06140774110894537 0.07898418131652377
-0.0307295186397283 0.06505042432546826 0.07989832139140482
-0.03993251981785646 0.06869310754199115 0.08081246146628587
-0.0491355209959846 0.07233579075851404 0.08172660154116693
-0.05833852217411277 0.07597847397503693 0.08264074161604797
0.0244884884290406 0.043194325026330915 0.07441348094211851
0.014943588388226379 0.04407272585349242 0.07704470099653735
0.005398688347412156 0.04495112668065393 0.07967592105095618
-0.004146211693402066 0.045829527507815444 0.08230714110537501
-0.013691111734216287 0.04670792833497695 0.08493836115979385
-0.02323601177503051 0.047586329162138466 0.08756958121421268
-0.032780911815844735 0.04846472998929997 0.09020080126863152
-0.04232581185665896 0.04934313081646149 0.09283202132305035
-0.05187071189747318 0.050221531643622995 0.0954632413774692
-0.061415611938287415 0.05109993247078451 0.09809446143188803
0.0244884884290406 0.043194325026330915 0.07441348094211851
0.015636027549346385 0.04121325510471493 0.07847664745559309
0.006783566669652171 0.03923218518309895 0.08253981396906768
-0.0020688942100420414 0.03725111526148297 0.08660298048254225
-0.010921355089736257 0.03527004533986698 0.09066614699601684
-0.01977381596943047 0.033288975418251 0.09472931350949142
-0.028626276849124683 0.03130790549663502 0.098792480022966
-0.037478737728818906 0.02932683557501903 0.1028556465364406
-0.04633119860851312 0.02734576565340305 0.10691881304991517
-0.055183659488207346 0.02536469573178707 0.11098197956338976
0.0244884884290406 0.043194325026330915 0.07441348094211851
0.01728776820686451 0.038568464021411564 0.07946828677638951
0.010087047984688421 0.03394260301649221 0.08452309261066049
0.002886327762512335 0.029316742011572864 0.08957789844493148
-0.0043143924596637595 0.024690881006653512 0.09463270427920248
-0.011515112681839846 0.02006502000173416 0.09968751011347347
-0.01871583290401593 0.015439158996814816 0.10474231594774445
-0.025916553126192034 0.01081329799189545 0.10979712178201546
-0.03311727334836812 0.006187436986976113 0.11485192761628646
-0.04031799357054422 0.0015615759820567549 0.11990673345055745
0.0244884884290406 0.043194325026330915 0.07441348094211851
0.019719818631141674 0.0364249567556202 0.07991215945164885
0.014951148833242747 0.02965558848490949 0.08541083796117921
0.010182479035343818 0.022886220214198782 0.09090951647070955
0.005413809237444891 0.01611685194348807 0.0964081949802399
0.0006451394395459645 0.009347483672777362 0.10190687348977026
-0.0041235303583529665 0.0025781154020666536 0.1074055519993006
-0.008892200156251886 -0.004191252868644062 0.11290423050883096
-0.013660869954150816 -0.010960621139354771 0.11840290901836131
-0.01842953975204974 -0.01772998941006548 0.12390158752789165
0.0244884884290406 0.043194325026330915 0.07441348094211851
0.02266862842155692 0.03501501557953147 0.07976016498961262
0.020848768414073238 0.026835706132732017 0.08510684903710673
0.019028908406589558 0.018656396685932566 0.09045353308460084
0.017209048399105878 0.010477087239133123 0.09580021713209495
0.015389188391622195 0.0022977777923336687 0.10114690117958906
0.013569328384138515 -0.005881531654465779 0.10649358522708317
0.011749468376654828 -0.014060841101265226 0.1118402692745773
0.009929608369171155 -0.022240150548064667 0.1171869533220714
0.008109748361687461 -0.03041945999486412 0.12253363736956552
0.0244884884290406 0.043194325026330915 0.07441348094211851
0.0258146482818205 0.03449142949706603 0.0790287743486795
0.027140808134600396 0.025788533967801144 0.08364406775524047
0.02846696798738029 0.01708563843853626 0.08825936116180146
0.029793127840160194 0.008382742909271376 0.09287465456836244
0.03111928769294009 -0.00032015261999350823 0.09748994797492343
0.032445447545719985 -0.009023048149258393 0.1021052413814844
0.03377160739849989 -0.01772594367852329 0.1067205347880454
0.035097767251279784 -0.02642883920778816 0.11133582819460637
0.03642392710405968 -0.035131734737053055 0.11595112160116736
0.0244884884290406 0.043194325026330915 0.07441348094211851
0.02881695814454509 0.03491093718453416 0.07779724505348967
0.03314542786004958 0.02662754934273741 0.08118100916486082
0.037473897575554076 0.018344161500940658 0.08456477327623198
0.04180236729105856 0.010060773659143912 0.08794853738760314
0.04613083700656306 0.0017773858173471516 0.0913323014989743
0.05045930672206755 -0.0065060020244495954 0.09471606561034546
0.054787776437572044 -0.014789389866246356 0.09809982972171662
0.05911624615307652 -0.02307277770804309 0.10148359383308778
0.06344471586858103 -0.031356165549839846 0.10486735794445894
0.0244884884290406 0.043194325026330915 0.07441348094211851
0.03135021115046708 0.03622807847466624 0.07619903241232286
0.03821193387189356 0.029261831923001577 0.07798458388252721
0.045073656593320036 0.022295585371336912 0.07977013535273156
0.051935379314746524 0.015329338819672238 0.08155568682293592
0.058797102036173006 0.008363092268007574 0.08334123829314027
0.06565882475759947 0.0013968457163429132 0.08512678976334462
0.07252054747902596 -0.005569400835321769 0.08691234123354898
0.07938227020045245 -0.012535647386986436 0.08869789270375333
0.08624399292187893 -0.019501893938651097 0.09048344417395768
0.0244884884290406 0.043194325026330915 0.07441348094211851
0.033139890028924444 0.038300120671123594 0.07440732756367374
0.041791291628808284 0.03340591631591628 0.07440117418522897
0.05044269322869212 0.028511711960708962 0.0743950208067842
0.059094094828575965 0.023617507605501648 0.07438886742833942
0.0677454964284598 0.018723303250294334 0.07438271404989465
0.07639689802834364 0.013829098895087013 0.07437656067144988
0.08504829962822748 0.008934894539879699 0.0743704072930051
0.09369970122811133 0.004040690184672385 0.07436425391456034
0.10235110282799517 -0.0008535141705349293 0.07435810053611557
0.0244884884290406 0.043194325026330915 0.07441348094211851
0.0339920553037073 0.04090252585087274 0.0726162895290586
0.04349562217837401 0.038610726675414576 0.07081909811599871
0.05299918905304071 0.03631892749995641 0.06902190670293881
0.06250275592770742 0.034027128324498244 0.06722471528987892
0.07200632280237412 0.03173532914904008 0.06542752387681901
0.08150988967704083 0.029443529973581913 0.06363033246375911
0.09101345655170752 0.027151730798123747 0.06183314105069921
0.10051702342637422 0.02485993162266558 0.060035949637639315
0.11002059030104093 0.02256813244720742 0.058238758224579405
0.0244884884290406 0.043194325026330915 0.07441348094211851
0.03381436164458632 0.04375328303221097 0.07102000507034652
0.04314023486013205 0.04431224103809102 0.06762652919857454
0.052466108075677774 0.04487119904397107 0.06423305332680254
0.0617919812912235 0.04543015704985112 0.060839577455030554
0.07111785450676922 0.04598911505573118 0.05744610158325856
0.08044372772231495 0.046548073061611225 0.05405262571148657
0.08976960093786067 0.047107031067491284 0.05065914983971458
0.0990954741534064 0.047665989073371336 0.047265673967942595
0.10842134736895212 0.04822494707925139 0.0438721980961706
0.0244884884290406 0.043194325026330915 0.07441348094211851
0.03262606491672847 0.04654346844048499 0.06979145637754433
0.04076364140441634 0.04989261185463908 0.06516943181297015
0.0489012178921042 0.05324175526879316 0.060547407248395975
0.05703879437979207 0.05659089868294725 0.05592538268382179
0.06517637086747995 0.05994004209710133 0.05130335811924761
0.0733139473551678 0.06328918551125541 0.04668133355467344
0.08145152384285567 0.06663832892540951 0.04205930899009925
0.08958910033054354 0.06998747233956358 0.03743728442552506
0.09772667681823141 0.07333661575371767 0.032815259860950886
0.0244884884290406 0.043194325026330915 0.07441348094211851
0.03055593550892063 0.04897072219252098 0.06906377576441425
0.036623382588800664 0.05474711935871105 0.06371407058670998
0.042690829668680694 0.06052351652490112 0.05836436540900571
0.048758276748560724 0.06629991369109119 0.05301466023130145
0.05482572382844076 0.07207631085728126 0.04766495505359718
0.06089317090832078 0.07785270802347133 0.04231524987589291
0.06696061798820083 0.0836291051896614 0.03696554469818865
0.07302806506808085 0.08940550235585147 0.031615839520484385
0.07909551214796089 0.09518189952204155 0.026266134342780117
