# .PCD v0.7 - Point Cloud Data file format
VERSION 0.7
FIELDS x y z
SIZE 4 4 4
TYPE F F F
COUNT 1 1 1
WIDTH 700
HEIGHT 1
VIEWPOINT 0 0 0 1 0 0 0
POINTS 700
DATA ascii
0.002759993273683555 0.0834229032502449 -0.15112916354741204
0.002165141763560132 0.105490267908759 -0.1366533496179031
-0.002496114030490155 0.12480211700378277 -0.11926954108334542
-0.011005818968151277 0.1404554499352116 -0.09979058551009945
-0.022966068704395926 0.15171833425260184 -0.07912729721146598
-0.03781761525442014 0.15806413000306918 -0.058245868582693636
-0.05486601680785322 0.15919611483016718 -0.03812269201842279
-0.07331410905599402 0.1550613583814915 -0.019698704889494403
-0.09229927970890142 0.1458531972731305 -0.0038353923572661285
-0.11093380328734709 0.1320021948843751 0.008725494715060565
-0.12834635017958831 0.1141560086926401 0.017396623208406955
-0.14372272904559985 0.09314910652963962 0.02177254079169134
-0.15634395749922458 0.06996374779302066 0.02164863442220238
-0.165619880925459 0.045684054088632194 0.017030697824065365
-0.17111676745434076 0.021445316909150042 0.00813466058014131
-0.17257758878112997 -0.0016190873343347656 -0.004623508495279221
-0.16993403852417222 -0.022430692733640997 -0.020647251595915992
-0.16330972615538777 -0.04001637175073518 -0.0391873163034946
-0.15301439715874662 -0.05355383757985642 -0.059376789798090565
-0.13952944967569536 -0.062410093364647576 -0.0802716347380847
-0.12348542486309876 -0.06617103042763323 -0.10089483139703512
-0.10563252348954101 -0.06466079153172948 -0.1202820620202061
-0.08680552738117496 -0.05794999376919874 -0.13752680125101735
-0.0678847659513245 -0.04635242658490102 -0.15182270424918723
-0.0497549529755335 -0.030410379330603893 -0.16250131047927627
-0.03326381835871007 -0.010869284417605386 -0.16906330018238394
-0.019182469226957193 0.011357138274329772 -0.1712018420131206
-0.008169333815380148 0.03522960592302117 -0.16881694013229961
-0.000739374095603327 0.05963186847355832 -0.16202010990124005
0.002759993273683555 0.08342290325024487 -0.15112916354741207
0.021604489567453502 0.07307624481666683 -0.13458203446056785
0.02100963805733008 0.09514360947518093 -0.12010622053105889
0.016348382263279792 0.1144554585702047 -0.10272241199650123
0.00783867732561867 0.13010879150163351 -0.08324345642325526
-0.004121572410625977 0.14137167581902374 -0.06258016812462179
-0.018973118960650192 0.14771747156949108 -0.04169873949584945
-0.03602152051408327 0.14884945639658909 -0.021575562931578602
-0.054469612762224076 0.14471469994791342 -0.0031515758026502113
-0.07345478341513147 0.1355065388395524 0.012711736729578062
-0.09208930699357715 0.12165553645079702 0.025272623801904755
-0.10950185388581837 0.10380935025906203 0.033943752295251144
-0.1248782327518299 0.08280244809606153 0.03831966987853553
-0.13749946120545464 0.05961708935944258 0.03819576350904657
-0.14677538463168907 0.035337395655054116 0.033577826910909554
-0.15227227116057082 0.011098658475571966 0.0246817896669855
-0.15373309248736003 -0.011965745767912843 0.01192362059156497
-0.15108954223040227 -0.032777351167219075 -0.004100122509071801
-0.14446522986161783 -0.050363030184313255 -0.02264018721665041
-0.13416990086497668 -0.06390049601343449 -0.04282966071124638
-0.1206849533819254 -0.07275675179822565 -0.0637245056512405
-0.10464092856932881 -0.0765176888612113 -0.08434770231019094
-0.08678802719577107 -0.07500744996530755 -0.1037349329333619
-0.067961031087405 -0.06829665220277681 -0.12097967216417316
-0.04904026965755455 -0.056699085018479096 -0.13527557516234304
-0.030910456681763555 -0.04075703776418197 -0.14595418139243208
-0.014419322064940125 -0.021215942851183462 -0.15251617109553975
-0.00033797293318724446 0.0010104798407516943 -0.15465471292627642
0.010675162478389798 0.024882947489443096 -0.15226981104545542
0.01810512219816662 0.049285210039980244 -0.14547298081439586
0.021604489567453502 0.0730762448166668 -0.13458203446056788
0.04044898586122344 0.06272958638308876 -0.11803490537372367
0.039854134351100017 0.08479695104160286 -0.10355909144421471
0.03519287855704973 0.10410880013662663 -0.08617528290965705
0.026683173619388607 0.11976213306805546 -0.06669632733641108
0.01472292388314396 0.13102501738544567 -0.04603303903777761
-0.00012862266688025344 0.137370813135913 -0.025151610409005265
-0.017177024220313333 0.13850279796301102 -0.005028433844734421
-0.035625116468454135 0.13436804151433535 0.013395553284193971
-0.05461028712136153 0.12515988040597434 0.029258865816422244
-0.0732448106998072 0.11130887801721895 0.04181975288874894
-0.09065735759204843 0.09346269182548396 0.05049088138209533
-0.10603373645805995 0.07245578966248346 0.054866798965379715
-0.1186549649116847 0.04927043092586451 0.054742892595890755
-0.12793088833791913 0.02499073722147605 0.05012495599775374
-0.13342777486680088 0.0007520000419938955 0.04122891875382968
-0.1348885961935901 -0.02231240420149091 0.028470749678409152
-0.13224504593663233 -0.043124009600797146 0.012447006577772382
-0.1256207335678479 -0.060709688617891326 -0.0060930581298062276
-0.11532540457120673 -0.07424715444701256 -0.026282531624402194
-0.10184045708815546 -0.08310341023180372 -0.04717737656439633
-0.08579643227555887 -0.08686434729478937 -0.06780057322334675
-0.06794353090200113 -0.08535410839888562 -0.08718780384651773
-0.04911653479363507 -0.07864331063635488 -0.10443254307732898
-0.030195773363784616 -0.06704574345205716 -0.11872844607549886
-0.012065960387993617 -0.05110369619776004 -0.1294070523055879
0.004425174228829814 -0.031562601284761536 -0.13596904200869556
0.018506523360582693 -0.009336178592826377 -0.13810758383943225
0.029519658772159736 0.014536289055865024 -0.13572268195861126
0.03694961849193656 0.03893855160640217 -0.1289258517275517
0.04044898586122344 0.06272958638308873 -0.11803490537372369
0.05929348215499338 0.05238292794951068 -0.10148777628687948
0.05869863064486996 0.07445029260802477 -0.08701196235737052
0.05403737485081967 0.09376214170304854 -0.06962815382281286
0.04552766991315855 0.10941547463447737 -0.05014919824956689
0.0335674201769139 0.1206783589518676 -0.029485909950933427
0.01871587362688969 0.12702415470233494 -0.00860448132216108
0.001667472073456611 0.12815613952943294 0.011518695242109765
-0.016780620174684194 0.12402138308075726 0.029942682371038157
-0.03576579082759159 0.11481322197239627 0.04580599490326643
-0.054400314406037265 0.10096221958364086 0.05836688197559312
-0.07181286129827849 0.08311603339190587 0.06703801046893952
-0.08718924016429001 0.06210913122890539 0.07141392805222391
-0.09981046861791476 0.038923772492286436 0.07129002168273495
-0.10908639204414917 0.014644078787897972 0.06667208508459793
-0.11458327857303094 -0.009594658391584179 0.05777604784067387
-0.11604409989982013 -0.032659062635068986 0.04501787876525334
-0.11340054964286238 -0.05347066803437522 0.028994135664616567
-0.10677623727407795 -0.0710563470514694 0.010454070957037959
-0.09648090827743679 -0.08459381288059065 -0.00973540253755801
-0.08299596079438552 -0.0934500686653818 -0.030630247477552143
-0.06695193598178893 -0.09721100572836745 -0.05125344413650256
-0.04909903460823119 -0.0957007668324637 -0.07064067475967353
-0.03027203849986513 -0.08898996906993296 -0.08788541399048479
-0.011351277070014673 -0.07739240188563525 -0.10218131698865467
0.006778535905776327 -0.06145035463133811 -0.1128599232187437
0.023269670522599758 -0.04190925971833961 -0.11942191292185136
0.037351019654352634 -0.01968283702640445 -0.12156045475258805
0.04836415506592968 0.00418963062228695 -0.11917555287176705
0.0557941147857065 0.028591893172824102 -0.11237872264070749
0.05929348215499338 0.05238292794951065 -0.1014877762868795
0.07813797844876333 0.0420362695159326 -0.0849406472000353
0.0775431269386399 0.0641036341744467 -0.07046483327052634
0.07288187114458962 0.08341548326947047 -0.05308102473596868
0.0643721662069285 0.0990688162008993 -0.0336020691627227
0.05241191647068385 0.11033170051828953 -0.01293878086408924
0.037560369920659635 0.11667749626875687 0.007942647764683107
0.020511968367226553 0.11780948109585487 0.028065824328953954
0.002063876119085749 0.11367472464717919 0.04648981145788234
-0.016921294533821647 0.1044665635388182 0.062353123990110615
-0.03555581811226732 0.09061556115006279 0.07491401106243731
-0.05296836500450855 0.0727693749583278 0.0835851395557837
-0.06834474387052007 0.051762472795327315 0.08796105713906809
-0.08096597232414482 0.028577114058708362 0.08783715076957913
-0.09024189575037923 0.004297420354319898 0.08321921417144211
-0.095738782279261 -0.01994131682516225 0.07432317692751805
-0.09719960360605019 -0.043005721068647064 0.06156500785209752
-0.09455605334909244 -0.0638173264679533 0.04554126475146075
-0.08793174098030801 -0.08140300548504747 0.027001200043882147
-0.07763641198366684 -0.09494047131416872 0.006811726549286178
-0.06415146450061558 -0.10379672709895987 -0.014083118390707956
-0.048107439688018984 -0.10755766416194552 -0.034706315049658376
-0.030254538314461246 -0.10604742526604177 -0.054093545672829355
-0.011427542206095185 -0.09933662750351104 -0.07133828490364061
0.007493219223755272 -0.08773906031921332 -0.08563418790181049
0.02562303219954627 -0.07179701306491619 -0.09631279413189953
0.0421141668163697 -0.052255918151917685 -0.10287478383500719
0.05619551594812258 -0.030029495459982524 -0.10501332566574387
0.06720865135969963 -0.006157027811291125 -0.10262842378492287
0.07463861107947645 0.018245234739246028 -0.09583159355386331
0.07813797844876333 0.042036269515932576 -0.08494064720003532
0.09698247474253327 0.03168961108235453 -0.06839351811319111
0.09638762323240985 0.05375697574086863 -0.05391770418368215
0.09172636743835956 0.0730688248358924 -0.03653389564912449
0.08321666250069844 0.08872215776732123 -0.017054940075878513
0.0712564127644538 0.09998504208471146 0.0036083482227549485
0.056404866214429576 0.1063308378351788 0.024489776851527294
0.0393564646609965 0.1074628226622768 0.04461295341579814
0.020908372412855696 0.10332806621360112 0.06303694054472653
0.0019232017599482975 0.09411990510524013 0.07890025307695481
-0.016711321818497375 0.08026890271648472 0.0914611401492815
-0.03412386871073861 0.06242271652474973 0.10013226864262789
-0.049500247576750124 0.041415814361749244 0.10450818622591228
-0.06212147603037488 0.018230455625130284 0.10438427985642332
-0.07139739945660929 -0.006049238079258177 0.0997663432582863
-0.07689428598549106 -0.03028797525874033 0.09087030601436225
-0.07835510731228025 -0.053352379502225135 0.07811213693894171
-0.0757115570553225 -0.07416398490153137 0.062088393838304945
-0.06908724468653807 -0.09174966391862555 0.043548329130726336
-0.058791915689896904 -0.10528712974774679 0.023358855636130365
-0.04530696820684564 -0.11414338553253794 0.0024640106961362324
-0.02926294339424904 -0.1179043225955236 -0.01815918596281419
-0.0114100420206913 -0.11639408369961984 -0.03754641658598516
0.00741695408767476 -0.1096832859370891 -0.054791155816796416
0.026337715517525218 -0.09808571875279139 -0.0690870588149663
0.044467528493316213 -0.08214367149849426 -0.07976566504505533
0.060958663110139644 -0.06260257658549576 -0.086327654748163
0.07504001224189252 -0.0403761538935606 -0.08846619657889968
0.08605314765346957 -0.0165036862448692 -0.08608129469807868
0.09348310737324639 0.007898576305667952 -0.07928446446701912
0.09698247474253327 0.031689611082354505 -0.06839351811319112
0.11582697103630321 0.02134295264877646 -0.05184638902634693
0.11523211952617979 0.04341031730729056 -0.03737057509683797
0.1105708637321295 0.06272216640231433 -0.01998676656228031
0.10206115879446838 0.07837549933374316 -0.0005078109890343327
0.09010090905822372 0.08963838365113339 0.02015547730959913
0.07524936250819951 0.09598417940160073 0.041036905938371476
0.058200960954766436 0.09711616422869873 0.06116008250264232
0.03975286870662563 0.09298140778002305 0.0795840696315707
0.020767698053718232 0.08377324667166205 0.09544738216379899
0.0021331744752725573 0.06992224428290665 0.10800826923612568
-0.015279372416968673 0.05207605809117166 0.11667939772947207
-0.030655751282980186 0.031069155928171173 0.12105531531275646
-0.043276979736604944 0.007883797191552216 0.1209314089432675
-0.05255290316283936 -0.016395896512836246 0.11631347234513048
-0.05804978969172112 -0.0406346336923184 0.10741743510120642
-0.059510611018510316 -0.06369903793580321 0.0946592660257859
-0.05686706076155256 -0.08451064333510944 0.07863552292514912
-0.050242748392768134 -0.10209632235220362 0.060095458217570515
-0.03994741939612697 -0.11563378818132486 0.03990598472297455
-0.026462471913075703 -0.12449004396611602 0.019011139782980413
-0.010418447100479107 -0.12825098102910168 -0.0016120568759700107
0.007434454273078634 -0.12674074213319791 -0.020999287499140984
0.026261450381444694 -0.12002994437066718 -0.03824402672995224
0.04518221181129515 -0.10843237718636946 -0.05253992972812212
0.06331202478708615 -0.09249032993207233 -0.06321853595821116
0.07980315940390958 -0.07294923501907383 -0.06978052566131882
0.09388450853566246 -0.05072281232713867 -0.0719190674920555
0.10489764394723951 -0.02685034467844727 -0.0695341656112345
0.11232760366701633 -0.0024480821279101177 -0.06273733538017494
0.11582697103630321 0.021342952648776434 -0.051846389026346945
0.13467146733007315 0.010996294215198387 -0.035299259939502746
0.13407661581994973 0.03306365887371248 -0.020823446009993786
0.12941536002589943 0.05237550796873625 -0.0034396374754361242
0.12090565508823832 0.06802884090016509 0.016039318097809854
0.10894540535199367 0.07929172521755531 0.036702606396443314
0.09409385880196945 0.08563752096802266 0.05758403502521566
0.07704545724853637 0.08676950579512066 0.0777072115894865
0.05859736500039557 0.08263474934644498 0.0961311987184149
0.039612194347488174 0.07342658823808398 0.11199451125064316
0.0209776707690425 0.05957558584932857 0.12455539832296986
0.0035651238768012704 0.041729399657593584 0.13322652681631625
-0.011811254989210245 0.0207224974945931 0.13760244439960065
-0.024432483442835 -0.002462861242025858 0.13747853803011167
-0.03370840686906942 -0.02674255494641432 0.13286060143197467
-0.03920529339795118 -0.05098129212589647 0.1239645641880506
-0.040666114724740375 -0.07404569636938128 0.11120639511263007
-0.03802256446778262 -0.09485730176868751 0.0951826520119933
-0.03139825209899819 -0.11244298078578169 0.0766425873044147
-0.021102923102357025 -0.12598044661490293 0.05645311380981873
-0.007617975619305762 -0.13483670239969409 0.0355582688698246
0.008426049193290836 -0.13859763946267975 0.014935072210874176
0.026278950566848577 -0.13708740056677599 -0.0044521584122967995
0.045105946675214635 -0.13037660280424526 -0.021696897643108053
0.0640267081050651 -0.11877903561994753 -0.03599280064127793
0.0821565210808561 -0.1028369883656504 -0.04667140687136697
0.09864765569767953 -0.0832958934526519 -0.05323339657447463
0.1127290048294324 -0.06106947076071675 -0.05537193840521131
0.12374214024100945 -0.03719700311202535 -0.05298703652439032
0.13117209996078627 -0.012794740561488192 -0.04619020629333075
0.13467146733007315 0.01099629421519836 -0.03529925993950276
0.1535159636238431 0.0006496357816203105 -0.018752130852658557
0.15292111211371967 0.022717000440134406 -0.004276316923149596
0.1482598563196694 0.04202884953515818 0.013107491611408065
0.13975015138200828 0.05768218246658701 0.03258644718465405
0.12778990164576362 0.06894506678397723 0.05324973548328751
0.1129383550957394 0.07529086253444457 0.07413116411205985
0.09588995354230632 0.07642284736154258 0.09425434067633069
0.07744186129416551 0.07228809091286689 0.11267832780525909
0.05845669064125812 0.0630799298045059 0.12854164033748736
0.03982216706281245 0.0492289274157505 0.14110252740981405
0.02240962017057122 0.03138274122401551 0.14977365590316044
0.007033241304559702 0.010375839061015022 0.15414957348644484
-0.005587987149065052 -0.012809519675603934 0.15402566711695587
-0.014863910575299465 -0.037089213379992395 0.14940773051881887
-0.02036079710418123 -0.06132795055947455 0.1405116932748948
-0.021821618430970424 -0.08439235480295935 0.12775352419947428
-0.01917806817401267 -0.10520396020226559 0.1117297810988375
-0.012553755805228241 -0.12278963921935977 0.09318971639125889
-0.0022584268085870775 -0.136327105048481 0.07300024289666292
0.011226520674464186 -0.14518336083327216 0.05210539795666879
0.027270545487060784 -0.14894429789625782 0.031482201297718365
0.045123446860618525 -0.14743405900035406 0.01209497067454739
0.06395044296898458 -0.14072326123782333 -0.005149768556263863
0.08287120439883504 -0.1291256940535256 -0.019445671554433743
0.10100101737462604 -0.11318364679922849 -0.03012427778452278
0.11749215199144947 -0.09364255188622998 -0.03668626748763044
0.13157350112320235 -0.07141612919429483 -0.03882480931836712
0.1425866365347794 -0.04754366154560342 -0.036439907437546125
0.1500165962545562 -0.02314139899506627 -0.029643077206486564
0.1535159636238431 0.0006496357816202828 -0.01875213085265857
0.17236045991761303 -0.009697022651957767 -0.002205001765814366
0.1717656084074896 0.01237034200655633 0.012270812163694593
0.16710435261343934 0.031682191101580104 0.029654620698252258
0.15859464767577822 0.04733552403300893 0.04913357627149823
0.14663439793953356 0.05859840835039916 0.06979686457013169
0.13178285138950935 0.0649442041008665 0.09067829319890404
0.11473444983607627 0.0660761889279645 0.11080146976317488
0.09628635758793547 0.06194143247928882 0.12922545689210327
0.07730118693502806 0.05273327137092783 0.14508876942433155
0.058666663356582396 0.038882268982172424 0.15764965649665824
0.04125411646434116 0.021036082790437435 0.16632078499000463
0.02587773759832965 2.9180627436945402e-05 0.17069670257328903
0.013256509144704895 -0.02315617810918201 0.17057279620380006
0.003980585718470482 -0.04743587181357047 0.16595485960566306
-0.0015163008104112827 -0.07167460899305263 0.157058822361739
-0.0029771221372004767 -0.09473901323653744 0.14430065328631847
-0.00033357188024272155 -0.11555061863584366 0.1282769101856817
0.006290740488541706 -0.13313629765293786 0.10973684547810308
0.01658606948518287 -0.1466737634820591 0.08954737198350711
0.030071016968234134 -0.15553001926685026 0.06865252704351298
0.04611504178083073 -0.1592909563298359 0.04802933038456256
0.06396794315438847 -0.15778071743393215 0.028642099761391582
0.08279493926275454 -0.1510699196714014 0.011397360530580327
0.101715700692605 -0.13947235248710368 -0.002898542467589552
0.11984551366839599 -0.12353030523280656 -0.013577148697678591
0.1363366482852194 -0.10398921031980805 -0.02013913840078625
0.1504179974169723 -0.0817627876278729 -0.02227768023152293
0.16143113282854935 -0.057890319979181495 -0.019892778350701936
0.16886109254832615 -0.033488057428644344 -0.013095948119642374
0.17236045991761303 -0.009697022651957795 -0.00220500176581438
-0.08480023332196475 0.04655996295110133 -0.07446208089079884
-0.0750713192557816 0.05065584520656173 -0.08298064563042253
-0.06534240518959845 0.05475172746202213 -0.09149921037004621
-0.055613491123415314 0.05884760971748252 -0.1000177751096699
-0.045884577057232166 0.06294349197294292 -0.10853633984929359
-0.03615566299104902 0.06703937422840332 -0.11705490458891729
-0.02642674892486588 0.0711352564838637 -0.12557346932854097
-0.01669783485868274 0.0752311387393241 -0.13409203406816467
-0.006968920792499593 0.0793270209947845 -0.14261059880778834
0.002759993273683555 0.0834229032502449 -0.15112916354741204
-0.08480023332196475 0.04655996295110133 -0.07446208089079884
-0.07535473140986483 0.05428204444786589 -0.0803904800479723
-0.06590922949776493 0.06200412594463045 -0.08631887920514575
-0.056463727585665015 0.069726207441395 -0.0922472783623192
-0.047018225673565096 0.07744828893815957 -0.09817567751949266
-0.03757272376146519 0.08517037043492412 -0.10410407667666613
-0.02812722184936529 0.09289245193168867 -0.11003247583383957
-0.018681719937265372 0.10061453342845322 -0.11596087499101304
-0.009236218025165452 0.10833661492521779 -0.1218892741481865
0.00020928388693446575 0.11605869642198234 -0.12781767330535995
-0.08480023332196475 0.04655996295110133 -0.07446208089079884
-0.07666171025818708 0.05707143633855566 -0.07715788042825149
-0.06852318719440939 0.06758290972600998 -0.07985367996570412
-0.060384664130631725 0.07809438311346431 -0.08254947950315678
-0.052246141066854046 0.08860585650091864 -0.08524527904060941
-0.044107618003076374 0.09911732988837296 -0.08794107857806208
-0.0359690949392987 0.10962880327582729 -0.0906368781155147
-0.027830571875521026 0.12014027666328163 -0.09333267765296735
-0.019692048811743353 0.13065175005073595 -0.09602847719042
-0.011553525747965665 0.1411632234381903 -0.09872427672787265
-0.08480023332196475 0.04655996295110133 -0.07446208089079884
-0.07885062436266625 0.058721746985400135 -0.073633149099008
-0.07290101540336777 0.07088353101969894 -0.07280421730721716
-0.06695140644406929 0.08304531505399773 -0.07197528551542631
-0.061001797484770796 0.09520709908829654 -0.07114635372363548
-0.05505218852547231 0.10736888312259533 -0.07031742193184463
-0.04910257956617382 0.11953066715689413 -0.06948849014005379
-0.04315297060687534 0.13169245119119294 -0.06865955834826296
-0.03720336164757685 0.14385423522549173 -0.06783062655647211
-0.03125375268827837 0.15601601925979056 -0.06700169476468126
-0.08480023332196475 0.04655996295110133 -0.07446208089079884
-0.08168427091558027 0.059054139622605625 -0.07019824539160703
-0.07856830850919579 0.07154831629410992 -0.06593440989241524
-0.0754523461028113 0.0840424929656142 -0.06167057439322343
-0.07233638369642682 0.09653666963711849 -0.057406738894031625
-0.06922042129004234 0.1090308463086228 -0.05314290339483982
-0.06610445888365787 0.12152502298012705 -0.04887906789564802
-0.06298849647727339 0.13401919965163137 -0.04461523239645622
-0.05987253407088891 0.14651337632313566 -0.04035139689726441
-0.05675657166450442 0.15900755299463995 -0.03608756139807261
-0.08480023332196475 0.04655996295110133 -0.07446208089079884
-0.08485558034436434 0.05803259435032774 -0.067225394420768
-0.08491092736676395 0.06950522574955414 -0.059988707950737165
-0.08496627438916356 0.08097785714878054 -0.052752021480706325
-0.08502162141156316 0.09245048854800697 -0.045515335010675485
-0.08507696843396277 0.10392311994723336 -0.038278648540644646
-0.08513231545636236 0.11539575134645975 -0.031041962070613816
-0.08518766247876197 0.1268683827456862 -0.02380527560058297
-0.08524300950116158 0.1383410141449126 -0.01656858913055213
-0.08529835652356119 0.149813645544139 -0.009331902660521295
-0.08480023332196475 0.04655996295110133 -0.07446208089079884
-0.0880208920644739 0.055767811449725875 -0.0650367507177169
-0.09124155080698305 0.06497565994835042 -0.055611420544634964
-0.0944622095494922 0.07418350844697495 -0.04618609037155303
-0.09768286829200135 0.08339135694559949 -0.03676076019847109
-0.10090352703451051 0.09259920544422404 -0.027335430025389153
-0.10412418577701965 0.10180705394284856 -0.017910099852307227
-0.1073448445195288 0.1110149024414731 -0.008484769679225292
-0.11056550326203796 0.12022275094009764 0.0009405604938566546
-0.11378616200454712 0.1294305994387222 0.010365890666938589
-0.08480023332196475 0.04655996295110133 -0.07446208089079884
-0.09083719543616323 0.05250521528980771 -0.06386948778798543
-0.0968741575503617 0.05845046762851409 -0.05327689468517202
-0.10291111966456018 0.06439571996722046 -0.042684301582358614
-0.10894808177875866 0.07034097230592684 -0.032091708479545206
-0.11498504389295713 0.07628622464463322 -0.021499115376731794
-0.12102200600715561 0.08223147698333959 -0.010906522273918392
-0.1270589681213541 0.08817672932204597 -0.0003139291711049842
-0.13309593023555258 0.09412198166075235 0.010278663931708424
-0.13913289234975104 0.10006723399945873 0.02087125703452183
-0.08480023332196475 0.04655996295110133 -0.07446208089079884
-0.09299930028966047 0.04859835878889582 -0.06385009668196048
-0.10119836725735619 0.0506367546266903 -0.05323811247312213
-0.10939743422505191 0.05267515046448478 -0.042626128264283775
-0.11759650119274763 0.054713546302279266 -0.03201414405544542
-0.12579556816044335 0.05675194214007375 -0.02140215984660707
-0.13399463512813908 0.058790337977868236 -0.010790175637768714
-0.1421937020958348 0.060828733815662714 -0.00017819142893036002
-0.15039276906353052 0.0628671296534572 0.010433792779907995
-0.15859183603122623 0.06490552549125168 0.021045776988746347
-0.08480023332196475 0.04655996295110133 -0.07446208089079884
-0.09427290901557578 0.044470610469988625 -0.06498067872686389
-0.10374558470918681 0.04238125798887592 -0.055499276562928926
-0.11321826040279782 0.04029190550776321 -0.04601787439899397
-0.12269093609640887 0.038202553026650495 -0.03653647223505901
-0.1321636117900199 0.03611320054553779 -0.027055070071124048
-0.1416362874836309 0.03402384806442508 -0.0175736679071891
-0.15110896317724196 0.031934495583312364 -0.008092265743254114
-0.16058163887085297 0.029845143102199656 0.0013891364206808203
-0.17005431456446402 0.027755790621086938 0.010870538584615798
-0.08480023332196475 0.04655996295110133 -0.07446208089079884
-0.09452000634638069 0.04056927591205405 -0.0671387178153424
-0.10423977937079663 0.034578588873006764 -0.05981535473988597
-0.11395955239521256 0.02858790183395948 -0.05249199166442955
-0.12367932541962852 0.022597214794912193 -0.04516862858897311
-0.13339909844404446 0.016606527755864908 -0.037845265513516683
-0.1431188714684604 0.01061584071681763 -0.030521902438060262
-0.15283864449287632 0.004625153677770341 -0.02319853936260383
-0.16255841751729228 -0.001365533361276947 -0.015875176287147384
-0.1722781905417082 -0.007356220400324235 -0.008551813211690963
-0.08480023332196475 0.04655996295110133 -0.07446208089079884
-0.09371381545217236 0.03731712524988715 -0.07009035692673285
-0.10262739758237996 0.02807428754867297 -0.06571863296266685
-0.11154097971258757 0.01883144984745879 -0.06134690899860086
-0.12045456184279518 0.009588612146244612 -0.05697518503453486
-0.12936814397300278 0.00034577444503042324 -0.052603461070468864
-0.1382817261032104 -0.00889706325618375 -0.048231737106402876
-0.147195308233418 -0.018139900957397925 -0.043860013142336875
-0.15610889036362563 -0.027382738658612113 -0.03948828917827088
-0.16502247249383323 -0.03662557635982629 -0.03511656521420488
-0.08480023332196475 0.04655996295110133 -0.07446208089079884
-0.09194169962567887 0.03506657947005056 -0.07351574016391633
-0.09908316592939298 0.023573195988999783 -0.07256939943703383
-0.1062246322331071 0.012079812507949013 -0.07162305871015133
-0.11336609853682122 0.000586429026898234 -0.07067671798326883
-0.12050756484053535 -0.010906954454152544 -0.06973037725638633
-0.12764903114424947 -0.02240033793520331 -0.06878403652950382
-0.1347904974479636 -0.03389372141625409 -0.06783769580262132
-0.14193196375167771 -0.04538710489730487 -0.0668913550757388
-0.14907343005539184 -0.056880488378355645 -0.0659450143488563
-0.08480023332196475 0.04655996295110133 -0.07446208089079884
-0.08939569511391096 0.034061520128605347 -0.07704367410284688
-0.09399115690585719 0.021563077306109357 -0.0796252673148949
-0.09858661869780341 0.009064634483613368 -0.08220686052694294
-0.10318208048974964 -0.003433808338882619 -0.08478845373899098
-0.10777754228169585 -0.01593225116137862 -0.087370046951039
-0.11237300407364208 -0.0284306939838746 -0.08995164016308703
-0.1169684658655883 -0.0409291368063706 -0.09253323337513507
-0.12156392765753453 -0.05342757962886657 -0.09511482658718311
-0.12615938944948074 -0.06592602245136257 -0.09769641979923113
-0.08480023332196475 0.04655996295110133 -0.07446208089079884
-0.08635170101104908 0.03441086100029961 -0.08029185235970605
-0.08790316870013343 0.022261759049497877 -0.08612162382861326
-0.08945463638921777 0.010112657098696161 -0.09195139529752046
-0.0910061040783021 -0.002036444852105578 -0.09778116676642767
-0.09255757176738645 -0.014185546802907295 -0.10361093823533488
-0.0941090394564708 -0.026334648753709014 -0.10944070970424209
-0.09566050714555514 -0.038483750704510766 -0.11527048117314931
-0.09721197483463948 -0.05063285265531249 -0.12110025264205651
-0.09876344252372382 -0.06278195460611422 -0.1269300241109637
-0.08480023332196475 0.04655996295110133 -0.07446208089079884
-0.08313958131057335 0.036076745581103145 -0.08290828441968455
-0.08147892929918193 0.02559352821110495 -0.09135448794857026
-0.07981827728779053 0.015110310841106764 -0.09980069147745597
-0.07815762527639913 0.0046270934711085685 -0.1082468950063417
-0.07649697326500773 -0.005856123898889619 -0.11669309853522741
-0.07483632125361633 -0.016339341268887808 -0.1251393020641131
-0.07317566924222493 -0.026822558638885996 -0.13358550559299884
-0.07151501723083353 -0.0373057760088842 -0.14203170912188456
-0.06985436521944212 -0.047788993378882386 -0.15047791265077026
-0.08480023332196475 0.04655996295110133 -0.07446208089079884
-0.08010741902320274 0.03887864942782332 -0.08460943927095733
-0.07541460472444075 0.031197335904545306 -0.09475679765111583
-0.07072179042567876 0.023516022381267297 -0.10490415603127433
-0.06602897612691676 0.01583470885798928 -0.11505151441143283
-0.06133616182815477 0.008153395334711268 -0.12519887279159134
-0.056643347529392776 0.000472081811433261 -0.13534623117174982
-0.05195053323063078 -0.0072092317118447454 -0.1454935895519083
-0.04725771893186878 -0.014890545235122772 -0.15564094793206681
-0.04256490463310679 -0.022571858758400773 -0.1657883063122253
-0.08480023332196475 0.04655996295110133 -0.07446208089079884
-0.07758379598161941 0.04251294278265034 -0.08521097038925178
-0.07036735864127408 0.03846592261419934 -0.09595985988770472
-0.06315092130092874 0.03441890244574834 -0.10670874938615767
-0.055934483960583405 0.03037188227729734 -0.11745763888461061
-0.04871804662023807 0.026324862108846343 -0.12820652838306357
-0.041501609279892736 0.02227784194039535 -0.1389554178815165
-0.0342851719395474 0.018230821771944353 -0.14970430737996945
-0.02706873459920207 0.01418380160349335 -0.16045319687842238
-0.01985229725885673 0.010136781435042362 -0.17120208637687534
-0.08480023332196475 0.04655996295110133 -0.07446208089079884
-0.07584218590042496 0.046585793568717025 -0.08464769254418371
-0.06688413847888518 0.04661162418633272 -0.09483330419756858
-0.0579260910573454 0.04663745480394841 -0.10501891585095344
-0.04896804363580561 0.0466632854215641 -0.11520452750433831
-0.04000999621426583 0.0466891160391798 -0.12539013915772318
-0.031051948792726058 0.046714946656795486 -0.13557575081110804
-0.022093901371186272 0.046740777274411185 -0.14576136246449292
-0.013135853949646484 0.04676660789202688 -0.15594697411787778
-0.004177806528106685 0.04679243850964257 -0.16613258577126266
-0.08480023332196475 0.04655996295110133 -0.07446208089079884
-0.0750713192557816 0.05065584520656173 -0.08298064563042253
-0.06534240518959845 0.05475172746202212 -0.09149921037004621
-0.055613491123415314 0.05884760971748251 -0.1000177751096699
-0.045884577057232166 0.06294349197294291 -0.1085363398492936
-0.03615566299104902 0.06703937422840331 -0.11705490458891729
-0.02642674892486588 0.07113525648386369 -0.12557346932854097
-0.01669783485868274 0.07523113873932409 -0.13409203406816467
-0.006968920792499593 0.07932702099478449 -0.14261059880778837
0.002759993273683555 0.08342290325024487 -0.15112916354741207
0.08480023332196475 -0.04655996295110133 0.07446208089079884
0.09452914738814788 -0.042464080695640935 0.06594351615117515
0.10425806145433103 -0.038368198440180544 0.05742495141155146
0.11398697552051418 -0.034272316184720146 0.04890638667192777
0.12371588958669733 -0.030176433929259748 0.040387821932304085
0.13344480365288047 -0.02608055167379935 0.03186925719268039
0.14317371771906362 -0.021984669418338956 0.023350692453056713
0.15290263178524674 -0.017888787162878558 0.014832127713433016
0.1626315458514299 -0.013792904907418165 0.006313562973809336
0.17236045991761303 -0.009697022651957767 -0.002205001765814366
0.08480023332196475 -0.04655996295110133 0.07446208089079884
0.09424573523406465 -0.038837881454336774 0.06853368173362538
0.10369123714616457 -0.03111579995757222 0.06260528257645193
0.11313673905826448 -0.023393718460807667 0.05667688341927847
0.1225822409703644 -0.015671636964043105 0.050748484262105015
0.1320277428824643 -0.007949555467278548 0.04482008510493155
0.1414732447945642 -0.0002274739705140023 0.0388916859477581
0.1509187467066641 0.0074946075262505565 0.032963286790584634
0.16036424861876403 0.015216689023015121 0.02703488763341119
0.16980975053086395 0.022938770519779675 0.021106488476237726
0.08480023332196475 -0.04655996295110133 0.07446208089079884
0.09293875638574242 -0.03604848956364701 0.0717662813533462
0.1010772794495201 -0.02553701617619268 0.06907048181589355
0.10921580251329777 -0.015025542788738357 0.06637468227844091
0.11735432557707544 -0.00451406940128403 0.06367888274098826
0.1254928486408531 0.005997403986170296 0.060983083203535605
0.1336313717046308 0.016508877373624622 0.05828728366608298
0.14176989476840846 0.027020350761078962 0.055591484128630325
0.14990841783218614 0.037531824148533274 0.05289568459117768
0.15804694089596383 0.048043297535987614 0.05019988505372503
0.08480023332196475 -0.04655996295110133 0.07446208089079884
0.09074984228126323 -0.03439817891680253 0.07529101268258968
0.09669945124056172 -0.022236394882503733 0.07611994447438052
0.1026490601998602 -0.010074610848204936 0.07694887626617136
0.1085986691591587 0.0020871731860938663 0.07777780805796221
0.11454827811845718 0.014248957220392667 0.07860673984975304
0.12049788707775566 0.026410741254691464 0.07943567164154389
0.12644749603705416 0.03857252528899027 0.08026460343333473
0.13239710499635263 0.05073430932328907 0.08109353522512557
0.13834671395565112 0.06289609335758788 0.08192246701691643
0.08480023332196475 -0.04655996295110133 0.07446208089079884
0.08791619572834923 -0.03406578627959705 0.07872591638999064
0.0910321581347337 -0.021571609608092755 0.08298975188918245
0.09414812054111818 -0.009077432936588479 0.08725358738837424
0.09726408294750266 0.0034167437349158216 0.09151742288756605
0.10038004535388714 0.015910920406420122 0.09578125838675786
0.10349600776027162 0.02840509707792438 0.10004509388594966
0.1066119701666561 0.040899273749428686 0.10430892938514146
0.10972793257304057 0.05339345042093298 0.10857276488433326
0.11284389497942507 0.06588762709243727 0.11283660038352507
0.08480023332196475 -0.04655996295110133 0.07446208089079884
0.08474488629956514 -0.03508733155187493 0.08169876736082968
0.08468953927716553 -0.023614700152648518 0.08893545383086052
0.08463419225476593 -0.012142068753422124 0.09617214030089136
0.08457884523236633 -0.0006694373541957034 0.1034088267709222
0.08452349820996673 0.010803194045030688 0.11064551324095304
0.08446815118756712 0.02227582544425709 0.11788219971098386
0.08441280416516751 0.03374845684348353 0.12511888618101472
0.0843574571427679 0.04522108824270993 0.13235557265104556
0.08430211012036831 0.05669371964193633 0.1395922591210764
0.08480023332196475 -0.04655996295110133 0.07446208089079884
0.0815795745794556 -0.0373521144524768 0.08388741106388077
0.07835891583694644 -0.028144265953852256 0.09331274123696272
0.07513825709443729 -0.01893641745522772 0.10273807141004465
0.07191759835192814 -0.00972856895660318 0.11216340158312658
0.06869693960941899 -0.0005207204579786375 0.12158873175620853
0.06547628086690983 0.00868712804064589 0.13101406192929047
0.06225562212440068 0.01789497653927044 0.14043939210237238
0.05903496338189153 0.027102825037894976 0.14986472227545433
0.05581430463938237 0.036310673536519525 0.15929005244853628
0.08480023332196475 -0.04655996295110133 0.07446208089079884
0.07876327120776627 -0.04061471061239496 0.08505467399361225
0.07272630909356778 -0.03466945827368858 0.09564726709642565
0.06668934697936932 -0.028724205934982205 0.10623986019923906
0.06065238486517083 -0.02277895359627583 0.11683245330205247
0.05461542275097236 -0.01683370125756945 0.12742504640486588
0.04857846063677388 -0.01088844891886308 0.13801763950767929
0.0425414985225754 -0.004943196580156698 0.1486102326104927
0.03650453640837691 0.0010020557585496753 0.1592028257133061
0.03046757429417844 0.006947308097256056 0.1697954188161195
0.08480023332196475 -0.04655996295110133 0.07446208089079884
0.07660116635426903 -0.04452156711330685 0.08507406509963719
0.0684020993865733 -0.04248317127551237 0.09568604930847555
0.060203032418877575 -0.040444775437717885 0.1062980335173139
0.052003965451181855 -0.0384063795999234 0.11691001772615225
0.04380489848348613 -0.03636798376212892 0.1275220019349906
0.03560583151579041 -0.03432958792433444 0.13813398614382896
0.02740676454809469 -0.03229119208653996 0.14874597035266732
0.01920769758039897 -0.030252796248745467 0.15935795456150567
0.01100863061270325 -0.028214400410950982 0.16996993877034403
0.08480023332196475 -0.04655996295110133 0.07446208089079884
0.07532755762835372 -0.04864931543221404 0.0839434830547338
0.06585488193474269 -0.050738667913326756 0.09342488521866875
0.05638220624113166 -0.052828020394439464 0.10290628738260371
0.046909530547520624 -0.05491737287555217 0.11238768954653867
0.03743685485390959 -0.05700672535666488 0.12186909171047364
0.027964179160298575 -0.05909607783777759 0.13135049387440859
0.018491503466687525 -0.0611854303188903 0.14083189603834356
0.009018827773076507 -0.06327478280000301 0.1503132982022785
-0.0004538479205345356 -0.06536413528111573 0.1597947003662135
0.08480023332196475 -0.04655996295110133 0.07446208089079884
0.0750804602975488 -0.05255064999014862 0.08178544396625527
0.06536068727313286 -0.0585413370291959 0.0891088070417117
0.05564091424871692 -0.06453202406824318 0.09643217011716813
0.04592114122430097 -0.07052271110729047 0.10375553319262457
0.03620136819988503 -0.07651339814633776 0.111078896268081
0.026481595175469098 -0.08250408518538505 0.11840225934353742
0.016761822151053162 -0.08849477222443233 0.12572562241899385
0.007042049126637205 -0.09448545926347962 0.1330489854944503
-0.002677723897778724 -0.10047614630252691 0.1403723485699067
0.08480023332196475 -0.04655996295110133 0.07446208089079884
0.07588665119175714 -0.055802800652315514 0.07883380485486484
0.06697306906154953 -0.0650456383535297 0.08320552881893083
0.058059486931341914 -0.07428847605474388 0.08757725278299681
0.0491459048011343 -0.08353131375595806 0.09194897674706282
0.0402323226709267 -0.09277415145717224 0.09632070071112882
0.031318740540719085 -0.10201698915838642 0.1006924246751948
0.022405158410511477 -0.11125982685960059 0.10506414863926081
0.013491576280303863 -0.12050266456081478 0.1094358726033268
0.004577994150096252 -0.12974550226202897 0.1138075965673928
0.08480023332196475 -0.04655996295110133 0.07446208089079884
0.07765876701825063 -0.05805334643215211 0.07540842161768134
0.0705173007145365 -0.06954672991320289 0.07635476234456384
0.06337583441082238 -0.08104011339425365 0.07730110307144634
0.05623436810710826 -0.09253349687530443 0.07824744379832886
0.04909290180339414 -0.10402688035635521 0.07919378452521136
0.04195143549968002 -0.11552026383740598 0.08014012525209387
0.03480996919596589 -0.12701364731845677 0.08108646597897637
0.02766850289225178 -0.13850703079950755 0.08203280670585887
0.020527036588537658 -0.15000041428055833 0.08297914743274137
0.08480023332196475 -0.04655996295110133 0.07446208089079884
0.08020477153001852 -0.05905840577359732 0.07188048767875081
0.0756093097380723 -0.0715568485960933 0.06929889446670277
0.07101384794612607 -0.0840552914185893 0.06671730125465475
0.06641838615417986 -0.09655373424108529 0.06413570804260671
0.06182292436223363 -0.1090521770635813 0.06155411483055867
0.05722746257028741 -0.12155061988607727 0.058972521618510645
0.05263200077834119 -0.13404906270857328 0.056390928406462607
0.04803653898639496 -0.14654750553106924 0.05380933519441457
0.043441077194448736 -0.15904594835356525 0.05122774198236654
0.08480023332196475 -0.04655996295110133 0.07446208089079884
0.0832487656328804 -0.058709064901903064 0.06863230942189164
0.08169729794379606 -0.0708581668527048 0.06280253795298442
0.08014583025471173 -0.0830072688035065 0.05697276648407722
0.07859436256562738 -0.09515637075430824 0.05114299501517
0.07704289487654303 -0.10730547270510997 0.0453132235462628
0.07549142718745869 -0.11945457465591168 0.03948345207735559
0.07393995949837436 -0.13160367660671343 0.03365368060844837
0.07238849180929001 -0.14375277855751517 0.027823909139541168
0.07083702412020566 -0.15590188050831688 0.021994137670633965
0.08480023332196475 -0.04655996295110133 0.07446208089079884
0.08646088533335615 -0.05704318032109953 0.06601587736191313
0.08812153734474755 -0.06752639769109772 0.05756967383302741
0.08978218935613895 -0.07800961506109591 0.0491234703041417
0.09144284136753035 -0.0884928324310941 0.04067726677525598
0.09310349337892175 -0.09897604980109229 0.03223106324637027
0.09476414539031315 -0.10945926717109047 0.02378485971748456
0.09642479740170455 -0.11994248454108866 0.015338656188598846
0.09808544941309597 -0.13042570191108688 0.006892452659713127
0.09974610142448737 -0.14090891928108507 -0.0015537508691725853
0.08480023332196475 -0.04655996295110133 0.07446208089079884
0.08949304762072674 -0.054241276474379346 0.06431472251064034
0.09418586191948873 -0.06192258999765736 0.05416736413048184
0.09887867621825074 -0.06960390352093537 0.04402000575032335
0.10357149051701273 -0.07728521704421339 0.03387264737016485
0.10826430481577472 -0.0849665305674914 0.023725288990006355
0.11295711911453671 -0.09264784409076941 0.01357793060984787
0.11764993341329871 -0.10032915761404741 0.0034305722296893736
0.1223427477120607 -0.10801047113732544 -0.006716786150469137
0.1270355620108227 -0.11569178466060344 -0.01686414453062762
0.08480023332196475 -0.04655996295110133 0.07446208089079884
0.09201667066231008 -0.050606983119552335 0.0637131913923459
0.09923310800265542 -0.05465400328800333 0.05296430189389295
0.10644954534300075 -0.058701023456454324 0.04221541239544001
0.11366598268334609 -0.06274804362490533 0.031466522896987065
0.12088242002369141 -0.06679506379335633 0.020717633398534125
0.12809885736403676 -0.07084208396180731 0.00996874390008118
0.13531529470438208 -0.07488910413025832 -0.0007801455983717763
0.1425317320447274 -0.07893612429870932 -0.011529035096824706
0.14974816938507277 -0.0829831444671603 -0.022277924595277648
0.08480023332196475 -0.04655996295110133 0.07446208089079884
0.09375828074350452 -0.04653413233348564 0.06427646923741397
0.10271632816504431 -0.04650830171586995 0.0540908575840291
0.1116743755865841 -0.046482471098254256 0.04390524593064424
0.12063242300812388 -0.046456640480638564 0.03371963427725937
0.12959047042966365 -0.04643080986302287 0.0235340226238745
0.13854851785120342 -0.04640497924540718 0.013348410970489633
0.14750656527274322 -0.04637914862779148 0.003162799317104755
0.156464612694283 -0.046353318010175795 -0.007022812336280102
0.1654226601158228 -0.046327487392560096 -0.017208423989664986
0.08480023332196475 -0.04655996295110133 0.07446208089079884
0.09452914738814788 -0.04246408069564094 0.06594351615117515
0.10425806145433103 -0.038368198440180544 0.05742495141155146
0.11398697552051418 -0.03427231618472015 0.04890638667192777
0.12371588958669733 -0.03017643392925976 0.04038782193230408
0.13344480365288047 -0.026080551673799364 0.031869257192680384
0.14317371771906362 -0.021984669418338973 0.023350692453056706
0.15290263178524674 -0.01788878716287858 0.014832127713433002
0.1626315458514299 -0.013792904907418186 0.006313562973809322
0.17236045991761303 -0.009697022651957795 -0.00220500176581438
