# .PCD v0.7 - Point Cloud Data file format
VERSION 0.7
FIELDS x y z
SIZE 4 4 4
TYPE F F F
COUNT 1 1 1
WIDTH 700
HEIGHT 1
VIEWPOINT 0 0 0 1 0 0 0
POINTS 700
DATA ascii
0.04505535674181294 0.027389183601325535 -0.12744748718973978
0.03159033860222761 0.043613199077408654 -0.12697619427943554
0.015242878660925139 0.05675390015843958 -0.12477845970916701
-0.0032226340241359275 0.06619684226670959 -0.1209570471048334
-0.022942772602745434 0.07150048392431231 -0.11569064147261829
-0.04299544531232748 0.07241683274191256 -0.10922549408669457
-0.06244301146392695 0.06890304126724796 -0.10186390805333284
-0.08037612447871238 0.06112341048437504 -0.09395010295363787
-0.09595625192333605 0.049441707282262395 -0.08585411951850874
-0.10845488435455525 0.03440415511936016 -0.07795451693533278
-0.1172875996111184 0.016713893221766876 -0.07062067184112164
-0.12204138974448653 -0.002801901425499977 -0.06419550668149723
-0.12249397281148158 -0.023230691954982112 -0.05897945503826542
-0.11862418653090087 -0.043617250826490775 -0.0552164136890387
-0.11061297780826577 -0.06300832520522703 -0.05308233826498686
-0.09883494185962771 -0.08049721000487248 -0.052677015761084064
-0.08384080655559828 -0.09526614440969504 -0.05401939860712921
-0.0663316809982094 -0.10662454946141682 -0.05704671847319262
-0.04712627243852921 -0.11404131876377988 -0.061617421246961505
-0.027122604435529916 -0.1171696524273527 -0.06751778594670572
-0.007256026272551521 -0.11586327304691975 -0.07447191807684958
0.011544522935620829 -0.11018326547037373 -0.0821546501479503
0.02839995040332263 -0.10039522053911885 -0.09020674614710662
0.0425221150756263 -0.08695681635551007 -0.09825169901465992
0.053250680228113585 -0.07049641776345938 -0.10591333569584632
0.06008399007819796 -0.05178369470671204 -0.1128334065747511
0.06270252665196788 -0.03169363331770363 -0.11868833682818308
0.06098385008952823 -0.011165622538484769 -0.12320435642477932
0.05500832379676692 0.008840470662153736 -0.12617030130739834
0.045055356741812956 0.027389183601325515 -0.12744748718973978
0.05173412340818787 0.032350853091059825 -0.10743549142674506
0.03826910526860254 0.048574868567142944 -0.10696419851644083
0.021921645327300076 0.06171556964817387 -0.1047664639461723
0.0034561326422390083 0.07115851175644389 -0.10094505134183869
-0.016264005936370497 0.07646215341404661 -0.09567864570962357
-0.036316678645952546 0.07737850223164686 -0.08921349832369986
-0.05576424479755202 0.07386471075698225 -0.08185191229033813
-0.07369735781233745 0.06608507997410934 -0.07393810719064316
-0.08927748525696111 0.054403376771996685 -0.06584212375551403
-0.1017761176881803 0.03936582460909445 -0.05794252117233807
-0.11060883294474345 0.02167556271150117 -0.050608676078126934
-0.11536262307811158 0.0021597680642343143 -0.044183510918502526
-0.11581520614510664 -0.01826902246524782 -0.038967459275270705
-0.11194541986452593 -0.038655581336756485 -0.03520441792604399
-0.10393421114189083 -0.058046655715492744 -0.03307034250199215
-0.09215617519325277 -0.07553554051513818 -0.03266501999808936
-0.07716203988922334 -0.09030447491996074 -0.034007402844134504
-0.05965291433183446 -0.10166287997168252 -0.03703472271019791
-0.04044750577215428 -0.10907964927404558 -0.0416054254839668
-0.02044383776915498 -0.1122079829376184 -0.04750579018371101
-0.0005772596061765857 -0.11090160355718545 -0.05445992231385487
0.018223289601995766 -0.10522159598063943 -0.062142654384955594
0.03507871706969756 -0.09543355104938456 -0.07019475038411191
0.04920088174200123 -0.08199514686577578 -0.07823970325166521
0.059929446894488515 -0.06553474827372509 -0.08590133993285161
0.0667627567445729 -0.04682202521697775 -0.0928214108117564
0.06938129331834282 -0.02673196382796934 -0.09867634106518837
0.06766261675590317 -0.006203953048750478 -0.10319236066178461
0.06168709046314185 0.013802140151888026 -0.10615830554440361
0.051734123408187886 0.032350853091059804 -0.10743549142674506
0.0584128900745628 0.037312522580794115 -0.08742349566375038
0.04494787193497747 0.053536538056877234 -0.08695220275344615
0.028600411993675003 0.06667723913790816 -0.08475446818317761
0.010134899308613938 0.07612018124617817 -0.08093305557884399
-0.009585239269995568 0.08142382290378089 -0.07566664994662888
-0.029637911979577616 0.08234017172138114 -0.06920150256070517
-0.04908547813117709 0.07882638024671654 -0.06183991652734344
-0.06701859114596252 0.07104674946384362 -0.05392611142764847
-0.08259871859058618 0.059365046261730975 -0.045830127992519336
-0.09509735102180537 0.04432749409882874 -0.03793052540934338
-0.10393006627836852 0.026637232201235456 -0.03059668031513224
-0.10868385641173665 0.007121437553968601 -0.024171515155507833
-0.10913643947873171 -0.013307352975513533 -0.018955463512276016
-0.105266653198151 -0.0336939118470222 -0.0151924221630493
-0.0972554444755159 -0.053084986225758454 -0.013058346738997459
-0.08547740852687784 -0.0705738710254039 -0.012653024235094665
-0.0704832732228484 -0.08534280543022646 -0.013995407081139812
-0.05297414766545953 -0.09670121048194824 -0.01702272694720322
-0.03376873910577935 -0.1041179797843113 -0.021593429720972106
-0.01376507110278005 -0.10724631344788411 -0.027493794420716318
0.006101507060198344 -0.10593993406745117 -0.03444792655086018
0.024902056268370693 -0.10025992649090515 -0.0421306586219609
0.04175748373607249 -0.09047188155965027 -0.05018275462111722
0.05587964840837616 -0.07703347737604149 -0.058227707488670524
0.06660821356086345 -0.060573078783990805 -0.06588934416985692
0.07344152341094783 -0.04186035572724346 -0.0728094150487617
0.07606005998471775 -0.021770294338235054 -0.07866434530219367
0.0743413834222781 -0.0012422835590161921 -0.08318036489878991
0.06836585712951679 0.018763809641622314 -0.08614630978140893
0.058412890074562816 0.037312522580794094 -0.08742349566375038
0.06509165674093774 0.042274192070528405 -0.06741149990075568
0.0516266386013524 0.05849820754661152 -0.06694020699045145
0.03527917866004993 0.07163890862764244 -0.06474247242018291
0.01681366597498887 0.08108185073591245 -0.0609210598158493
-0.0029064726036206368 0.08638549239351517 -0.05565465418363418
-0.022959145313202683 0.08730184121111542 -0.049189506797710475
-0.04240671146480216 0.08378804973645082 -0.04182792076434875
-0.06033982447958759 0.0760084189535779 -0.03391411566465377
-0.07591995192421125 0.06432671575146526 -0.02581813222952464
-0.08841858435543044 0.04928916358856303 -0.017918529646348682
-0.0972512996119936 0.031598901690969745 -0.010584684552137543
-0.10200508974536172 0.01208310704370289 -0.004159519392513136
-0.10245767281235678 -0.008345683485779245 0.001056532250718682
-0.09858788653177607 -0.028732242357287913 0.004819573599945397
-0.09057667780914097 -0.048123316736024165 0.006953649023997238
-0.07879864186050291 -0.06561220153566961 0.0073589715279000325
-0.06380450655647348 -0.08038113594049218 0.006016588681854886
-0.0462953809990846 -0.09173954099221396 0.002989268815791477
-0.027089972439404416 -0.09915631029457701 -0.0015814339579774083
-0.007086304436405119 -0.10228464395814983 -0.007481798657721621
0.012780273726573275 -0.10097826457771689 -0.01443593078786548
0.03158082293474562 -0.09529825700117087 -0.022118662858966204
0.04843625040244742 -0.08551021206991599 -0.030170758858122527
0.0625584150747511 -0.07207180788630721 -0.038215711725675824
0.07328698022723838 -0.055611409294256516 -0.04587734840686222
0.08012029007732276 -0.03689868623750917 -0.05279741928576701
0.08273882665109268 -0.016808624848500767 -0.05865234953919898
0.08102015008865303 0.003719385930718096 -0.06316836913579522
0.07504462379589172 0.0237254791313566 -0.06613431401841423
0.06509165674093775 0.042274192070528384 -0.06741149990075568
0.07177042340731267 0.047235861560262694 -0.04739950413776098
0.05830540526772734 0.06345987703634581 -0.046928211227456745
0.04195794532642487 0.07660057811737674 -0.04473047665718821
0.023492432641363803 0.08604352022564675 -0.0409090640528546
0.0037722940627542955 0.09134716188324947 -0.03564265842063948
-0.01628037864682775 0.09226351070084972 -0.029177511034715775
-0.035727944798427225 0.08874971922618512 -0.021815925001354045
-0.053661057813212655 0.0809700884433122 -0.013902119901659073
-0.06924118525783632 0.06928838524119955 -0.0058061364665299405
-0.08173981768905551 0.05425083307829732 0.002093466116646018
-0.09057253294561866 0.036560571180704035 0.009427311210857157
-0.0953263230789868 0.017044776533437177 0.015852476370481563
-0.09577890614598185 -0.0033840139960449565 0.02106852801371338
-0.09190911986540114 -0.023770572867553623 0.024831569362940096
-0.08389791114276604 -0.043161647246289875 0.026965644786991937
-0.07211987519412798 -0.06065053204593532 0.02737096729089473
-0.057125739890098545 -0.07541946645075788 0.026028584444849585
-0.03961661433270966 -0.08677787150247966 0.023001264578786176
-0.020411205773029482 -0.09419464080484272 0.01843056180501729
-0.0004075377700301866 -0.09732297446841554 0.01253019710527308
0.01945904039294821 -0.09601659508798259 0.005576064975129219
0.03825958960112056 -0.09033658751143657 -0.002106667095971503
0.05511501706882236 -0.0805485425801817 -0.010158763095127825
0.06923718174112603 -0.06711013839657291 -0.018203715962681128
0.07996574689361331 -0.050649739804522226 -0.025865352643867523
0.08679905674369769 -0.03193701674777488 -0.03278542352277231
0.08941759331746761 -0.011846955358766478 -0.03864035377620428
0.08769891675502796 0.008681055420452385 -0.04315637337280052
0.08172339046226665 0.02868714862109089 -0.04612231825541953
0.07177042340731268 0.047235861560262674 -0.04739950413776098
0.0784491900736876 0.05219753104999698 -0.027387508374766275
0.06498417193410227 0.0684215465260801 -0.026916215464462042
0.0486367119927998 0.08156224760711102 -0.02471848089419351
0.030171199307738733 0.09100518971538103 -0.020897068289859894
0.010451060729129229 0.09630883137298375 -0.01563066265764478
-0.009601611980452817 0.097225180190584 -0.00916551527172107
-0.029049178132052295 0.0937113887159194 -0.0018039292383593417
-0.046982291146837725 0.08593175793304648 0.00610987586133563
-0.06256241859146139 0.07425005473093384 0.014205859296464764
-0.07506105102268058 0.0592125025680316 0.02210546187964072
-0.08389376627924373 0.04152224067043832 0.029439306973851862
-0.08864755641261186 0.022006446023171467 0.035864472133476266
-0.08910013947960692 0.0015776554936893332 0.04108052377670809
-0.08523035319902621 -0.018808903377819333 0.0448435651259348
-0.07721914447639111 -0.03819997775655559 0.04697764054998664
-0.06544110852775305 -0.055688862556201035 0.047382963053889435
-0.050446973223723615 -0.0704577969610236 0.04604058020784429
-0.03293784766633473 -0.08181620201274538 0.04301326034178088
-0.01373243910665455 -0.08923297131510843 0.038442557568011994
0.006271228896344747 -0.09236130497868125 0.03254219286826778
0.02613780705932314 -0.0910549255982483 0.025588060738123922
0.04493835626749549 -0.08537491802170229 0.017905328667023202
0.06179378373519729 -0.07558687309044741 0.009853232667866878
0.07591594840750096 -0.06214846890683863 0.0018082798003135772
0.08664451355998824 -0.04568807031478794 -0.005853356880872818
0.09347782341007262 -0.026975347258040596 -0.012773427759777608
0.09609635998384254 -0.006885285869032188 -0.018628358013209573
0.09437768342140289 0.013642724910186674 -0.023144377609805814
0.08840215712864158 0.03364881811082518 -0.026110322492424825
0.07844919007368761 0.052197531049996956 -0.027387508374766275
0.08512795674006253 0.05715920053973127 -0.007375512611771589
0.07166293860047719 0.07338321601581438 -0.006904219701467356
0.05531547865917473 0.0865239170968453 -0.0047064851311988225
0.03684996597411366 0.09596685920511532 -0.0008850725268652083
0.017129827395504157 0.10127050086271804 0.004381333105349907
-0.0029228453140778894 0.10218684968031828 0.010846480491273618
-0.022370411465677364 0.09867305820565368 0.018208066524635344
-0.040303524480462795 0.09089342742278077 0.026121871624330318
-0.05588365192508646 0.07921172422066812 0.03421785505945945
-0.06838228435630565 0.06417417205776589 0.04211745764263541
-0.0772149996128688 0.04648391016017261 0.049451302736846545
-0.08196878974623693 0.026968115512905753 0.05587646789647095
-0.08242137281323199 0.006539324983423619 0.06109251953970277
-0.07855158653265128 -0.013847233888085047 0.06485556088892949
-0.07054037781001618 -0.0332383082668213 0.06698963631298133
-0.05876234186137812 -0.050727193066466746 0.06739495881688412
-0.043768206557348685 -0.06549612747128931 0.06605257597083898
-0.0262590809999598 -0.0768545325230111 0.06302525610477556
-0.007053672440279622 -0.08427130182537415 0.05845455333100668
0.012949995562719675 -0.08739963548894697 0.05255418863126247
0.032816573725698066 -0.08609325610851402 0.04560005650111861
0.05161712293387042 -0.080413248531968 0.037917324430017885
0.06847255040157221 -0.07062520360071313 0.029865228430861566
0.08259471507387589 -0.05718679941710434 0.021820275563308265
0.09332328022636317 -0.04072640082505365 0.01415863888212187
0.10015659007644755 -0.02201367776830631 0.00723856800321708
0.10277512665021747 -0.0019236163792979023 0.0013836377497851125
0.10105645008777782 0.01860439439992096 -0.0031323818468111282
0.09508092379501651 0.03861048760055946 -0.006098326729430139
0.08512795674006254 0.057159200539731246 -0.007375512611771589
0.09180672340643746 0.06212087002946556 0.012636483151223114
0.07834170526685214 0.07834488550554868 0.013107776061527347
0.06199424532554966 0.0914855865865796 0.01530551063179588
0.04352873264048859 0.10092852869484961 0.019126923236129495
0.02380859406187909 0.10623217035245233 0.02439332886834461
0.003755921352297044 0.10714851917005258 0.03085847625426832
-0.01569164479930243 0.10363472769538798 0.03822006228763005
-0.033624757814087865 0.09585509691251506 0.04613386738732502
-0.04920488525871153 0.08417339371040242 0.054229850822454156
-0.06170351768993072 0.06913584154750017 0.062129453405630114
-0.07053623294649387 0.0514455796499069 0.06946329849984126
-0.075290023079862 0.03192978500264004 0.07588846365946567
-0.07574260614685706 0.01150099447315791 0.08110451530269748
-0.07187281986627635 -0.008885564398350757 0.08486755665192419
-0.06386161114364125 -0.028276638777087013 0.08700163207597604
-0.05208357519500319 -0.045765523576732456 0.08740695457987883
-0.037089439890973755 -0.06053445798155502 0.08606457173383368
-0.019580314333584866 -0.0718928630332768 0.08303725186777028
-0.00037490577390468895 -0.07930963233563985 0.07846654909400139
0.01962876222909461 -0.08243796599921267 0.07256618439425717
0.039495340392073 -0.08113158661877973 0.06561205226411332
0.05829588960024535 -0.07545157904223371 0.05792932019301259
0.07515131706794716 -0.06566353411097883 0.04987722419385627
0.08927348174025082 -0.05222512992737005 0.04183227132630297
0.1000020468927381 -0.035764731335319364 0.03417063464511658
0.10683535674282248 -0.01705200827857202 0.027250563766211783
0.1094538933165924 0.0030380531104363872 0.021395633512779816
0.10773521675415275 0.02356606388965525 0.016879613916183575
0.10175969046139144 0.04357215709029375 0.013913669033564564
0.09180672340643747 0.062120870029465536 0.012636483151223114
0.09848549007281239 0.06708253951919985 0.032648478914217814
0.08502047193322707 0.08330655499528296 0.03311977182452205
0.06867301199192459 0.09644725607631388 0.03531750639479058
0.05020749930686353 0.1058901981845839 0.039138918999124195
0.03048736072825402 0.11119383984218661 0.04440532463133931
0.010434688018671976 0.11211018865978686 0.05087047201726302
-0.009012878132927499 0.10859639718512226 0.058232058050624744
-0.02694599114771293 0.10081676640224935 0.06614586315031971
-0.04252611859233659 0.0891350632001367 0.07424184658544886
-0.055024751023555786 0.07409751103723447 0.08214144916862481
-0.06385746628011894 0.05640724913964119 0.08947529426283594
-0.06861125641348707 0.03689145449237433 0.09590045942246035
-0.06906383948048213 0.016462663962892195 0.10111651106569218
-0.06519405319990142 -0.00392389490861647 0.10487955241491889
-0.05718284447726631 -0.023314969287352726 0.10701362783897073
-0.04540480852862825 -0.040803854086998166 0.10741895034287352
-0.03041067322459882 -0.05557278849182073 0.10607656749682838
-0.012901547667209934 -0.06693119354354252 0.10304924763076496
0.006303860892470242 -0.07434796284590557 0.09847854485699609
0.02630752889546954 -0.07747629650947839 0.09257818015725187
0.04617410705844793 -0.07616991712904544 0.085624048027108
0.06497465626662029 -0.07048990955249942 0.07794131595600728
0.08183008373432209 -0.06070186462124454 0.06988921995685096
0.09595224840662575 -0.04726346043763576 0.06184426708929767
0.10668081355911303 -0.030803061845585077 0.05418263040811127
0.1135141234091974 -0.012090338788837732 0.04726255952920648
0.11613265998296733 0.007999722600170676 0.041407629275774516
0.11441398342052768 0.028527733379389537 0.036891609679178275
0.10843845712776637 0.04853382658002804 0.033925664796559264
0.0984854900728124 0.06708253951919982 0.032648478914217814
0.10516425673918733 0.07204420900893413 0.05266047467721252
0.091699238599602 0.08826822448501725 0.053131767587516754
0.07535177865829953 0.10140892556604818 0.05532950215778529
0.05688626597323846 0.11085186767431819 0.0591509147621189
0.037166127394628955 0.11615550933192091 0.06441732039433402
0.01711345468504691 0.11707185814952116 0.07088246778025772
-0.002334111466552564 0.11355806667485656 0.07824405381361946
-0.020267224481337994 0.10577843589198364 0.08615785891331443
-0.03584735192596166 0.094096732689871 0.09425384234844356
-0.048345984357180856 0.07905918052696875 0.10215344493161951
-0.057178699613744007 0.06136891862937548 0.10948729002583066
-0.061932489747112136 0.04185312398210862 0.11591245518545507
-0.06238507281410719 0.02142433345262649 0.12112850682868688
-0.05851528653352648 0.0010377745811178214 0.1248915481779136
-0.05050407781089138 -0.018353299797618433 0.12702562360196545
-0.03872604186225332 -0.035842184597263876 0.12743094610586825
-0.023731906558223884 -0.05061111900208644 0.1260885632598231
-0.006222781000835 -0.06196952405380822 0.12306124339375968
0.012982627558845179 -0.06938629335617127 0.1184905406199908
0.03298629556184447 -0.0725146270197441 0.11259017592024659
0.05285287372482287 -0.07120824763931115 0.10563604379010272
0.07165342293299522 -0.06552824006276513 0.097953311719002
0.08850885040069702 -0.05574019513151025 0.08990121571984568
0.1026310150730007 -0.04230179094790147 0.08185626285229237
0.11335958022548798 -0.025841392355850784 0.07419462617110598
0.12019289007557235 -0.0071286692991034415 0.0672745552922012
0.12281142664934228 0.012961392089904966 0.06141962503876922
0.12109275008690262 0.03348940286912383 0.05690360544217298
0.11511722379414131 0.05349549606976233 0.05393766055955397
0.10516425673918735 0.07204420900893412 0.05266047467721252
-0.030054449998687196 -0.0223275127038043 -0.09005398093347615
-0.021708915916409402 -0.01680343533656765 -0.09420881496194988
-0.013363381834131612 -0.011279357969331003 -0.09836364899042363
-0.005017847751853824 -0.005755280602094358 -0.10251848301889736
0.003327686330423973 -0.00023120323485770802 -0.1066733170473711
0.011673220412701763 0.0052928741323789415 -0.11082815107584483
0.020018754494979547 0.010816951499615585 -0.11498298510431856
0.028364288577257337 0.01634102886685223 -0.1191378191327923
0.036709822659535145 0.021865106234088882 -0.12329265316126604
0.04505535674181294 0.027389183601325535 -0.12744748718973978
-0.030054449998687196 -0.0223275127038043 -0.09005398093347615
-0.02412617824996101 -0.01418485387098936 -0.09405131965911294
-0.01819790650123482 -0.006042195038174421 -0.09804865838474972
-0.012269634752508644 0.0021004637946405143 -0.1020459971103865
-0.006341363003782445 0.010243122627455458 -0.1060433358360233
-0.00041309125505626813 0.018385781460270395 -0.11004067456166007
0.005515180493669909 0.026528440293085327 -0.11403801328729686
0.011443452242396113 0.034671099125900266 -0.11803535201293365
0.017371723991122304 0.04281375795871521 -0.12203269073857044
0.02329999573984848 0.05095641679153015 -0.12603002946420722
-0.030054449998687196 -0.0223275127038043 -0.09005398093347615
-0.027185860814100987 -0.012448655836316274 -0.09346065068025224
-0.02431727162951478 -0.002569798968828251 -0.09686732042702834
-0.021448682444928577 0.007309057898659766 -0.10027399017380442
-0.018580093260342365 0.017187914766147797 -0.10368065992058052
-0.01571150407575616 0.027066771633635807 -0.10708732966735661
-0.012842914891169958 0.03694562850112383 -0.1104939994141327
-0.009974325706583742 0.04682448536861185 -0.1139006691609088
-0.0071057365219975325 0.05670334223609989 -0.11730733890768488
-0.00423714733741132 0.06658219910358791 -0.12071400865446098
-0.030054449998687196 -0.0223275127038043 -0.09005398093347615
-0.030556399527138182 -0.01178298522949345 -0.0925008161744009
-0.031058349055589168 -0.0012384577551826014 -0.09494765141532563
-0.03156029858404015 0.009306069719128245 -0.09739448665625038
-0.032062248112491136 0.019850597193439096 -0.09984132189717511
-0.03256419764094212 0.030395124667749948 -0.10228815713809986
-0.03306614716939311 0.04093965214206079 -0.1047349923790246
-0.033568096697844094 0.051484179616371625 -0.10718182761994934
-0.03407004622629508 0.06202870709068249 -0.10962866286087408
-0.03457199575474607 0.07257323456499333 -0.11207549810179881
-0.030054449998687196 -0.0223275127038043 -0.09005398093347615
-0.03387254422021829 -0.012259977789713829 -0.09127582910363476
-0.03769063844174939 -0.0021924428756233605 -0.09249767727379335
-0.04150873266328049 0.00787509203846711 -0.09371952544395196
-0.04532682688481159 0.017942626952557578 -0.09494137361411055
-0.0491449211063427 0.02801016186664805 -0.09616322178426916
-0.05296301532787379 0.03807769678073852 -0.09738506995442775
-0.05678110954940489 0.04814523169482898 -0.09860691812458636
-0.06059920377093599 0.058212766608919456 -0.09982876629474495
-0.0644172979924671 0.06828030152300993 -0.10105061446490356
-0.030054449998687196 -0.0223275127038043 -0.09005398093347615
-0.036774939160559565 -0.013827943971775378 -0.08991843582470416
-0.04349542832243193 -0.005328375239746458 -0.08978289071593216
-0.0502159174843043 0.0031711934922824614 -0.08964734560716017
-0.05693640664617667 0.011670762224311385 -0.0895118004983882
-0.06365689580804904 0.0201703309563403 -0.0893762553896162
-0.07037738496992141 0.02866989968836922 -0.08924071028084421
-0.07709787413179378 0.03716946842039816 -0.08910516517207222
-0.08381836329366615 0.04566903715242707 -0.08896962006330023
-0.09053885245553853 0.05416860588445599 -0.08883407495452823
-0.030054449998687196 -0.0223275127038043 -0.09005398093347615
-0.038949064821078364 -0.016316970310349656 -0.08857573096150807
-0.04784367964346953 -0.010306427916895015 -0.08709748098954001
-0.05673829446586069 -0.004295885523440376 -0.08561923101757193
-0.06563290928825187 0.0017146568700142683 -0.08414098104560386
-0.07452752411064303 0.007725199263468909 -0.08266273107363578
-0.0834221389330342 0.013735741656923548 -0.08118448110166772
-0.09231675375542536 0.01974628405037819 -0.07970623112969964
-0.10121136857781654 0.025756826443832835 -0.07822798115773157
-0.1101059834002077 0.031767368837287493 -0.07674973118576349
-0.030054449998687196 -0.0223275127038043 -0.09005398093347615
-0.040159320951422016 -0.01945733218042922 -0.08739321742018637
-0.05026419190415683 -0.01658715165705414 -0.0847324539068966
-0.060369062856891656 -0.01371697113367906 -0.08207169039360682
-0.07047393380962648 -0.010846790610303981 -0.07941092688031705
-0.0805788047623613 -0.007976610086928902 -0.07675016336702727
-0.09068367571509611 -0.005106429563553823 -0.0740893998537375
-0.10078854666783094 -0.002236249040178744 -0.07142863634044772
-0.11089341762056576 0.0006339314831963354 -0.06876787282715793
-0.12099828857330058 0.0035041120065714146 -0.06610710931386816
-0.030054449998687196 -0.0223275127038043 -0.09005398093347615
-0.04027455752080905 -0.02290872264565594 -0.08649903889152936
-0.05049466504293091 -0.023489932587507582 -0.0829440968495826
-0.06071477256505276 -0.024071142529359223 -0.07938915480763581
-0.07093488008717463 -0.024652352471210868 -0.07583421276568902
-0.08115498760929649 -0.025233562413062502 -0.07227927072374225
-0.09137509513141834 -0.025814772354914146 -0.06872432868179547
-0.1015952026535402 -0.026395982296765794 -0.06516938663984868
-0.11181531017566207 -0.026977192238617435 -0.061614444597901906
-0.12203541769778391 -0.027558402180469073 -0.058059502555955135
-0.030054449998687196 -0.0223275127038043 -0.09005398093347615
-0.03928228685886678 -0.02629712999528159 -0.08599009349372648
-0.048510123719046366 -0.030266747286758877 -0.0819262060539768
-0.05773796057922595 -0.034236364578236166 -0.07786231861422713
-0.06696579743940555 -0.038205981869713454 -0.07379843117447746
-0.07619363429958513 -0.04217559916119074 -0.06973454373472777
-0.0854214711597647 -0.04614521645266803 -0.0656706562949781
-0.0946493080199443 -0.050114833744145326 -0.06160676885522843
-0.1038771448801239 -0.054084451035622615 -0.05754288141547876
-0.11310498174030348 -0.05805406832709991 -0.053478993975729076
-0.030054449998687196 -0.0223275127038043 -0.09005398093347615
-0.03729003688848234 -0.029255367716417048 -0.08592153335773114
-0.04452562377827749 -0.036183222729029796 -0.08178908578198614
-0.051761210668072634 -0.04311107774164254 -0.07765663820624115
-0.05899679755786778 -0.05003893275425529 -0.07352419063049614
-0.06623238444766293 -0.05696678776686804 -0.06939174305475114
-0.07346797133745807 -0.06389464277948077 -0.06525929547900614
-0.08070355822725321 -0.07082249779209353 -0.06112684790326114
-0.08793914511704837 -0.07775035280470628 -0.056994400327516126
-0.09517473200684351 -0.08467820781731902 -0.05286195275177113
-0.030054449998687196 -0.0223275127038043 -0.09005398093347615
-0.034513698806890244 -0.03146286485018962 -0.0863007880380986
-0.0389729476150933 -0.04059821699657493 -0.08254759514272104
-0.04343219642329634 -0.04973356914296025 -0.07879440224734349
-0.047891445231499394 -0.05886892128934557 -0.07504120935196595
-0.052350694039702446 -0.0680042734357309 -0.0712880164565884
-0.05680994284790549 -0.0771396255821162 -0.06753482356121085
-0.06126919165610855 -0.08627497772850153 -0.0637816306658333
-0.0657284404643116 -0.09541032987488685 -0.060028437770455745
-0.07018768927251465 -0.10454568202127217 -0.05627524487507819
-0.030054449998687196 -0.0223275127038043 -0.09005398093347615
-0.03125413192455496 -0.03268040482930782 -0.08708675940546833
-0.03245381385042272 -0.04303329695481134 -0.0841195378774605
-0.03365349577629048 -0.05338618908031486 -0.08115231634945268
-0.03485317770215825 -0.06373908120581838 -0.07818509482144484
-0.03605285962802601 -0.0740919733313219 -0.07521787329343702
-0.037252541553893764 -0.08444486545682542 -0.07225065176542919
-0.03845222347976154 -0.09479775758232895 -0.06928343023742137
-0.0396519054056293 -0.10515064970783246 -0.06631620870941354
-0.040851587331497054 -0.11550354183333598 -0.0633489871814057
-0.030054449998687196 -0.0223275127038043 -0.09005398093347615
-0.027864560890568848 -0.032776048304954904 -0.0881942752665835
-0.025674671782450496 -0.04322458390610551 -0.08633456959969084
-0.023484782674332152 -0.05367311950725612 -0.08447486393279817
-0.0212948935662138 -0.06412165510840671 -0.08261515826590551
-0.019105004458095452 -0.07457019070955734 -0.08075545259901286
-0.016915115349977108 -0.08501872631070793 -0.0788957469321202
-0.014725226241858756 -0.09546726191185854 -0.07703604126522755
-0.012535337133740405 -0.10591579751300914 -0.07517633559833488
-0.010345448025622053 -0.11636433311415977 -0.07331662993144222
-0.030054449998687196 -0.0223275127038043 -0.09005398093347615
-0.02471229832107791 -0.031739430822483074 -0.08950331909301307
-0.01937014664346863 -0.041151348941161854 -0.08895265725254999
-0.014027994965859353 -0.05056326705984063 -0.0884019954120869
-0.008685843288250065 -0.05997518517851941 -0.08785133357162382
-0.0033436916106407834 -0.06938710329719817 -0.08730067173116075
0.0019984600669684907 -0.07879902141587695 -0.08675000989069767
0.0073406117445777895 -0.08821093953455575 -0.08619934805023459
0.012682763422187066 -0.09762285765323452 -0.08564868620977151
0.01802491509979635 -0.1070347757719133 -0.08509802436930843
-0.030054449998687196 -0.0223275127038043 -0.09005398093347615
-0.022138940777879885 -0.02968288597089567 -0.09087203567425564
-0.014223431557072574 -0.03703825923798704 -0.09169009041503512
-0.006307922336265262 -0.044393632505078405 -0.09250814515581461
0.0016075868845420488 -0.05174900577216977 -0.0933261998965941
0.00952309610534936 -0.05910437903926114 -0.09414425463737358
0.01743860532615667 -0.06645975230635251 -0.09496230937815307
0.025354114546963975 -0.07381512557344388 -0.09578036411893255
0.033269623767771296 -0.08117049884053525 -0.09659841885971204
0.0411851329885786 -0.08852587210762662 -0.09741647360049153
-0.030054449998687196 -0.0223275127038043 -0.09005398093347615
-0.020423351480536655 -0.02682927229544341 -0.09215210333090759
-0.010792252962386117 -0.03133103188708252 -0.09425022572833903
-0.0011611544442355795 -0.035832791478721635 -0.09634834812577048
0.008469944073914961 -0.04033455107036075 -0.09844647052320193
0.018101042592065495 -0.044836310661999855 -0.10054459292063338
0.027732141110216036 -0.04933807025363897 -0.10264271531806482
0.03736323962836658 -0.053839829845278075 -0.10474083771549626
0.04699433814651712 -0.058341589436917196 -0.1068389601129277
0.05662543666466766 -0.0628433490285563 -0.10893708251035915
-0.030054449998687196 -0.0223275127038043 -0.09005398093347615
-0.01975144114952608 -0.02348782311623989 -0.09320480687007453
-0.009448432300364969 -0.02464813352867548 -0.0963556328066729
0.0008545765487961436 -0.025808443941111075 -0.09950645874327128
0.011157585397957259 -0.026968754353546665 -0.10265728467986966
0.02146059424711837 -0.02812906476598226 -0.10580811061646803
0.031763603096279486 -0.029289375178417853 -0.1089589365530664
0.0420666119454406 -0.030449685590853436 -0.11210976248966478
0.052369620794601716 -0.03160999600328903 -0.11526058842626316
0.06267262964376283 -0.032770306415724614 -0.11841141436286154
-0.030054449998687196 -0.0223275127038043 -0.09005398093347615
-0.02019602169497614 -0.0200206362997779 -0.0939160695289093
-0.010337593391265089 -0.0177137598957515 -0.09777815812434244
-0.00047916508755404353 -0.015406883491725103 -0.10164024671977559
0.009379263216157018 -0.013100007087698701 -0.10550233531520874
0.019237691519868063 -0.010793130683672304 -0.10936442391064188
0.029096119823579108 -0.008486254279645907 -0.11322651250607503
0.03895454812729018 -0.006179377875619503 -0.11708860110150818
0.048812976431001236 -0.0038725014715931044 -0.12095068969694132
0.05867140473471228 -0.0015656250675667059 -0.12481277829237447
-0.030054449998687196 -0.0223275127038043 -0.09005398093347615
-0.021708915916409402 -0.016803435336567654 -0.09420881496194988
-0.013363381834131608 -0.011279357969331008 -0.09836364899042363
-0.00501784775185382 -0.005755280602094365 -0.10251848301889736
0.00332768633042398 -0.00023120323485771843 -0.1066733170473711
0.01167322041270177 0.005292874132378931 -0.11082815107584483
0.020018754494979554 0.010816951499615571 -0.11498298510431856
0.028364288577257344 0.016341028866852216 -0.1191378191327923
0.03670982265953516 0.02186510623408886 -0.12329265316126604
0.045055356741812956 0.027389183601325515 -0.12744748718973978
0.030054449998687196 0.0223275127038043 0.09005398093347615
0.03839998408096499 0.027851590071040946 0.08589914690500242
0.04674551816324278 0.03337566743827759 0.08174431287652868
0.055091052245520564 0.03889974480551424 0.07758947884805494
0.06343658632779836 0.04442382217275089 0.0734346448195812
0.07178212041007616 0.04994789953998754 0.06927981079110747
0.08012765449235394 0.055471976907224184 0.06512497676263374
0.08847318857463173 0.06099605427446083 0.06097014273416
0.09681872265690954 0.06652013164169748 0.056815308705686254
0.10516425673918733 0.07204420900893413 0.05266047467721252
0.030054449998687196 0.0223275127038043 0.09005398093347615
0.03598272174741338 0.03047017153661924 0.08605664220783936
0.04191099349613957 0.03861283036943418 0.08205930348220258
0.047839265244865745 0.04675548920224911 0.0780619647565658
0.05376753699359194 0.05489814803506406 0.074064626030929
0.05969580874231812 0.063040806867879 0.07006728730529223
0.0656240804910443 0.07118346570069392 0.06606994857965545
0.07155235223977051 0.07932612453350886 0.062072609854018655
0.0774806239884967 0.08746878336632381 0.058075271128381865
0.08340889573722288 0.09561144219913875 0.05407793240274509
0.030054449998687196 0.0223275127038043 0.09005398093347615
0.032923039183273405 0.032206369571292325 0.08664731118670006
0.03579162836785961 0.04208522643878035 0.08324064143992396
0.038660217552445815 0.051964083306268366 0.07983397169314788
0.04152880673703203 0.0618429401737564 0.07642730194637178
0.04439739592161823 0.0717217970412444 0.07302063219959569
0.04726598510620443 0.08160065390873243 0.0696139624528196
0.05013457429079065 0.09147951077622045 0.06620729270604352
0.053003163475376855 0.1013583676437085 0.06280062295926742
0.05587175265996307 0.11123722451119651 0.05939395321249132
0.030054449998687196 0.0223275127038043 0.09005398093347615
0.02955250047023621 0.032872040178115146 0.0876071456925514
0.029050550941785224 0.043416567652426 0.08516031045162667
0.028548601413334238 0.053961095126736844 0.08271347521070192
0.028046651884883252 0.0645056226010477 0.08026663996977719
0.02754470235643227 0.07505015007535855 0.07781980472885244
0.027042752827981284 0.08559467754966939 0.07537296948792771
0.026540803299530295 0.09613920502398023 0.07292613424700296
0.02603885377107931 0.10668373249829109 0.07047929900607822
0.025536904242628316 0.11722825997260193 0.06803246376515348
0.030054449998687196 0.0223275127038043 0.09005398093347615
0.026236355777156096 0.032395047617894766 0.08883213276331756
0.022418261555624996 0.04246258253198524 0.08761028459315895
0.018600167334093896 0.052530117446075705 0.08638843642300034
0.014782073112562796 0.06259765236016618 0.08516658825284175
0.010963978891031689 0.07266518727425665 0.08394474008268314
0.007145884669500595 0.08273272218834711 0.08272289191252455
0.003327790447969495 0.09280025710243758 0.08150104374236596
-0.0004903037735616051 0.10286779201652806 0.08027919557220735
-0.0043083979950927125 0.11293532693061853 0.07905734740204874
0.030054449998687196 0.0223275127038043 0.09005398093347615
0.023333960836814827 0.03082708143583322 0.09018952604224814
0.016613471674942457 0.03932665016786214 0.09032507115102013
0.009892982513070091 0.04782621889989106 0.09046061625979213
0.0031724933511977182 0.056325787631919984 0.09059616136856412
-0.0035479958106746476 0.0648253563639489 0.0907317064773361
-0.010268484972547013 0.07332492509597782 0.09086725158610809
-0.016988974134419386 0.08182449382800676 0.09100279669488008
-0.02370946329629176 0.09032406256003567 0.09113834180365207
-0.03042995245816413 0.09882363129206459 0.09127388691242407
0.030054449998687196 0.0223275127038043 0.09005398093347615
0.021159835176296028 0.02833805509725894 0.09153223090544423
0.01226522035390486 0.03434859749071358 0.0930104808774123
0.003370605531513696 0.04035913988416822 0.09448873084938036
-0.005524009290877476 0.046369682277622865 0.09596698082134844
-0.014418624113268639 0.05238022467107751 0.09744523079331652
-0.023313238935659803 0.05839076706453215 0.0989234807652846
-0.03220785375805097 0.06440130945798679 0.10040173073725266
-0.04110246858044215 0.07041185185144143 0.10187998070922073
-0.04999708340283331 0.0764223942448961 0.10335823068118881
0.030054449998687196 0.0223275127038043 0.09005398093347615
0.019949579045952376 0.02519769322717938 0.09271474444676593
0.009844708093217556 0.02806787375055446 0.0953755079600557
-0.0002601628595172647 0.03093805427392954 0.09803627147334548
-0.010365033812252084 0.03380823479730462 0.10069703498663525
-0.020469904764986915 0.0366784153206797 0.10335779849992503
-0.030574775717721724 0.039548595844054776 0.10601856201321481
-0.040679646670456544 0.042418776367429856 0.10867932552650458
-0.05078451762319137 0.045288956890804935 0.11134008903979437
-0.06088938857592619 0.048159137414180014 0.11400085255308413
0.030054449998687196 0.0223275127038043 0.09005398093347615
0.019834342476565337 0.021746302761952656 0.09360892297542293
0.009614234954443478 0.021165092820101015 0.0971638650173697
-0.0006058725676783738 0.020583882878249377 0.10071880705931649
-0.010825980089800239 0.020002672936397733 0.10427374910126327
-0.02104608761192209 0.0194214629945461 0.10782869114321005
-0.031266195134043946 0.018840253052694454 0.11138363318515683
-0.04148630265616581 0.018259043110842806 0.11493857522710361
-0.05170641017828768 0.017677833168991165 0.1184935172690504
-0.061926517700409515 0.017096623227139528 0.12204845931099717
0.030054449998687196 0.0223275127038043 0.09005398093347615
0.02082661313850761 0.01835789541232701 0.09411786837322582
0.011598776278328022 0.01438827812084972 0.0981817558129755
0.0023709394181484415 0.010418660829372433 0.10224564325272517
-0.006856897442031153 0.006449043537895142 0.10630953069247484
-0.016084734302210742 0.0024794262464178573 0.11037341813222452
-0.025312571162390312 -0.001490191045059431 0.1144373055719742
-0.034540408022569906 -0.0054598083365367265 0.11850119301172388
-0.0437682448827495 -0.009429425628014016 0.12256508045147355
-0.05299608174292909 -0.013399042919491311 0.12662896789122322
0.030054449998687196 0.0223275127038043 0.09005398093347615
0.02281886310889205 0.01539965769119155 0.09418642850922115
0.015583276219096902 0.008471802678578803 0.09831887608496616
0.008347689329301758 0.0015439476659660596 0.10245132366071115
0.001112102439506608 -0.005383907346646692 0.10658377123645617
-0.0061234844502885315 -0.01231176235925944 0.11071621881220117
-0.01335907134008368 -0.01923961737187218 0.11484866638794616
-0.020594658229878823 -0.026167472384484927 0.11898111396369117
-0.02783024511967398 -0.03309532739709768 0.12311356153943617
-0.03506583200946912 -0.04002318240971042 0.12724600911518116
0.030054449998687196 0.0223275127038043 0.09005398093347615
0.025595201190484144 0.01319216055741898 0.0938071738288537
0.021135952382281095 0.004056808411033663 0.09756036672423125
0.016676703574078047 -0.005078543735351657 0.1013135596196088
0.012217454765874994 -0.014213895881736974 0.10506675251498636
0.0077582059576719415 -0.0233492480281223 0.10881994541036391
0.003298957149468897 -0.03248460017450761 0.11257313830574145
-0.0011602916587341587 -0.041619952320892925 0.116326331201119
-0.005619540466937208 -0.050755304467278245 0.12007952409649655
-0.010078789275140259 -0.059890656613663565 0.1238327169918741
0.030054449998687196 0.0223275127038043 0.09005398093347615
0.02885476807281943 0.011974620578300779 0.09302120246148397
0.02765508614695167 0.00162172845279726 0.0959884239894918
0.02645540422108391 -0.00873116367270626 0.09895564551749964
0.02525572229521614 -0.01908405579820978 0.10192286704550746
0.024056040369348376 -0.029436947923713305 0.10489008857351528
0.022856358443480624 -0.03978984004921682 0.10785731010152311
0.02165667651761285 -0.050142732174720345 0.11082453162953093
0.020456994591745086 -0.06049562430022386 0.11379175315753877
0.019257312665877335 -0.07084851642572738 0.1167589746855466
0.030054449998687196 0.0223275127038043 0.09005398093347615
0.03224433910680555 0.011878977102653693 0.0919136866003688
0.034434228214923895 0.0014304415015030892 0.09377339226726146
0.036624117323042236 -0.009018094099647518 0.09563309793415413
0.03881400643116059 -0.01946662970079812 0.09749280360104678
0.04100389553927894 -0.029915165301948737 0.09935250926793944
0.04319378464739728 -0.040363700903099334 0.1012122149348321
0.045383673755515636 -0.050812236504249944 0.10307192060172476
0.047573562863633984 -0.06126077210540054 0.10493162626861742
0.04976345197175234 -0.07170930770655116 0.10679133193551008
0.030054449998687196 0.0223275127038043 0.09005398093347615
0.03539660167629648 0.012915594585125522 0.09060464277393923
0.04073875335390576 0.0035036764664467457 0.09115530461440231
0.04608090503151504 -0.005908241652232028 0.0917059664548654
0.051423056709124323 -0.015320159770910809 0.09225662829532848
0.05676520838673361 -0.02473207788958958 0.09280729013579156
0.06210736006434288 -0.034143996008268354 0.09335795197625463
0.06744951174195218 -0.04355591412694715 0.09390861381671771
0.07279166341956146 -0.052967832245625915 0.09445927565718079
0.07813381509717074 -0.062379750364304695 0.09500993749764387
0.030054449998687196 0.0223275127038043 0.09005398093347615
0.037969959219494503 0.01497213943671293 0.08923592619269666
0.045885468440301815 0.007616766169621561 0.08841787145191718
0.053800977661109126 0.0002613929025301912 0.08759981671113769
0.06171648688191644 -0.007093980364561177 0.0867817619703582
0.06963199610272375 -0.014449353631652543 0.08596370722957872
0.07754750532353107 -0.021804726898743916 0.08514565248879923
0.08546301454433837 -0.029160100165835284 0.08432759774801975
0.09337852376514569 -0.03651547343292665 0.08350954300724026
0.10129403298595299 -0.04387084670001802 0.08269148826646076
0.030054449998687196 0.0223275127038043 0.09005398093347615
0.03968554851683773 0.017825753112165187 0.0879558585360447
0.049316647034988274 0.013323993520526075 0.08585773613861326
0.05894774555313881 0.008822233928886964 0.08375961374118182
0.06857884407128935 0.0043204743372478515 0.08166149134375038
0.07820994258943989 -0.0001812852543912553 0.07956336894631892
0.08784104110759043 -0.004683044846030369 0.07746524654888748
0.09747213962574097 -0.009184804437669477 0.07536712415145604
0.10710323814389151 -0.013686564029308597 0.07326900175402459
0.11673433666204205 -0.018188323620947702 0.07117087935659315
0.030054449998687196 0.0223275127038043 0.09005398093347615
0.04035745884784831 0.021167202291368706 0.08690315499687777
0.05066046769700942 0.020006891878933116 0.08375232906027939
0.060963476546170535 0.018846581466497522 0.08060150312368101
0.07126648539533165 0.017686271054061935 0.07745067718708265
0.08156949424449277 0.01652596064162634 0.07429985125048427
0.09187250309365387 0.015365650229190746 0.0711490253138859
0.10217551194281499 0.014205339816755163 0.06799819937728752
0.11247852079197611 0.013045029404319569 0.06484737344068914
0.12278152964113723 0.011884718991883985 0.06169654750409077
0.030054449998687196 0.0223275127038043 0.09005398093347615
0.03991287830239825 0.0246343891078307 0.086191892338043
0.0497713066061093 0.026941265511857097 0.08232980374260986
0.05962973490982035 0.029248141915883496 0.07846771514717671
0.0694881632135314 0.031555018319909894 0.07460562655174356
0.07934659151724245 0.033861894723936296 0.07074353795631041
0.0892050198209535 0.03616877112796269 0.06688144936087728
0.09906344812466457 0.03847564753198909 0.06301936076544412
0.10892187642837563 0.040782523936015495 0.05915727217001098
0.11878030473208667 0.04308940034004189 0.055295183574577834
0.030054449998687196 0.0223275127038043 0.09005398093347615
0.03839998408096499 0.027851590071040943 0.08589914690500242
0.04674551816324278 0.03337566743827759 0.08174431287652868
0.05509105224552057 0.03889974480551423 0.07758947884805494
0.06343658632779837 0.04442382217275088 0.0734346448195812
0.07178212041007616 0.04994789953998753 0.06927981079110747
0.08012765449235394 0.05547197690722417 0.06512497676263374
0.08847318857463174 0.060996054274460816 0.06097014273416
0.09681872265690955 0.06652013164169746 0.056815308705686254
0.10516425673918735 0.07204420900893412 0.05266047467721252
