# .PCD v0.7 - Point Cloud Data file format
VERSION 0.7
FIELDS x y z
SIZE 4 4 4
TYPE F F F
COUNT 1 1 1
WIDTH 700
HEIGHT 1
VIEWPOINT 0 0 0 1 0 0 0
POINTS 700
DATA ascii
0.07573235729751052 -0.020635810179889 -0.08114033908524958
0.07520195275605611 -0.003641594622330612 -0.08412125962424721
0.07097905451993684 0.012873390781152703 -0.08684026059230275
0.0632611206172594 0.028136923668182004 -0.08917020452610247
0.052409033059445505 0.04143529820515815 -0.09100214583684856
0.038930223399469506 0.052146697178813914 -0.09225042498490707
0.023454945796410935 0.05977026747800601 -0.09285667382467741
0.006706807031453091 0.06394953942853404 -0.0927925448342091
-0.010531068540973913 0.06448909491891852 -0.09206103661382221
-0.02745265701762603 0.061363704934101856 -0.09069635367488903
-0.04326672372832979 0.05471950923615268 -0.0887623070748979
-0.057233820489765476 0.04486718303141389 -0.08634933068332604
-0.06870086138068146 0.032267410143145006 -0.08357025259441267
-0.07713166031371907 0.017509341947959695 -0.08055501941087197
-0.08213200250092947 0.0012830493122501579 -0.07744462008517528
-0.08346807749911991 -0.015652744354566865 -0.07438449343283163
-0.0810774119263157 -0.032506140163413716 -0.0715177275750181
-0.07507179064766721 -0.048489092057472816 -0.06897836929706469
-0.06573202983939543 -0.0628542549699531 -0.06688515616975445
-0.05349484633649654 -0.07492992984879886 -0.0653359645124811
-0.03893243723891348 -0.08415147155782395 -0.0644032328053359
-0.022725724611094004 -0.09008769105572184 -0.06413057454628812
-0.005632516323047588 -0.09246101731640488 -0.06453073893249295
0.011547928203413233 -0.09116047624168629 -0.06558501472200222
0.028012270476923784 -0.08624687968677228 -0.06724410515064184
0.042990656151576864 -0.07794998196550028 -0.06943043299391523
0.05578271256050569 -0.0666577367939775 -0.07204176799179976
0.06579029736337826 -0.052898157005995296 -0.07495600702208476
0.07254546701744398 -0.03731462525976506 -0.07803688350665816
0.07573235729751052 -0.020635810179889018 -0.08114033908524958
0.07656943624113727 -0.017549019430338934 -0.063691501981002
0.07603903169968286 -0.0005548038727805448 -0.06667242251999964
0.0718161334635636 0.01596018153070277 -0.06939142348805519
0.06409819956088615 0.03122371441773207 -0.07172136742185489
0.053246112003072256 0.04452208895470822 -0.07355330873260098
0.03976730234309626 0.05523348792836398 -0.07480158788065949
0.02429202474003769 0.06285705822755608 -0.07540783672042983
0.007543885975079846 0.06703633017808411 -0.07534370772996153
-0.009693989597347158 0.06757588566846859 -0.07461219950957464
-0.026615578073999276 0.06445049568365192 -0.07324751657064145
-0.04242964478470304 0.05780629998570275 -0.07131346997065033
-0.056396741546138725 0.04795397378096396 -0.06890049357907846
-0.06786378243705471 0.03535420089269507 -0.0661214154901651
-0.07629458137009232 0.02059613269750976 -0.06310618230662439
-0.08129492355730272 0.004369840061800225 -0.0599957829809277
-0.08263099855549316 -0.0125659536050168 -0.05693565632858405
-0.08024033298268896 -0.02941934941386365 -0.054068890470770535
-0.07423471170404046 -0.04540230130792275 -0.05152953219281711
-0.06489495089576866 -0.059767464220403035 -0.04943631906550687
-0.052657767392869786 -0.07184313909924879 -0.047887127408233525
-0.03809535829528673 -0.08106468080827388 -0.04695439570108833
-0.02188864566746725 -0.08700090030617177 -0.04668173744204055
-0.004795437379420834 -0.08937422656685481 -0.04708190182824538
0.012385007147039988 -0.08807368549213622 -0.04813617761775464
0.02884934942055054 -0.08316008893722221 -0.049795268046394274
0.043827735095203615 -0.07486319121595021 -0.05198159588966766
0.05661979150413244 -0.06357094604442744 -0.05459293088755219
0.066627376307005 -0.04981136625644523 -0.057507169917837185
0.07338254596107073 -0.034227834510214994 -0.060588046402410584
0.07656943624113727 -0.01754901943033895 -0.063691501981002
0.07740651518476402 -0.014462228680788867 -0.046242664876754436
0.07687611064330961 0.002531986876769521 -0.04922358541575207
0.07265321240719035 0.019046972280252837 -0.05194258638380762
0.0649352785045129 0.03431050516728214 -0.05427253031760732
0.054083190946699014 0.04760887970425828 -0.05610447162835341
0.040604381286723015 0.05832027867791405 -0.05735275077641192
0.025129103683664444 0.06594384897710615 -0.05795899961618226
0.0083809649187066 0.07012312092763417 -0.05789487062571396
-0.008856910653720403 0.07066267641801866 -0.05716336240532707
-0.02577849913037252 0.06753728643320199 -0.05579867946639388
-0.04159256584107628 0.060893090735252814 -0.053864632866402765
-0.05555966260251197 0.051040764530514024 -0.051451656474830895
-0.06702670349342796 0.03844099164224514 -0.048672578385917535
-0.07545750242646557 0.023682923447059828 -0.04565734520237682
-0.08045784461367597 0.007456630811350291 -0.042546945876680134
-0.08179391961186641 -0.009479162855466733 -0.039486819224336486
-0.0794032540390622 -0.026332558664313582 -0.03662005336652297
-0.07339763276041371 -0.04231551055837268 -0.03408069508856955
-0.06405787195214191 -0.05668067347085297 -0.0319874819612593
-0.05182068844924303 -0.06875634834969872 -0.03043829030398596
-0.03725827935165997 -0.07797789005872381 -0.029505558596840762
-0.021051566723840495 -0.08391410955662171 -0.029232900337792984
-0.00395835843579408 -0.08628743581730475 -0.029633064723997814
0.013222086090666742 -0.08498689474258615 -0.030687340513507078
0.029686428364177293 -0.08007329818767214 -0.03234643094214671
0.044664814038830374 -0.07177640046640014 -0.03453275878542009
0.0574568704477592 -0.06048415529487737 -0.037144093783304626
0.06746445525063176 -0.04672457550689516 -0.04005833281358962
0.07421962490469748 -0.031141043760664927 -0.04313920929816302
0.07740651518476402 -0.014462228680788886 -0.04624266487675443
0.07824359412839078 -0.0113754379312388 -0.028793827772506865
0.07771318958693638 0.0056187776263195875 -0.0317747483115045
0.07349029135081711 0.022133763029802904 -0.034493749279560046
0.06577235744813967 0.037397295916832204 -0.03682369321335975
0.054920269890325765 0.05069567045380835 -0.038655634524105836
0.041441460230349766 0.061407069427464114 -0.03990391367216435
0.0259661826272912 0.06903063972665621 -0.04051016251193469
0.009218043862333354 0.07320991167718424 -0.04044603352146639
-0.008019831710093649 0.07374946716756872 -0.0397145253010795
-0.024941420186745767 0.07062407718275206 -0.03834984236214631
-0.04075548689744953 0.06397988148480288 -0.036415795762155194
-0.054722583658885215 0.05412755528006409 -0.034002819370583325
-0.0661896245498012 0.04152778239179521 -0.03122374128166996
-0.0746204234828388 0.026769714196609895 -0.028208508098129248
-0.0796207656700492 0.010543421560900358 -0.025098108772432563
-0.08095684066823965 -0.006392372105916667 -0.022037982120088912
-0.07856617509543544 -0.023245767914763515 -0.0191712162622754
-0.07256055381678694 -0.039228719808822615 -0.016631857984321978
-0.06322079300851516 -0.0535938827213029 -0.014538644857011729
-0.05098360950561628 -0.06566955760014866 -0.012989453199738389
-0.03642120040803322 -0.07489109930917374 -0.01205672149259319
-0.02021448778021374 -0.08082731880707164 -0.011784063233545411
-0.0031212794921673254 -0.08320064506775468 -0.012184227619750241
0.014059165034293497 -0.08190010399303609 -0.013238503409259505
0.030523507307804048 -0.07698650743812208 -0.014897593837899136
0.045501892982457125 -0.06868960971685008 -0.017083921681172516
0.05829394939138595 -0.057397364545327303 -0.019695256679057055
0.06830153419425852 -0.043637784757345095 -0.022609495709342047
0.07505670384832425 -0.02805425301111486 -0.025690372193915446
0.07824359412839078 -0.011375437931238819 -0.02879382777250686
0.07908067307201753 -0.008288647181688733 -0.011344990668259291
0.07855026853056313 0.008705568375869655 -0.014325911207256924
0.07432737029444386 0.02522055377935297 -0.017044912175312472
0.06660943639176642 0.04048408666638227 -0.01937485610911218
0.05575734883395252 0.05378246120335842 -0.021206797419858266
0.042278539173976525 0.06449386017701418 -0.022455076567916777
0.026803261570917954 0.07211743047620628 -0.023061325407687117
0.010055122805960109 0.07629670242673431 -0.022997196417218816
-0.007182752766466895 0.07683625791711879 -0.022265688196831928
-0.024104341243119012 0.07371086793230212 -0.020901005257898737
-0.039918407953822774 0.06706667223435295 -0.01896695865790762
-0.05388550471525846 0.05721434602961416 -0.01655398226633575
-0.06535254560617444 0.04461457314134527 -0.013774904177422389
-0.07378334453921205 0.029856504946159962 -0.010759670993881674
-0.07878368672642246 0.013630212310450425 -0.007649271668184987
-0.0801197617246129 -0.0033055813563665996 -0.004589145015841338
-0.07772909615180869 -0.02015897716521345 -0.001722379158027825
-0.07172347487316019 -0.03614192905927255 0.0008169791199255978
-0.0623837140648884 -0.050507091971752835 0.0029101922472358453
-0.05014653056198952 -0.06258276685059859 0.004459383904509185
-0.03558412146440646 -0.07180430855962368 0.0053921156116543845
-0.019377408836586986 -0.07774052805752157 0.005664773870702163
-0.0022842005485405707 -0.08011385431820461 0.005264609484497333
0.014896243977920252 -0.07881331324348602 0.004210333694988069
0.0313605862514308 -0.07389971668857201 0.002551243266348438
0.04633897192608388 -0.06560281896730001 0.00036491542307505784
0.05913102833501271 -0.05431057379577724 -0.002246419574809479
0.06913861313788527 -0.04055099400779503 -0.005160658605094473
0.075893782791951 -0.024967462261564793 -0.008241535089667872
0.07908067307201753 -0.008288647181688752 -0.011344990668259287
0.07991775201564429 -0.0052018564321386655 0.006103846435988284
0.07938734747418988 0.011792359125419722 0.0031229258969906505
0.07516444923807061 0.028307344528903038 0.0004039249289351043
0.06744651533539317 0.04357087741593234 -0.0019260190048646043
0.056594427777579275 0.056869251952908484 -0.00375796031561069
0.043115618117603276 0.06758065092656425 -0.005006239463669203
0.027640340514544705 0.07520422122575635 -0.005612488303439543
0.010892201749586864 0.07938349317628438 -0.00554835931297124
-0.00634567382284014 0.07992304866666886 -0.004816851092584352
-0.02326726229949226 0.07679765868185219 -0.0034521681536511615
-0.03908132901019602 0.07015346298390301 -0.0015181215536600454
-0.053048425771631706 0.060301136779164224 0.0008948548379118239
-0.06451546666254769 0.04770136389089534 0.0036739329268251865
-0.0729462655955853 0.03294329569571003 0.006689166110365901
-0.0779466077827957 0.016717003060000492 0.009799565436062587
-0.07928268278098614 -0.00021879060681653255 0.012859692088406236
-0.07689201720818194 -0.017072186415663382 0.01572645794621975
-0.07088639592953344 -0.03305513830972248 0.018265816224173174
-0.06154663512126165 -0.04742030122220277 0.02035902935148342
-0.04930945161836277 -0.05949597610104852 0.02190822100875676
-0.03474704252077971 -0.06871751781007361 0.02284095271590196
-0.018540329892960235 -0.07465373730797151 0.02311361097494974
-0.001447121604913816 -0.07702706356865455 0.02271344658874491
0.015733322921547006 -0.07572652249393595 0.021659170799235645
0.032197665195057554 -0.07081292593902194 0.020000080370596012
0.047176050869710634 -0.06251602821774994 0.017813752527322632
0.05996810727863946 -0.05122378304622717 0.015202417529438095
0.06997569208151203 -0.03746420325824496 0.012288178499153101
0.07673086173557775 -0.021880671512014727 0.009207302014579703
0.07991775201564429 -0.005201856432138685 0.006103846435988288
0.08075483095927104 -0.0021150656825886 0.023552683540235847
0.08022442641781663 0.014879149874969787 0.020571763001238214
0.07600152818169736 0.031394135278453104 0.01785276203318267
0.06828359427901992 0.046657668165482405 0.01552281809938296
0.05743150672120603 0.05995604270245855 0.013690876788636874
0.043952697061230034 0.07066744167611431 0.012442597640578361
0.02847741945817146 0.07829101197530641 0.01183634880080802
0.011729280693213618 0.08247028392583444 0.011900477791276324
-0.0055085948792133865 0.08300983941621892 0.012631986011663212
-0.022430183355865507 0.07988444943140226 0.013996668950596402
-0.038244250066569264 0.07324025373345308 0.015930715550587518
-0.05221134682800495 0.06338792752871429 0.018343691942159387
-0.06367838771892094 0.05078815464044541 0.02112277003107275
-0.07210918665195855 0.036030086445260096 0.024138003214613464
-0.07710952883916895 0.01980379380955056 0.027248402540310152
-0.07844560383735939 0.0028680001427335328 0.0303085291926538
-0.07605493826455519 -0.013985395666113317 0.03317529505046731
-0.07004931698590669 -0.029968347560172415 0.035714653328420734
-0.06070955617763489 -0.0443335104726527 0.03780786645573098
-0.04847237267473601 -0.056409185351498456 0.03935705811300432
-0.03390996357715295 -0.06563072706052354 0.040289789820149524
-0.01770325094933348 -0.07156694655842144 0.0405624480791973
-0.000610042661287062 -0.07394027281910448 0.04016228369299247
0.01657040186517376 -0.07263973174438589 0.039108007903483205
0.03303474413868431 -0.06772613518947188 0.03744891747484358
0.04801312981333739 -0.05942923746819988 0.035262589631570196
0.060805186222266217 -0.0481369922966771 0.03265125463368566
0.07081277102513878 -0.034377412508694895 0.029737015603400665
0.0775679406792045 -0.01879388076246466 0.026656139118827266
0.08075483095927104 -0.002115065682588619 0.02355268354023585
0.0815919099028978 0.0009717250669614673 0.041001520644483425
0.0810615053614434 0.017965940624519856 0.03802060010548579
0.07683860712532413 0.03448092602800317 0.035301599137430244
0.06912067322264669 0.04974445891503247 0.03297165520363053
0.058268585664832784 0.06304283345200862 0.03113971389288445
0.044789776004856785 0.07375423242566438 0.029891434744825935
0.029314498401798214 0.08137780272485648 0.029285185905055595
0.012566359636840373 0.08555707467538451 0.0293493148955239
-0.004671515935586632 0.08609663016576899 0.030080823115910788
-0.021593104412238752 0.08297124018095232 0.031445506054843975
-0.03740717112294251 0.07632704448300315 0.033379552654835096
-0.0513742678843782 0.06647471827826436 0.035792529046406965
-0.06284130877529417 0.053874945389995474 0.038571607135320325
-0.07127210770833178 0.03911687719481016 0.04158684031886104
-0.07627244989554219 0.022890584559100625 0.044697239644557726
-0.07760852489373263 0.0059547908922836 0.047757366296901374
-0.07521785932092842 -0.01089860491656325 0.05062413215471489
-0.06921223804227992 -0.026881556810622348 0.05316349043266831
-0.05987247723400814 -0.041246719723102634 0.05525670355997856
-0.04763529373110926 -0.05332239460194839 0.0568058952172519
-0.0330728846335262 -0.06254393631097348 0.057738626924397095
-0.016866172005706725 -0.06848015580887137 0.05801128518344487
0.00022703628233969265 -0.07085348206955441 0.05761112079724005
0.017407480808800516 -0.06955294099483582 0.05655684500773078
0.03387182308231106 -0.06463934443992181 0.05489775457909115
0.04885020875696414 -0.05634244671864981 0.052711426735817773
0.06164226516589297 -0.045050201547127036 0.050100091737933235
0.07164984996876554 -0.03129062175914483 0.04718585270764824
0.07840501962283127 -0.015707090012914593 0.04410497622307484
0.0815919099028978 0.0009717250669614482 0.041001520644483425
0.08242898884652455 0.004058515816511534 0.058450357748730995
0.08189858430507015 0.021052731374069922 0.055469437209733366
0.07767568606895088 0.03756771677755324 0.052750436241677814
0.06995775216627344 0.05283124966458254 0.05042049230787811
0.05910566460845954 0.06612962420155868 0.048588550997132024
0.04562685494848354 0.07684102317521445 0.04734027184907351
0.03015157734542497 0.08446459347440655 0.04673402300930317
0.013403438580467128 0.08864386542493458 0.04679815199977147
-0.0038344369919598767 0.08918342091531906 0.04752966022015836
-0.020756025468611997 0.08605803093050239 0.04889434315909155
-0.036570092179315755 0.07941383523255321 0.050828389759082666
-0.05053718894075144 0.06956150902781442 0.053241366150654536
-0.06200422983166742 0.05696173613954554 0.0560204442395679
-0.07043502876470503 0.04220366794436023 0.05903567742310861
-0.07543537095191544 0.025977375308650692 0.0621460767488053
-0.07677144595010588 0.009041581641833668 0.06520620340114895
-0.07438078037730167 -0.007811814167013182 0.06807296925896246
-0.06837515909865317 -0.02379476606107228 0.07061232753691589
-0.05903539829038138 -0.03815992897355257 0.07270554066422613
-0.0467982147874825 -0.05023560385239832 0.07425473232149947
-0.03223580568989944 -0.05945714556142341 0.07518746402864467
-0.01602909306207997 -0.0653933650593213 0.07546012228769244
0.0010641152259664472 -0.06776669132000435 0.07505995790148762
0.01824455975242727 -0.06646615024528575 0.07400568211197836
0.03470890202593782 -0.06155255369037174 0.07234659168333872
0.0496872877005909 -0.053255655969099744 0.07016026384006535
0.062479344109519726 -0.04196341079757697 0.0675489288421808
0.07248692891239229 -0.02820383100959476 0.06463468981189581
0.07924209856645802 -0.012620299263364526 0.06155381332732242
0.08242898884652455 0.004058515816511515 0.058450357748731
0.0832660677901513 0.007145306566061602 0.07589919485297857
0.0827356632486969 0.02413952212361999 0.07291827431398094
0.07851276501257763 0.040654507527103305 0.07019927334592539
0.07079483110990019 0.055918040414132605 0.06786932941212569
0.05994274355208629 0.06921641495110875 0.0660373881013796
0.046463933892110294 0.07992781392476452 0.06478910895332109
0.030988656289051723 0.08755138422395661 0.06418286011355075
0.014240517524093882 0.09173065617448464 0.06424698910401905
-0.002997358048333122 0.09227021166486912 0.06497849732440593
-0.019918946524985243 0.08914482168005246 0.06634318026333913
-0.035733013235689004 0.08250062598210328 0.06827722686333024
-0.04970010999712469 0.07264829977736449 0.0706902032549021
-0.06116715088804067 0.06004852688909561 0.07346928134381547
-0.06959794982107828 0.045290458693910296 0.07648451452735619
-0.07459829200828869 0.02906416605820076 0.07959491385305287
-0.07593436700647913 0.012128372391383735 0.08265504050539653
-0.07354370143367492 -0.0047250234174631145 0.08552180636321004
-0.06753808015502642 -0.020707975311522214 0.08806116464116345
-0.05819831934675463 -0.0350731382240025 0.09015437776847371
-0.04596113584385575 -0.047148813102848255 0.09170356942574705
-0.03139872674627269 -0.056370354811873344 0.09263630113289224
-0.015192014118453214 -0.06230657430977124 0.09290895939194002
0.0019011941695932018 -0.06467990057045428 0.0925087950057352
0.019081638696054025 -0.06337935949573568 0.09145451921622592
0.03554598096956457 -0.058465762940821675 0.0897954287875863
0.05052436664421765 -0.05016886521954968 0.08760910094431291
0.06331642305314648 -0.0388766200480269 0.08499776594642838
0.07332400785601904 -0.025117040260044694 0.08208352691614339
0.08007917751008477 -0.00953350851381446 0.07900265043157
0.0832660677901513 0.007145306566061583 0.07589919485297858
-0.0037668552463203954 -0.0138905583729753 -0.07851976696911407
0.005066390591883039 -0.014640030795965712 -0.07881094164868468
0.013899636430086472 -0.015389503218956123 -0.0791021163282553
0.02273288226828991 -0.016138975641946534 -0.07939329100782591
0.03156612810649334 -0.016888448064936945 -0.07968446568739652
0.04039937394469678 -0.017637920487927356 -0.07997564036696714
0.049232619782900215 -0.018387392910917767 -0.08026681504653774
0.05806586562110365 -0.01913686533390818 -0.08055798972610835
0.06689911145930708 -0.01988633775689859 -0.08084916440567896
0.07573235729751052 -0.020635810179889 -0.08114033908524958
-0.0037668552463203954 -0.0138905583729753 -0.07851976696911407
0.004810695209658715 -0.011773810267492637 -0.07930572452398112
0.013388245665637824 -0.009657062162009974 -0.08009168207884815
0.021965796121616935 -0.007540314056527312 -0.08087763963371519
0.030543346577596046 -0.0054235659510446475 -0.08166359718858224
0.03912089703357516 -0.0033068178455619834 -0.08244955474344927
0.04769844748955426 -0.0011900697400793225 -0.08323551229831631
0.05627599794553338 0.00092667836540334 -0.08402146985318334
0.06485354840151249 0.0030434264708860057 -0.08480742740805039
0.07343109885749159 0.005160174576368668 -0.08559338496291743
-0.0037668552463203954 -0.0138905583729753 -0.07851976696911407
0.0036254891411205375 -0.009136972240979577 -0.0797153367028197
0.01101783352856147 -0.004383386108983853 -0.08091090643652532
0.018410177916002402 0.0003702000230118715 -0.08210647617023095
0.025802522303443338 0.005123786155007595 -0.08330204590393658
0.03319486669088427 0.00987737228700332 -0.0844976156376422
0.0405872110783252 0.014630958418999043 -0.08569318537134783
0.04797955546576613 0.019384544550994774 -0.08688875510505345
0.05537189985320707 0.02413813068299049 -0.08808432483875908
0.062764244240648 0.028891716814986215 -0.08927989457246471
-0.0037668552463203954 -0.0138905583729753 -0.07851976696911407
0.0016392078541615964 -0.007015259031356794 -0.07999539034983547
0.007045270954643588 -0.0001399596897382874 -0.08147101373055686
0.01245133405512558 0.00673533965188022 -0.08294663711127825
0.017857397155607573 0.013610638993498726 -0.08442226049199965
0.023263460256089566 0.020485938335117235 -0.08589788387272106
0.02866952335657156 0.02736123767673574 -0.08737350725344244
0.03407558645705355 0.034236537018354246 -0.08884913063416384
0.03948164955753554 0.04111183635997275 -0.09032475401488524
0.04488771265801753 0.04798713570159127 -0.09180037739560663
-0.0037668552463203954 -0.0138905583729753 -0.07851976696911407
-0.0009329042534464122 -0.005638591186659414 -0.0801155373068942
0.001901046739427571 0.0026133759996564733 -0.08171130764467432
0.004734997732301553 0.010865343185972359 -0.08330707798245444
0.0075689487251755375 0.019117310372288247 -0.08490284832023458
0.010402899718049521 0.02736927755860414 -0.0864986186580147
0.0132368507109235 0.03562124474492002 -0.08809438899579482
0.016070801703797488 0.0438732119312359 -0.08969015933357495
0.01890475269667147 0.052125179117551795 -0.09128592967135507
0.021738703689545457 0.06037714630386769 -0.0928817000091352
-0.0037668552463203954 -0.0138905583729753 -0.07851976696911407
-0.003812118924412695 -0.005156152029062928 -0.08006275778692645
-0.003857382602504995 0.0035782543148494446 -0.08160574860473883
-0.003902646280597295 0.012312660658761812 -0.08314873942255122
-0.003947909958689594 0.02104706700267419 -0.0846917302403636
-0.003993173636781895 0.02978147334658656 -0.08623472105817598
-0.004038437314874194 0.038515879690498925 -0.08777771187598836
-0.004083700992966494 0.04725028603441131 -0.08932070269380074
-0.004128964671058793 0.05598469237832368 -0.09086369351161312
-0.004174228349151094 0.06471909872223605 -0.0924066843294255
-0.0037668552463203954 -0.0138905583729753 -0.07851976696911407
-0.006686428573519345 -0.005620221327107735 -0.07984277126987938
-0.009606001900718296 0.002650115718759831 -0.08116577557064468
-0.012525575227917248 0.01092045276462739 -0.08248877987140997
-0.015445148555116197 0.019190789810494963 -0.08381178417217527
-0.01836472188231515 0.027461126856362525 -0.08513478847294058
-0.0212842952095141 0.03573146390223008 -0.08645779277370587
-0.02420386853671305 0.04400180094809765 -0.08778079707447117
-0.027123441863911996 0.052272137993965226 -0.08910380137523648
-0.030043015191110953 0.060542475039832774 -0.09042680567600178
-0.0037668552463203954 -0.0138905583729753 -0.07851976696911407
-0.009244357150776207 -0.006980509971573601 -0.07947941670831753
-0.01472185905523202 -7.046157017190165e-05 -0.08043906644752097
-0.020199360959687832 0.0068395868312297915 -0.08139871618672441
-0.025676862864143644 0.013749635232631497 -0.08235836592592785
-0.031154364768599462 0.020659683634033192 -0.0833180156651313
-0.03663186667305527 0.027569732035434884 -0.08427766540433475
-0.04210936857751108 0.03447978043683658 -0.08523731514353819
-0.04758687048196689 0.041389828838238295 -0.08619696488274164
-0.05306437238642271 0.048299877239639986 -0.08715661462194509
-0.0037668552463203954 -0.0138905583729753 -0.07851976696911407
-0.011208713404486188 -0.009089609580779598 -0.07901206920701305
-0.018650571562651982 -0.004288660788583896 -0.07950437144491201
-0.02609242972081777 0.0005122880036118069 -0.07999667368281099
-0.03353428787898357 0.005313236795807509 -0.08048897592070996
-0.04097614603714935 0.010114185588003213 -0.08098127815860894
-0.04841800419531515 0.014915134380198914 -0.0814735803965079
-0.055859862353480935 0.019716083172394615 -0.08196588263440688
-0.06330172051164674 0.02451703196459032 -0.08245818487230584
-0.07074357866981253 0.02931798075678603 -0.08295048711020482
-0.0037668552463203954 -0.0138905583729753 -0.07851976696911407
-0.01236662885443205 -0.011718966486015931 -0.07849137311937594
-0.020966402462543703 -0.009547374599056564 -0.0784629792696378
-0.029566176070655356 -0.007375782712097195 -0.07843458541989967
-0.03816594967876701 -0.005204190825137827 -0.07840619157016154
-0.04676572328687867 -0.003032598938178456 -0.0783777977204234
-0.05536549689499032 -0.0008610070512190882 -0.07834940387068527
-0.063965270503102 0.0013105848357402793 -0.07832101002094713
-0.07256504411121363 0.0034821767226996467 -0.078292616171209
-0.0811648177193253 0.005653768609659018 -0.07826422232147086
-0.0037668552463203954 -0.0138905583729753 -0.07851976696911407
-0.012592625394702765 -0.014583649067924231 -0.07797375394593394
-0.021418395543085132 -0.01527673976287316 -0.07742774092275378
-0.030244165691467505 -0.01596983045782209 -0.07688172789957365
-0.03906993583984987 -0.01666292115277102 -0.07633571487639351
-0.04789570598823225 -0.01735601184771995 -0.07578970185321336
-0.056721476136614615 -0.01804910254266888 -0.07524368883003323
-0.06554724628499699 -0.018742193237617808 -0.07469767580685309
-0.07437301643337935 -0.01943528393256674 -0.07415166278367294
-0.08319878658176172 -0.02012837462751567 -0.0736056497604928
-0.0037668552463203954 -0.0138905583729753 -0.07851976696911407
-0.01186221279346237 -0.017373224518624615 -0.07751530375581847
-0.01995757034060434 -0.02085589066427393 -0.07651084054252288
-0.028052927887746312 -0.024338556809923244 -0.07550637732922728
-0.03614828543488829 -0.027821222955572558 -0.07450191411593168
-0.04424364298203026 -0.03130388910122187 -0.07349745090263608
-0.05233900052917223 -0.03478655524687119 -0.07249298768934048
-0.0604343580763142 -0.0382692213925205 -0.0714885244760449
-0.06852971562345618 -0.041751887538169816 -0.0704840612627493
-0.07662507317059816 -0.04523455368381914 -0.0694795980494537
-0.0037668552463203954 -0.0138905583729753 -0.07851976696911407
-0.0102545425895745 -0.0197853990533108 -0.07716570274071621
-0.016742229932828603 -0.025680239733646297 -0.07581163851231837
-0.023229917276082708 -0.03157508041398179 -0.07445757428392051
-0.029717604619336813 -0.03746992109431729 -0.07310351005552265
-0.036205291962590924 -0.04336476177465279 -0.0717494458271248
-0.04269297930584502 -0.04925960245498828 -0.07039538159872695
-0.049180666649099126 -0.05515444313532378 -0.06904131737032909
-0.05566835399235323 -0.061049283815659286 -0.06768725314193123
-0.062156041335607336 -0.06694412449599478 -0.06633318891353338
-0.0037668552463203954 -0.0138905583729753 -0.07851976696911407
-0.007943830795203855 -0.021558776132405217 -0.07696283559523216
-0.012120806344087314 -0.029226993891835133 -0.07540590422135024
-0.01629778189297077 -0.036895211651265046 -0.07384897284746832
-0.02047475744185423 -0.044563429410694966 -0.07229204147358641
-0.024651732990737692 -0.052231647170124886 -0.07073511009970448
-0.028828708539621148 -0.0598998649295548 -0.06917817872582256
-0.03300568408850461 -0.0675680826889847 -0.06762124735194065
-0.037182659637388066 -0.07523630044841463 -0.06606431597805873
-0.041359635186271525 -0.08290451820784454 -0.0645073846041768
-0.0037668552463203954 -0.0138905583729753 -0.07851976696911407
-0.005180478887658185 -0.02250118283260745 -0.07692868612238758
-0.006594102528995975 -0.031111807292239602 -0.07533760527566108
-0.008007726170333764 -0.03972243175187175 -0.07374652442893459
-0.009421349811671555 -0.048333056211503904 -0.07215544358220809
-0.010834973453009343 -0.05694368067113605 -0.0705643627354816
-0.012248597094347132 -0.0655543051307682 -0.06897328188875511
-0.013662220735684924 -0.07416492959040034 -0.0673822010420286
-0.015075844377022715 -0.08277555405003251 -0.06579112019530212
-0.0164894680183605 -0.09138617850966466 -0.06420003934857561
-0.0037668552463203954 -0.0138905583729753 -0.07851976696911407
-0.002263938923942767 -0.022510494765003983 -0.07706695494744886
-0.0007610226015651388 -0.031130431157032665 -0.07561414292578365
0.0007418937208124888 -0.03975036754906134 -0.07416133090411844
0.0022448100431901176 -0.04837030394109003 -0.07270851888245324
0.0037477263655677456 -0.056990240333118704 -0.07125570686078803
0.005250642687945373 -0.06561017672514738 -0.06980289483912282
0.006753559010323001 -0.07423011311717606 -0.06835008281745761
0.00825647533270063 -0.08285004950920476 -0.0668972707957924
0.009759391655078256 -0.09146998590123342 -0.06544445877412719
-0.0037668552463203954 -0.0138905583729753 -0.07851976696911407
0.0004897367360935341 -0.021585702837230124 -0.07736265849775875
0.004746328718507464 -0.02928084730148495 -0.07620555002640342
0.009002920700921393 -0.03697599176573977 -0.07504844155504808
0.013259512683335322 -0.0446711362299946 -0.07389133308369276
0.017516104665749255 -0.052366280694249416 -0.07273422461233743
0.021772696648163184 -0.060061425158504246 -0.07157711614098211
0.026029288630577116 -0.06775656962275907 -0.07042000766962678
0.03028588061299104 -0.0754517140870139 -0.06926289919827144
0.03454247259540497 -0.08314685855126873 -0.06810579072691612
-0.0037668552463203954 -0.0138905583729753 -0.07851976696911407
0.0027821446070055334 -0.01982702260428543 -0.07778375270532782
0.009331144460331462 -0.02576348683559556 -0.07704773844154156
0.015880144313657394 -0.03169995106690569 -0.0763117241777553
0.02242914416698332 -0.03763641529821582 -0.07557570991396904
0.02897814402030925 -0.04357287952952595 -0.07483969565018278
0.03552714387363518 -0.049509343760836086 -0.07410368138639653
0.04207614372696111 -0.05544580799214622 -0.07336766712261027
0.048625143580287036 -0.061382272223456345 -0.072631652858824
0.055174143433612974 -0.06731873645476646 -0.07189563859503775
-0.0037668552463203954 -0.0138905583729753 -0.07851976696911407
0.00436486672560686 -0.01742503435814493 -0.07828460547881612
0.012496588697534115 -0.020959510343314558 -0.07804944398851817
0.020628310669461372 -0.024493986328484187 -0.0778142824982202
0.028760032641388628 -0.02802846231365382 -0.07757912100792225
0.03689175461331588 -0.031562938298823444 -0.0773439595176243
0.04502347658524314 -0.03509741428399307 -0.07710879802732634
0.0531551985571704 -0.0386318902691627 -0.07687363653702838
0.06128692052909765 -0.04216636625433234 -0.07663847504673042
0.0694186425010249 -0.045700842239501965 -0.07640331355643247
-0.0037668552463203954 -0.0138905583729753 -0.07851976696911407
0.005066390591883039 -0.014640030795965714 -0.07881094164868468
0.013899636430086472 -0.015389503218956126 -0.0791021163282553
0.02273288226828991 -0.01613897564194654 -0.07939329100782591
0.03156612810649334 -0.016888448064936952 -0.07968446568739652
0.04039937394469678 -0.017637920487927367 -0.07997564036696712
0.049232619782900215 -0.018387392910917778 -0.08026681504653774
0.05806586562110365 -0.019136865333908192 -0.08055798972610835
0.06689911145930708 -0.019886337756898607 -0.08084916440567896
0.07573235729751052 -0.020635810179889018 -0.08114033908524958
0.0037668552463203954 0.0138905583729753 0.07851976696911407
0.01260010108452383 0.01314108594998489 0.07822859228954346
0.02143334692272726 0.012391613526994479 0.07793741760997284
0.0302665927609307 0.011642141104004067 0.07764624293040225
0.03909983859913413 0.010892668681013656 0.07735506825083163
0.04793308443733757 0.010143196258023245 0.07706389357126102
0.056766330275541003 0.009393723835032834 0.0767727188916904
0.06559957611374444 0.008644251412042423 0.07648154421211979
0.07443282195194786 0.007894778989052012 0.07619036953254918
0.0832660677901513 0.007145306566061602 0.07589919485297857
0.0037668552463203954 0.0138905583729753 0.07851976696911407
0.012344405702299506 0.016007306478457963 0.07773380941424704
0.020921956158278614 0.018124054583940626 0.07694785185938
0.029499506614257723 0.020240802689423288 0.07616189430451295
0.038077057070236835 0.022357550794905954 0.07537593674964592
0.04665460752621595 0.024474298900388616 0.07458997919477887
0.05523215798219505 0.02659104700587128 0.07380402163991184
0.06380970843817417 0.02870779511135394 0.0730180640850448
0.07238725889415328 0.030824543216836607 0.07223210653017775
0.08096480935013238 0.032941291322319266 0.07144614897531072
0.0037668552463203954 0.0138905583729753 0.07851976696911407
0.011159199633761328 0.018644144504971025 0.07732419723540845
0.018551544021202262 0.02339773063696675 0.07612862750170282
0.02594388840864319 0.028151316768962473 0.07493305776799719
0.03333623279608413 0.0329049029009582 0.07373748803429157
0.04072857718352506 0.03765848903295392 0.07254191830058594
0.04812092157096599 0.042412075164949645 0.07134634856688032
0.055513265958406915 0.047165661296945376 0.07015077883317469
0.06290561034584786 0.05191924742894109 0.06895520909946906
0.07029795473328879 0.05667283356093682 0.06775963936576344
0.0037668552463203954 0.0138905583729753 0.07851976696911407
0.009172918346802388 0.020765857714593806 0.07704414358839268
0.01457898144728438 0.027641157056212312 0.07556852020767128
0.01998504454776637 0.03451645639783082 0.07409289682694989
0.02539110764824836 0.041391755739449324 0.0726172734462285
0.030797170748730354 0.048267055081067836 0.0711416500655071
0.03620323384921235 0.05514235442268634 0.0696660266847857
0.04160929694969434 0.06201765376430485 0.06819040330406431
0.04701536005017633 0.06889295310592335 0.06671477992334292
0.05242142315065832 0.07576825244754187 0.06523915654262152
0.0037668552463203954 0.0138905583729753 0.07851976696911407
0.006600806239194379 0.022142525559291186 0.07692399663133395
0.009434757232068361 0.030394492745607075 0.07532822629355382
0.012268708224942344 0.03864645993192296 0.0737324559557737
0.015102659217816328 0.04689842711823885 0.07213668561799358
0.01793661021069031 0.05515039430455474 0.07054091528021345
0.02077056120356429 0.06340236149087061 0.06894514494243333
0.023604512196438276 0.0716543286771865 0.0673493746046532
0.02643846318931226 0.0799062958635024 0.06575360426687307
0.029272414182186245 0.08815826304981829 0.06415783392909295
0.0037668552463203954 0.0138905583729753 0.07851976696911407
0.0037215915682280954 0.02262496471688767 0.07697677615130169
0.003676327890135796 0.03135937106080004 0.07543378533348931
0.003631064212043496 0.040093777404712413 0.07389079451567693
0.0035858005339511963 0.04882818374862479 0.07234780369786455
0.003540536855858896 0.05756259009253716 0.07080481288005218
0.0034952731777665963 0.06629699643644953 0.0692618220622398
0.0034500094996742967 0.07503140278036191 0.0677188312444274
0.003404745821581997 0.08376580912427428 0.06617584042661503
0.0033594821434896967 0.09250021546818665 0.06463284960880265
0.0037668552463203954 0.0138905583729753 0.07851976696911407
0.0008472819191214452 0.022160895418842867 0.07719676266834878
-0.002072291408077505 0.030431232464710432 0.07587375836758348
-0.004991864735276457 0.03870156951057799 0.07455075406681817
-0.007911438062475405 0.046971906556445564 0.07322774976605287
-0.010831011389674359 0.055242243602313126 0.07190474546528758
-0.013750584716873309 0.06351258064818067 0.07058174116452227
-0.01667015804407226 0.07178291769404825 0.06925873686375697
-0.019589731371271207 0.08005325473991583 0.06793573256299167
-0.022509304698470164 0.08832359178578338 0.06661272826222638
0.0037668552463203954 0.0138905583729753 0.07851976696911407
-0.0017106466581354172 0.020800606774377 0.07756011722991063
-0.00718814856259123 0.027710655175778698 0.07660046749070719
-0.012665650467047042 0.03462070357718039 0.07564081775150373
-0.018143152371502855 0.041530751978582095 0.07468116801230029
-0.023620654275958674 0.048440800379983794 0.07372151827309685
-0.029098156180414482 0.055350848781385485 0.07276186853389341
-0.034575658084870294 0.062260897182787184 0.07180221879468995
-0.040053159989326105 0.06917094558418889 0.07084256905548651
-0.045530661893781924 0.07608099398559058 0.06988291931628307
0.0037668552463203954 0.0138905583729753 0.07851976696911407
-0.0036750029118453975 0.018691507165171 0.07802746473121511
-0.01111686107001119 0.023492455957366706 0.07753516249331613
-0.018558719228176982 0.028293404749562406 0.07704286025541716
-0.026000577386342778 0.03309435354175811 0.07655055801751819
-0.03344243554450856 0.037895302333953815 0.07605825577961922
-0.04088429370267436 0.04269625112614951 0.07556595354172024
-0.04832615186084015 0.047497199918345216 0.07507365130382126
-0.05576801001900595 0.05229814871054092 0.0745813490659223
-0.06320986817717174 0.05709909750273663 0.07408904682802332
0.0037668552463203954 0.0138905583729753 0.07851976696911407
-0.0048329183617912596 0.01606215025993467 0.07854816081885221
-0.013432691969902913 0.018233742146894036 0.07857655466859034
-0.022032465578014568 0.020405334033853407 0.07860494851832849
-0.030632239186126224 0.022576925920812774 0.07863334236806661
-0.03923201279423788 0.024748517807772145 0.07866173621780474
-0.04783178640234953 0.026920109694731513 0.07869013006754288
-0.0564315600104612 0.02909170158169088 0.07871852391728101
-0.06503133361857284 0.03126329346865025 0.07874691776701916
-0.0736311072266845 0.033434885355609616 0.07877531161675728
0.0037668552463203954 0.0138905583729753 0.07851976696911407
-0.005058914902061974 0.01319746767802637 0.07906577999229422
-0.013884685050444342 0.012504376983077442 0.07961179301547436
-0.022710455198826716 0.011811286288128511 0.0801578060386545
-0.03153622534720908 0.011118195593179581 0.08070381906183464
-0.04036199549559146 0.01042510489823065 0.08124983208501478
-0.04918776564397383 0.009732014203281722 0.08179584510819493
-0.05801353579235619 0.009038923508332792 0.08234185813137507
-0.06683930594073856 0.008345832813383861 0.0828878711545552
-0.07566507608912093 0.007652742118434931 0.08343388417773535
0.0037668552463203954 0.0138905583729753 0.07851976696911407
-0.004328502300821578 0.010407892227325986 0.07952423018240967
-0.01242385984796355 0.006925226081676672 0.08052869339570527
-0.020519217395105524 0.003442559936027356 0.08153315660900087
-0.0286145749422475 -4.010620962195696e-05 0.08253761982229646
-0.036709932489389474 -0.0035227723552712746 0.08354208303559206
-0.04480529003653144 -0.007005438500920589 0.08454654624888766
-0.05290064758367341 -0.0104881046465699 0.08555100946218326
-0.06099600513081539 -0.013970770792219214 0.08655547267547886
-0.06909136267795737 -0.017453436937868536 0.08755993588877445
0.0037668552463203954 0.0138905583729753 0.07851976696911407
-0.002720832096933709 0.007995717692639803 0.07987383119751193
-0.009208519440187813 0.0021008770123043044 0.08122789542590979
-0.01569620678344192 -0.0037939636680311903 0.08258195965430765
-0.022183894126696024 -0.009688804348366692 0.08393602388270549
-0.028671581469950136 -0.01558364502870219 0.08529008811110335
-0.035159268813204234 -0.02147848570903768 0.08664415233950121
-0.04164695615645834 -0.027373326389373176 0.08799821656789907
-0.04813464349971244 -0.033268167069708685 0.08935228079629691
-0.05462233084296655 -0.03916300775004418 0.09070634502469477
0.0037668552463203954 0.0138905583729753 0.07851976696911407
-0.0004101203025630636 0.0062223406135453845 0.080076698342996
-0.004587095851446523 -0.001445877145884532 0.0816336297168779
-0.008764071400329981 -0.009114094905314448 0.08319056109075983
-0.01294104694921344 -0.016782312664744364 0.08474749246464175
-0.017118022498096904 -0.024450530424174284 0.08630442383852366
-0.02129499804698036 -0.0321187481836042 0.08786135521240558
-0.02547197359586382 -0.03978696594303411 0.0894182865862875
-0.029648949144747277 -0.04745518370246403 0.09097521796016941
-0.033825924693630736 -0.05512340146189394 0.09253214933405134
0.0037668552463203954 0.0138905583729753 0.07851976696911407
0.0023532316049826056 0.00527993391334315 0.08011084781584057
0.0009396079636448156 -0.003330690546289001 0.08170192866256706
-0.00047401567769297297 -0.011941315005921146 0.08329300950929355
-0.0018876393190307642 -0.020551939465553302 0.08488409035602006
-0.0033012629603685517 -0.02916256392518545 0.08647517120274655
-0.004714886601706342 -0.037773188384817594 0.08806625204947305
-0.006128510243044133 -0.04638381284444975 0.08965733289619954
-0.007542133884381924 -0.054994437304081906 0.09124841374292604
-0.00895575752571971 -0.06360506176371405 0.09283949458965253
0.0037668552463203954 0.0138905583729753 0.07851976696911407
0.005269771568698024 0.005270621980946619 0.07997257899077928
0.006772687891075652 -0.0033493144110820633 0.08142539101244449
0.00827560421345328 -0.011969250803110742 0.0828782030341097
0.009778520535830908 -0.020589187195139427 0.08433101505577492
0.011281436858208536 -0.029209123587168102 0.08578382707744013
0.012784353180586164 -0.037829059979196784 0.08723663909910534
0.014287269502963792 -0.04644899637122546 0.08868945112077055
0.015790185825341422 -0.055068932763254155 0.09014226314243576
0.017293102147719046 -0.06368886915528282 0.09159507516410097
0.0037668552463203954 0.0138905583729753 0.07851976696911407
0.008023447228734324 0.006195413908720476 0.0796768754404694
0.012280039211148255 -0.001499730555534349 0.08083398391182472
0.016536631193562183 -0.009194875019789172 0.08199109238318006
0.02079322317597611 -0.016890019484044 0.08314820085453539
0.025049815158390044 -0.024585163948298815 0.08430530932589071
0.029306407140803972 -0.032280308412553645 0.08546241779724605
0.033562999123217904 -0.03997545287680847 0.08661952626860137
0.03781959110563183 -0.0476705973410633 0.0877766347399567
0.04207618308804576 -0.05536574180531813 0.08893374321131202
0.0037668552463203954 0.0138905583729753 0.07851976696911407
0.010315855099646325 0.00795409414166517 0.07925578123290034
0.016864854952972252 0.0020176299103550396 0.07999179549668659
0.023413854806298182 -0.003918834320955092 0.08072780976047285
0.02996285465962411 -0.009855298552265222 0.08146382402425911
0.03651185451295004 -0.01579176278357535 0.08219983828804536
0.04306085436627597 -0.021728227014885484 0.08293585255183163
0.0496098542196019 -0.027664691246195618 0.08367186681561788
0.056158854072927825 -0.033601155477505744 0.08440788107940414
0.06270785392625376 -0.03953761970881587 0.0851438953431904
0.0037668552463203954 0.0138905583729753 0.07851976696911407
0.011898577218247651 0.01035608238780567 0.07875492845941202
0.020030299190174905 0.006821606402636042 0.07899008994970999
0.02816202116210216 0.003287130417466413 0.07922525144000794
0.036293743134029416 -0.0002473455677032175 0.0794604129303059
0.04442546510595667 -0.003781821552872846 0.07969557442060386
0.05255718707788393 -0.0073162975380424745 0.07993073591090182
0.06068890904981119 -0.0108507735232121 0.08016589740119977
0.06882063102173844 -0.014385249508381735 0.08040105889149772
0.07695235299366569 -0.017919725493551364 0.08063622038179569
0.0037668552463203954 0.0138905583729753 0.07851976696911407
0.01260010108452383 0.013141085949984888 0.07822859228954346
0.02143334692272726 0.012391613526994475 0.07793741760997286
0.0302665927609307 0.01164214110400406 0.07764624293040225
0.03909983859913413 0.010892668681013648 0.07735506825083163
0.04793308443733757 0.010143196258023235 0.07706389357126102
0.056766330275541003 0.009393723835032822 0.0767727188916904
0.06559957611374444 0.00864425141204241 0.07648154421211979
0.07443282195194786 0.007894778989051995 0.0761903695325492
0.0832660677901513 0.007145306566061583 0.07589919485297858
