# .PCD v0.7 - Point Cloud Data file format
VERSION 0.7
FIELDS x y z
SIZE 4 4 4
TYPE F F F
COUNT 1 1 1
WIDTH 700
HEIGHT 1
VIEWPOINT 0 0 0 1 0 0 0
POINTS 700
DATA ascii
0.07900082535808386 -0.005170177937687439 -0.09593381564340055
0.08899864155709986 0.007991173881150143 -0.08652480032950012
0.09531809036367407 0.022904811148457816 -0.07655709899639437
0.097663681375174 0.03887338876093359 -0.06649679028011499
0.09592573736283906 0.055150233777217395 -0.05681428303500515
0.09018552265710002 0.07097425901476173 -0.047962320538512286
0.08071144331780677 0.08560555064059987 -0.04035481071872274
0.0679464967651818 0.0983599657198203 -0.03434747227966997
0.05248755771280675 0.10864112197883291 -0.03022120169008695
0.03505746896939391 0.11596828397765072 -0.02816893877672222
0.016471242112433077 0.11999884176476469 -0.028286645072478307
-0.0024020515473518016 0.1205443309376926 -0.030568816761786806
-0.020679917774588472 0.11757924502897597 -0.034908742032907315
-0.0375077038588806 0.11124222816025016 -0.04110349080364273
-0.05209856122566756 0.10182959219720839 -0.04886340350644219
-0.0637702376010517 0.08978146153608896 -0.05782563524784637
-0.07197697836985661 0.07566119337607037 -0.06757112203243232
-0.07633504545487019 0.06012903576276418 -0.07764417572948344
-0.07664066048284093 0.04391125512341534 -0.08757379154352068
-0.0728795332347276 0.02776617685595119 -0.096895671675055
-0.06522752984045926 0.012448726876192653 -0.1051739353696615
-0.054042449474161 -0.001324867878929658 -0.11202150021760965
-0.03984729406243692 -0.012910569426917276 -0.11711818169713108
-0.023305813295557188 -0.021766643239968755 -0.12022566464679799
-0.0051914684296456605 -0.027478989149404887 -0.12119864661760321
0.013648733902015948 -0.029780504209316896 -0.11999163205398367
0.032333846777780076 -0.02856357213345359 -0.11666105961543387
0.049990175086587305 -0.023885095313159493 -0.11136266316751504
0.06579212854031746 -0.015963834124798015 -0.10434418983938712
0.07900082535808385 -0.005170177937687453 -0.09593381564340056
0.07670483802317046 -0.015273753593665703 -0.07936124476279635
0.08670265422218645 -0.0021124017748281195 -0.06995222944889591
0.09302210302876067 0.012801235492479553 -0.05998452811579017
0.0953676940402606 0.028769813104955327 -0.049924219399510784
0.09362975002792566 0.04504665812123913 -0.04024171215440095
0.08788953532218662 0.06087068335878346 -0.031389749657908084
0.07841545598289337 0.0755019749846216 -0.023782239838118537
0.0656505094302684 0.08825639006384203 -0.01777490139906577
0.05019157037789335 0.09853754632285465 -0.013648630809482745
0.03276148163448051 0.10586470832167245 -0.011596367896118015
0.014175254777519679 0.10989526610878643 -0.011714074191874103
-0.004698038882265201 0.11044075528171433 -0.013996245881182602
-0.02297590510950187 0.10747566937299771 -0.018336171152303113
-0.039803691193794 0.1011386525042719 -0.024530919923038526
-0.05439454856058096 0.09172601654123011 -0.03229083262583799
-0.0660662249359651 0.07967788588011068 -0.041253064367242166
-0.07427296570477002 0.0655576177200921 -0.05099855115182812
-0.07863103278978359 0.05002546010678592 -0.06107160484887924
-0.07893664781775434 0.033807679467437075 -0.07100122066291649
-0.075175520569641 0.017662601199972927 -0.0803231007944508
-0.06752351717537267 0.0023451512202143907 -0.0886013644890573
-0.056338436809074396 -0.011428443534907922 -0.09544892933700544
-0.04214328139735032 -0.023014145082895537 -0.10054561081652687
-0.025601800630470586 -0.03187021889594702 -0.10365309376619379
-0.00748745576455906 -0.03758256480538315 -0.10462607573699902
0.01135274656710255 -0.03988407986529516 -0.10341906117337946
0.03003785944286668 -0.03866714778943185 -0.10008848873482967
0.04769418775167391 -0.033988670969137755 -0.09479009228691083
0.06349614120540406 -0.026067409780776277 -0.08777161895878292
0.07670483802317045 -0.015273753593665717 -0.07936124476279635
0.07440885068825706 -0.02537732924964396 -0.06278867388219216
0.08440666688727305 -0.012215977430806376 -0.05337965856829172
0.09072611569384727 0.0026976598365012977 -0.04341195723518598
0.0930717067053472 0.01866623744897707 -0.033351648518906596
0.09133376269301226 0.03494308246526088 -0.023669141273796757
0.08559354798727321 0.05076710770280521 -0.014817178777303892
0.07611946864797997 0.06539839932864334 -0.007209668957514345
0.06335452209535501 0.07815281440786377 -0.0012023305184615779
0.04789558304297996 0.08843397066687639 0.0029239400711214445
0.030465494299567113 0.09576113266569419 0.004976202984486175
0.01187926744260628 0.09979169045280817 0.004858496688730086
-0.0069940262171785976 0.10033717962573607 0.0025763249994215877
-0.02527189244441527 0.09737209371701945 -0.0017636002716989215
-0.04209967852870739 0.09103507684829364 -0.007958349042434334
-0.05669053589549435 0.08162244088525186 -0.015718261745233802
-0.0683622122708785 0.06957431022413244 -0.024680493486637974
-0.07656895303968342 0.05545404206411385 -0.03442598027122393
-0.08092702012469699 0.03992188445080767 -0.04449903396827505
-0.08123263515266774 0.023704103811458817 -0.054428649782312294
-0.0774715079045544 0.00755902554399467 -0.06375052991384661
-0.06981950451028607 -0.007758424435763865 -0.07202879360845311
-0.05863442414398779 -0.021532019190886178 -0.07887635845640126
-0.04443926873226371 -0.03311772073887379 -0.08397303993592269
-0.027897787965383985 -0.04197379455192527 -0.0870805228855896
-0.009783443099472457 -0.0476861404613614 -0.08805350485639482
0.009056759232189151 -0.04998765552127341 -0.08684649029277527
0.027741872107953282 -0.04877072344541011 -0.08351591785422548
0.045398200416760515 -0.04409224662511601 -0.07821752140630665
0.06120015387049067 -0.03617098543675453 -0.07119904807817873
0.07440885068825705 -0.025377329249643973 -0.06278867388219217
0.07211286335334367 -0.03548090490562222 -0.04621610300158796
0.08211067955235966 -0.022319553086784634 -0.03680708768768753
0.08843012835893388 -0.00740591581947696 -0.026839386354581787
0.09077571937043381 0.008562661792998813 -0.016779077638302404
0.08903777535809887 0.024839506809282617 -0.007096570393192565
0.08329756065235983 0.040663532046826954 0.0017553921033003005
0.07382348131306658 0.05529482367266509 0.009362901923089847
0.06105853476044161 0.06804923875188552 0.015370240362142615
0.045599595708066556 0.07833039501089814 0.019496510951725637
0.02816950696465372 0.08565755700971595 0.021548773865090368
0.009583280107692884 0.08968811479682992 0.02143106756933428
-0.009290013552091995 0.09023360396975783 0.01914889588002578
-0.027567879779328664 0.0872685180610412 0.014808970608905271
-0.044395665863620794 0.08093150119231539 0.008614221838169858
-0.058986523230407754 0.0715188652292736 0.0008543091353703898
-0.0706581996057919 0.059470734568154174 -0.008107922606033782
-0.0788649403745968 0.04535046640813559 -0.017853409390619735
-0.08322300745961038 0.029818308794829405 -0.02792646308767086
-0.08352862248758113 0.013600528155480561 -0.0378560789017081
-0.07976749523946779 -0.002544550111983588 -0.04717795903324242
-0.07211549184519946 -0.017862000091742124 -0.05545622272784892
-0.06093041147890119 -0.031635594846864436 -0.06230378757579706
-0.046735256067177114 -0.04322129639485205 -0.06740046905531849
-0.03019377530029738 -0.05207737020790353 -0.0705079520049854
-0.012079430434385854 -0.057789716117339664 -0.07148093397579063
0.006760771897275754 -0.060091231177251674 -0.07027391941217108
0.025445884773039888 -0.05887429910138837 -0.06694334697362128
0.04310221308184711 -0.05419582228109427 -0.06164495052570246
0.05890416653557727 -0.04627456109273279 -0.05462647719757454
0.07211286335334366 -0.03548090490562223 -0.046216103001587974
0.06981687601843027 -0.04558448056160048 -0.02964353212098376
0.07981469221744626 -0.032423128742762895 -0.020234516807083328
0.08613414102402048 -0.017509491475455222 -0.010266815473977587
0.08847973203552041 -0.0015409138629794497 -0.0002065067576982032
0.08674178802318547 0.014735931153304356 0.009476000487411635
0.08100157331744642 0.03055995639084869 0.018327962983904503
0.07152749397815318 0.04519124801668683 0.02593547280369405
0.058762547425528215 0.057945663095907256 0.03194281124274682
0.04330360837315316 0.06822681935491987 0.03606908183232984
0.025873519629740317 0.07555398135373767 0.03812134474569457
0.007287292772779485 0.07958453914085165 0.03800363844993848
-0.011586000887005394 0.08013002831377955 0.03572146676062998
-0.029863867114242066 0.07716494240506293 0.031381541489509474
-0.04669165319853419 0.07082792553633711 0.02518679271877406
-0.06128251056532115 0.06141528957329534 0.017426880015974592
-0.0729541869407053 0.04936715891217591 0.008464648274570418
-0.08116092770951021 0.035246890752157325 -0.0012808385100155362
-0.08551899479452378 0.019714733138851144 -0.011353892207066658
-0.08582460982249453 0.0034969524995022983 -0.0212835080211039
-0.08206348257438119 -0.01264812576796185 -0.03060538815263822
-0.07441147918011286 -0.027965575747720385 -0.03888365184724472
-0.06322639881381459 -0.0417391705028427 -0.04573121669519286
-0.04903124340209051 -0.053324872050830315 -0.05082789817471429
-0.03248976263521078 -0.062180945863881794 -0.053935381124381204
-0.014375417769299252 -0.06789329177331793 -0.05490836309518643
0.004464784562362356 -0.07019480683322994 -0.05370134853156688
0.023149897438126486 -0.06897787475736664 -0.050370776093017086
0.04080622574693372 -0.06429939793707254 -0.045072379645098255
0.056608179200663876 -0.056378136748711054 -0.03805390631697034
0.06981687601843026 -0.04558448056160049 -0.029643532120983772
0.06752088868351687 -0.05568805621757874 -0.013070961240379564
0.07751870488253286 -0.04252670439874116 -0.003661945926479131
0.08383815368910708 -0.027613067131433484 0.006305755406626612
0.08618374470060701 -0.011644489518957711 0.016366064122905994
0.08444580068827207 0.004632355497326095 0.026048571368015833
0.07870558598253302 0.020456380734870428 0.0349005338645087
0.06923150664323978 0.03508767236070857 0.042508043684298245
0.05646656009061481 0.047842087439928994 0.04851538212335101
0.04100762103823976 0.05812324369894161 0.052641652712934035
0.02357753229482692 0.06545040569775942 0.054693915626298766
0.004991305437866087 0.0694809634848734 0.05457620933054268
-0.013881988221918792 0.0700264526578013 0.05229403764123418
-0.032159854449155464 0.06706136674908468 0.04795411237011367
-0.04898764053344759 0.06072434988035886 0.041759363599378256
-0.06357849790023455 0.05131171391731708 0.03399945089657879
-0.0752501742756187 0.03926358325619765 0.025037219155174616
-0.08345691504442361 0.025143315096179064 0.015291732370588663
-0.08781498212943718 0.009611157482872883 0.005218678673537541
-0.08812059715740793 -0.006606623156475963 -0.0047109371404997005
-0.08435946990929459 -0.02275170142394011 -0.014032817272034022
-0.07670746651502626 -0.038069151403698646 -0.02231108096664052
-0.06552238614872799 -0.05184274615882096 -0.029158645814588664
-0.05132723073700391 -0.06342844770680857 -0.03425532729411009
-0.03478574997012418 -0.07228452151986005 -0.03736281024377701
-0.01667140510421265 -0.07799686742929618 -0.038335792214582234
0.0021687972274489573 -0.08029838248920819 -0.03712877765096268
0.02085391010321309 -0.07908145041334488 -0.03379820521241289
0.038510238412020316 -0.07440297359305079 -0.02849980876449406
0.054312191865750474 -0.06648171240468931 -0.021481335436366142
0.06752088868351686 -0.05568805621757875 -0.013070961240379575
0.06522490134860347 -0.065791631873557 0.0035016096402246243
0.07522271754761946 -0.05263028005471941 0.012910624954125057
0.08154216635419367 -0.03771664278741174 0.022878326287230803
0.08388775736569361 -0.021748065174935965 0.032938635003510186
0.08214981335335866 -0.005471220158652161 0.04262114224862002
0.07640959864761962 0.010352805078892174 0.05147310474511289
0.06693551930832638 0.024984096704730313 0.059080614564902434
0.05417057275570142 0.03773851178395074 0.0650879530039552
0.038711633703326365 0.04801966804296336 0.06921422359353822
0.021281544959913523 0.05534683004178116 0.07126648650690295
0.00269531810295269 0.05937738782889514 0.07114878021114687
-0.01617797555683219 0.05992287700182304 0.06886660852183837
-0.03445584178406886 0.05695779109310642 0.06452668325071786
-0.051283627868360986 0.050620774224380605 0.058331934479982445
-0.06587448523514795 0.041208138261338824 0.05057202177718298
-0.0775461616105321 0.029160007600219397 0.041609790035778804
-0.08575290237933701 0.01503973944020081 0.031864303251192855
-0.09011096946435058 -0.0004924181731053724 0.02179124955414173
-0.09041658449232133 -0.016710198812454218 0.011861633740104488
-0.08665545724420799 -0.032855277079918366 0.002539753608570167
-0.07900345384993966 -0.0481727270596769 -0.005738510086036331
-0.06781837348364139 -0.06194632181479921 -0.012586074933984474
-0.053623218071917306 -0.07353202336278683 -0.0176827564135059
-0.037081737305037575 -0.08238809717583831 -0.020790239363172817
-0.018967392439126048 -0.08810044308527444 -0.021763221333978042
-0.0001271901074644395 -0.09040195814518645 -0.02055620677035849
0.018557922768299692 -0.08918502606932315 -0.0172256343318087
0.03621425107710692 -0.08450654924902905 -0.01192723788388987
0.05201620453083708 -0.07658528806066757 -0.004908764555761952
0.06522490134860345 -0.06579163187355701 0.003501609640224614
0.06292891401369008 -0.07589520752953526 0.020074180520828825
0.07292673021270607 -0.06273385571069767 0.029483195834729258
0.07924617901928029 -0.04782021844339 0.039450897167835
0.08159177003078022 -0.03185164083091423 0.04951120588411438
0.07985382601844528 -0.015574795814630421 0.059193713129224224
0.07411361131270623 0.0002492294229139117 0.06804567562571709
0.06463953197341299 0.014880521048752052 0.07565318544550663
0.051874585420788016 0.02763493612797248 0.0816605238845594
0.03641564636841296 0.037916092386985095 0.08578679447414242
0.018985557625000125 0.0452432543858029 0.08783905738750715
0.00039933076803929166 0.049273812172916875 0.08772135109175107
-0.018473962891745587 0.04981930134584478 0.08543917940244257
-0.03675182911898226 0.04685421543712816 0.08109925413132206
-0.05357961520327439 0.04051719856840234 0.07490450536058664
-0.06817047257006134 0.031104562605360563 0.06714459265778717
-0.07984214894544549 0.019056431944241135 0.05818236091638301
-0.0880488897142504 0.0049361637842225475 0.04843687413179705
-0.09240695679926397 -0.010595993829083633 0.03836382043474593
-0.09271257182723472 -0.02681377446843248 0.028434204620708687
-0.08895144457912138 -0.04295885273589663 0.019112324489174368
-0.08129944118485305 -0.05827630271565516 0.010834060794567868
-0.07011436081855478 -0.07204989747077747 0.003986495946619725
-0.05591920540683071 -0.08363559901876509 -0.0011101855329017033
-0.03937772463995098 -0.09249167283181657 -0.0042176684825686196
-0.021263379774039446 -0.0982040187412527 -0.005190650453373845
-0.002423177442377838 -0.10050553380116471 -0.003983635889754292
0.016261935433386294 -0.0992886017253014 -0.0006530634512045013
0.03391826374219352 -0.09461012490500731 0.004645332996714329
0.04972021719592368 -0.08668886371664583 0.011663806324842247
0.06292891401369007 -0.07589520752953527 0.020074180520828815
0.06063292667877668 -0.08599878318551352 0.03664675140143302
0.07063074287779267 -0.07283743136667593 0.04605576671533345
0.07695019168436688 -0.05792379409936826 0.0560234680484392
0.07929578269586682 -0.04195521648689249 0.06608377676471858
0.07755783868353187 -0.025678371470608682 0.07576628400982842
0.07181762397779283 -0.009854346233064347 0.08461824650632128
0.06234354463849959 0.004776945392773791 0.09222575632611082
0.04957859808587462 0.017531360471994217 0.09823309476516359
0.03411965903349957 0.027812516731006834 0.10235936535474661
0.016689570290086726 0.03513967872982464 0.10441162826811135
-0.0018966565668741063 0.039170236516938614 0.10429392197235526
-0.020769950226658986 0.03971572568986652 0.10201175028304676
-0.039047816453895656 0.036750639781149896 0.09767182501192626
-0.05587560253818778 0.030413622912424082 0.09147707624119084
-0.07046645990497474 0.0210009869493823 0.08371716353839137
-0.08213813628035889 0.008952856288262876 0.0747549317969872
-0.0903448770491638 -0.005167411871755712 0.06500944501240125
-0.09470294413417737 -0.020699569485061894 0.05493639131535012
-0.09500855916214812 -0.03691735012441074 0.045006775501312886
-0.09124743191403478 -0.05306242839187489 0.03568489536977856
-0.08359542851976645 -0.06837987837163342 0.027406631675172065
-0.07241034815346818 -0.08215347312675574 0.020559066827223922
-0.0582151927417441 -0.09373917467474335 0.015462385347702492
-0.04167371197486437 -0.10259524848779483 0.012354902398035576
-0.023559367108952844 -0.10830759439723096 0.01138192042723035
-0.004719164777291235 -0.11060910945714297 0.012588934990849903
0.013965948098472895 -0.10939217738127967 0.015919507429399696
0.031622276407280124 -0.10471370056098557 0.021217903877318527
0.04742422986101028 -0.09679243937262409 0.028236377205446445
0.060632926678776664 -0.08599878318551353 0.03664675140143301
0.05833693934386328 -0.09610235884149178 0.05321932228203722
0.06833475554287927 -0.0829410070226542 0.06262833759593765
0.07465420434945348 -0.06802736975534653 0.0725960389290434
0.07699979536095342 -0.05205879214287075 0.08265634764532279
0.07526185134861847 -0.035781947126586944 0.09233885489043261
0.06952163664287943 -0.01995792188904261 0.10119081738692548
0.06004755730358619 -0.005326630263204472 0.10879832720671503
0.047282610750961226 0.007427784816015955 0.1148056656457678
0.03182367169858617 0.017708941075028573 0.11893193623535082
0.014393582955173328 0.025036103073846377 0.12098419914871555
-0.004192643901787505 0.029066660860960353 0.12086649285295946
-0.023065937561572384 0.029612150033888257 0.11858432116365096
-0.04134380378880905 0.026647064125171635 0.11424439589253045
-0.05817158987310118 0.02031004725644582 0.10804964712179504
-0.07276244723988815 0.01089741129340404 0.10028973441899558
-0.08443412361527229 -0.001150719367715388 0.0913275026775914
-0.0926408643840772 -0.015270987527733974 0.08158201589300546
-0.09699893146909078 -0.030803145141040156 0.07150896219595433
-0.09730454649706152 -0.047020925780389 0.06157934638191709
-0.09354341924894818 -0.06316600404785315 0.052257466250382766
-0.08589141585467985 -0.07848345402761168 0.04397920255577627
-0.07470633548838158 -0.092257048782734 0.037131637707828125
-0.0605111800766575 -0.10384275033072161 0.032034956228306696
-0.04396969930977777 -0.1126988241437731 0.02892747327863978
-0.025855354443866243 -0.11841117005320922 0.027954491307834554
-0.007015152112204635 -0.12071268511312123 0.029161505871454108
0.011669960763559497 -0.11949575303725793 0.0324920783100039
0.029326289072366726 -0.11481727621696383 0.03779047475792273
0.04512824252609689 -0.10689601502860235 0.04480894808605065
0.05833693934386327 -0.09610235884149179 0.05321932228203721
0.010331943007110291 0.04546609045190217 -0.07457656896271889
0.01796181882388513 0.039839838408614436 -0.07694959637168351
0.025591694640659975 0.034213586365326704 -0.07932262378064814
0.03322157045743481 0.028587334322038967 -0.08169565118961278
0.040851446274209655 0.02296108227875123 -0.0840686785985774
0.0484813220909845 0.017334830235463495 -0.08644170600754203
0.056111197907759335 0.011708578192175766 -0.08881473341650666
0.06374107372453418 0.006082326148888034 -0.0911877608254713
0.07137094954130903 0.0004560741056002938 -0.09356078823443592
0.07900082535808386 -0.005170177937687439 -0.09593381564340055
0.010331943007110291 0.04546609045190217 -0.07457656896271889
0.01949574407517 0.04215482584791633 -0.07532573705141499
0.02865954514322971 0.038843561243930486 -0.07607490514011109
0.03782334621128941 0.03553229663994465 -0.07682407322880719
0.04698714727934913 0.0322210320359588 -0.07757324131750329
0.05615094834740884 0.028909767431972967 -0.07832240940619938
0.06531474941546854 0.025598502827987125 -0.07907157749489548
0.07447855048352826 0.022287238224001277 -0.07982074558359158
0.08364235155158797 0.01897597362001544 -0.08056991367228769
0.09280615261964768 0.015664709016029597 -0.08131908176098378
0.010331943007110291 0.04546609045190217 -0.07457656896271889
0.02003662928970658 0.04482864018662424 -0.07362069374419562
0.029741315572302866 0.044191189921346304 -0.07266481852567235
0.039446001854899146 0.04355373965606838 -0.07170894330714908
0.04915068813749544 0.042916289390790445 -0.07075306808862582
0.05885537442009172 0.04227883912551251 -0.06979719287010255
0.06856006070268801 0.04164138886023459 -0.06884131765157929
0.07826474698528431 0.04100393859495666 -0.06788544243305601
0.08796943326788059 0.04036648832967872 -0.06692956721453275
0.09767411955047689 0.03972903806440079 -0.06597369199600948
0.010331943007110291 0.04546609045190217 -0.07457656896271889
0.019525861161800995 0.04757153215263499 -0.07201923434883545
0.0287197793164917 0.049676973853367806 -0.06946189973495202
0.0379136974711824 0.051782415554100625 -0.06690456512106858
0.0471076156258731 0.05388785725483344 -0.06434723050718515
0.056301533780563816 0.05599329895556626 -0.061789895893301715
0.06549545193525452 0.05809874065629908 -0.059232561279418276
0.07468937008994522 0.060204182357031906 -0.056675226665534845
0.08388328824463592 0.06230962405776472 -0.05411789205165141
0.09307720639932664 0.06441506575849754 -0.051560557437767975
0.010331943007110291 0.04546609045190217 -0.07457656896271889
0.018018789343495906 0.050086266841077316 -0.07069490184002458
0.025705635679881517 0.05470644323025246 -0.06681323471733026
0.03339248201626713 0.05932661961942761 -0.06293156759463596
0.041079328352652746 0.06394679600860276 -0.05904990047194165
0.04876617468903836 0.06856697239777791 -0.055168233349247336
0.05645302102542397 0.07318714878695305 -0.05128656622655303
0.06413986736180959 0.0778073251761282 -0.04740489910385873
0.0718267136981952 0.08242750156530336 -0.043523231981164416
0.07951356003458082 0.0870476779544785 -0.039641564858470105
0.010331943007110291 0.04546609045190217 -0.07457656896271889
0.01567872845093333 0.05210033372832942 -0.06979120819422878
0.021025513894756362 0.05873457700475668 -0.06500584742573867
0.0263722993385794 0.06536882028118393 -0.06022048665724857
0.031719084782402436 0.07200306355761119 -0.055435125888758464
0.03706587022622547 0.07863730683403845 -0.05064976512026836
0.0424126556700485 0.0852715501104657 -0.04586440435177826
0.04775944111387155 0.09190579338689296 -0.04107904358328814
0.05310622655769458 0.09854003666332022 -0.03629368281479804
0.05845301200151761 0.10517427993974746 -0.031508322046307935
0.010331943007110291 0.04546609045190217 -0.07457656896271889
0.012759260391608296 0.05339547741568983 -0.06940608264022172
0.0151865777761063 0.0613248643794775 -0.06423559631772453
0.0176138951606043 0.06925425134326517 -0.05906510999522736
0.02004121254510231 0.07718363830705283 -0.05389462367273019
0.022468529929600314 0.0851130252708405 -0.04872413735023301
0.024895847314098312 0.09304241223462817 -0.04355365102773584
0.02732316469859632 0.10097179919841583 -0.03838316470523867
0.029750482083094328 0.10890118616220348 -0.033212678382741494
0.03217779946759233 0.11683057312599116 -0.028042192060244317
0.010331943007110291 0.04546609045190217 -0.07457656896271889
0.009576754829963056 0.053831348988408155 -0.06958125950761872
0.008821566652815823 0.06219660752491415 -0.06458595005251855
0.008066378475668589 0.07056186606142013 -0.05959064059741839
0.007311190298521356 0.07892712459792613 -0.054595331142318224
0.006556002121374121 0.0872923831344321 -0.049600021687218054
0.005800813944226886 0.09565764167093808 -0.04460471223211789
0.005045625767079651 0.10402290020744408 -0.03960940277701773
0.00429043758993242 0.11238815874395007 -0.03461409332191756
0.0035352494127851818 0.12075341728045605 -0.0296187838668174
0.010331943007110291 0.04546609045190217 -0.07457656896271889
0.00647608562526363 0.05336071499833606 -0.07029775566468818
0.0026202282434169694 0.06125533954476996 -0.06601894236665748
-0.0012356291384296918 0.06914996409120386 -0.061740129068626776
-0.0050914865202763525 0.07704458863763775 -0.05746131577059607
-0.008947343902123015 0.08493921318407165 -0.05318250247256537
-0.012803201283969674 0.09283383773050553 -0.04890368917453467
-0.016659058665816344 0.10072846227693943 -0.04462487587650396
-0.020514916047662996 0.10862308682337332 -0.04034606257847326
-0.024370773429509666 0.11651771136980722 -0.036067249280442554
0.010331943007110291 0.04546609045190217 -0.07457656896271889
0.0037932583976790476 0.05203457594093664 -0.07147792763522826
-0.002745426211752196 0.05860306142997112 -0.06837928630773764
-0.009284110821183439 0.06517154691900559 -0.06528064498024701
-0.015822795430614683 0.07174003240804007 -0.06218200365275638
-0.02236148004004593 0.07830851789707455 -0.05908336232526576
-0.02890016464947717 0.08487700338610901 -0.055984720997775135
-0.035438849258908424 0.09144548887514349 -0.05288607967028451
-0.04197753386833966 0.09801397436417796 -0.04978743834279389
-0.04851621847777092 0.10458245985321245 -0.046688797015303256
0.010331943007110291 0.04546609045190217 -0.07457656896271889
0.00181899910567165 0.04999663956024673 -0.07299388547397603
-0.006693944795766991 0.054527188668591305 -0.07141120198523318
-0.015206888697205632 0.05905773777693587 -0.06982851849649034
-0.023719832598644273 0.06358828688528044 -0.06824583500774749
-0.03223277650008292 0.068118835993625 -0.06666315151900463
-0.04074572040152156 0.07264938510196957 -0.06508046803026178
-0.0492586643029602 0.07717993421031413 -0.06349778454151894
-0.05777160820439884 0.08171048331865871 -0.06191510105277609
-0.06628455210583749 0.08624103242700328 -0.060332417564033236
0.010331943007110291 0.04546609045190217 -0.07457656896271889
0.000767249377319666 0.04746774788495515 -0.07468135162659371
-0.008797444252470959 0.049469405318008135 -0.07478613429046854
-0.018362137882261587 0.051471062751061114 -0.07489091695434337
-0.02792683151205221 0.05347272018411409 -0.0749956996182182
-0.03749152514184285 0.05547437761716708 -0.07510048228209303
-0.04705621877163347 0.05747603505022006 -0.07520526494596785
-0.05662091240142409 0.059477692483273045 -0.07531004760984267
-0.0661856060312147 0.06147934991632602 -0.07541483027371751
-0.07575029966100535 0.063481007349379 -0.07551961293759232
0.010331943007110291 0.04546609045190217 -0.07457656896271889
0.0007519826152685286 0.04472194556787709 -0.07635746295171
-0.008827977776573234 0.04397780068385202 -0.0781383569407011
-0.018407938168414996 0.043233655799826944 -0.07991925092969222
-0.02798789856025676 0.04248951091580187 -0.08170014491868334
-0.03756785895209853 0.0417453660317768 -0.08348103890767446
-0.047147819343940287 0.04100122114775172 -0.08526193289666557
-0.056727779735782045 0.04025707626372665 -0.08704282688565669
-0.0663077401276238 0.03951293137970157 -0.0888237208746478
-0.07588770051946557 0.0387687864956765 -0.09060461486363891
0.010331943007110291 0.04546609045190217 -0.07457656896271889
0.001774853210074702 0.042056782895580715 -0.0778405867797017
-0.006782236586960887 0.03864747533925926 -0.0811046045966845
-0.015339326383996474 0.035238167782937806 -0.08436862241366731
-0.023896416181032065 0.03182886022661635 -0.08763264023065011
-0.032453505978067655 0.02841955267029489 -0.09089665804763292
-0.04101059577510324 0.025010245113973442 -0.09416067586461573
-0.049567685572138837 0.021600937557651984 -0.09742469368159853
-0.058124775369174424 0.018191630001330526 -0.10068871149858134
-0.06668186516621001 0.014782322445009068 -0.10395272931556415
0.010331943007110291 0.04546609045190217 -0.07457656896271889
0.003725017261318366 0.03976107159786906 -0.07897000363076859
-0.0028819084844735592 0.03405605274383596 -0.08336343829881827
-0.009488834230265485 0.028351033889802854 -0.08775687296686797
-0.01609575997605741 0.022646015035769747 -0.09215030763491767
-0.02270268572184934 0.01694099618173664 -0.09654374230296738
-0.029309611467641262 0.011235977327703539 -0.10093717697101706
-0.0359165372134332 0.005530958473670426 -0.10533061163906678
-0.042523462959225114 -0.00017406038036267495 -0.10972404630711646
-0.04913038870501704 -0.005879079234395775 -0.11411748097516616
0.010331943007110291 0.04546609045190217 -0.07457656896271889
0.006391144234134224 0.03808358761548021 -0.0796233236643895
0.0024503454611581564 0.03070108477905825 -0.08467007836606011
-0.0014904533118179112 0.023318581942636286 -0.08971683306773072
-0.005431252084793978 0.015936079106214328 -0.09476358776940133
-0.009372050857770046 0.00855357626979237 -0.09981034247107194
-0.013312849630746113 0.0011710734333704044 -0.10485709717274254
-0.01725364840372218 -0.006211429403051554 -0.10990385187441315
-0.021194447176698248 -0.013593932239473513 -0.11495060657608376
-0.025135245949674315 -0.020976435075895472 -0.11999736127775437
0.010331943007110291 0.04546609045190217 -0.07457656896271889
0.009484317901795278 0.037206112366751816 -0.0797297495176168
0.008636692796480267 0.028946134281601463 -0.08488293007251471
0.007789067691165254 0.02068615619645111 -0.09003611062741262
0.006941442585850242 0.012426178111300756 -0.09518929118231054
0.0060938174805352276 0.004166200026150397 -0.10034247173720845
0.005246192375220216 -0.004093778058999949 -0.10549565229210636
0.004398567269905205 -0.012353756144150296 -0.11064883284700427
0.0035509421645901935 -0.020613734229300656 -0.11580201340190219
0.002703317059275182 -0.028873712314451017 -0.1209551939568001
0.010331943007110291 0.04546609045190217 -0.07457656896271889
0.012669344901875847 0.037223733910314936 -0.07927774829788606
0.015006746796641404 0.028981377368727697 -0.08397892763305323
0.017344148691406956 0.020739020827140464 -0.0886801069682204
0.019681550586172516 0.012496664285553225 -0.09338128630338757
0.022018952480938072 0.004254307743966 -0.09808246563855473
0.024356354375703625 -0.00398804879762124 -0.1027836449737219
0.026693756270469184 -0.012230405339208474 -0.10748482430888907
0.02903115816523474 -0.02047276188079572 -0.11218600364405625
0.031368560060000286 -0.028715118422382946 -0.11688718297922342
0.010331943007110291 0.04546609045190217 -0.07457656896271889
0.015601078138131295 0.03813454267849808 -0.07831630135087665
0.0208702132691523 0.03080299490509399 -0.0820560337390344
0.0261393484001733 0.0234714471316899 -0.08579576612719217
0.03140848353119431 0.01613989935828581 -0.08953549851534993
0.03667761866221531 0.008808351584881718 -0.09327523090350769
0.041946753793236306 0.0014768038114776345 -0.09701496329166545
0.04721588892425732 -0.005854743961926464 -0.1007546956798232
0.05248502405527833 -0.01318629173533055 -0.10449442806798097
0.05775415918629933 -0.020517839508734648 -0.10823416045613873
0.010331943007110291 0.04546609045190217 -0.07457656896271889
0.01796181882388513 0.039839838408614436 -0.07694959637168351
0.02559169464065997 0.0342135863653267 -0.07932262378064815
0.03322157045743481 0.028587334322038964 -0.08169565118961278
0.04085144627420965 0.022961082278751224 -0.0840686785985774
0.04848132209098449 0.017334830235463488 -0.08644170600754204
0.05611119790775933 0.011708578192175759 -0.08881473341650667
0.06374107372453416 0.00608232614888802 -0.0911877608254713
0.07137094954130901 0.00045607410560027993 -0.09356078823443593
0.07900082535808385 -0.005170177937687453 -0.09593381564340056
-0.010331943007110291 -0.04546609045190217 0.07457656896271889
-0.0027020671903354495 -0.0510923424951899 0.07220354155375426
0.004927808626439392 -0.05671859453847764 0.06983051414478962
0.012557684443214232 -0.062344846581765374 0.067457486735825
0.020187560259989076 -0.06797109862505311 0.06508445932686037
0.02781743607676392 -0.07359735066834085 0.06271143191789574
0.03544731189353876 -0.07922360271162858 0.06033840450893111
0.043077187710313596 -0.08484985475491631 0.05796537709996648
0.050707063527088446 -0.09047610679820405 0.05559234969100185
0.05833693934386328 -0.09610235884149178 0.05321932228203722
-0.010331943007110291 -0.04546609045190217 0.07457656896271889
-0.0011681419390505811 -0.04877735505588801 0.07382740087402279
0.007995659129009128 -0.05208861965987385 0.07307823278532669
0.01715946019706883 -0.055399884263859694 0.07232906469663059
0.026323261265128548 -0.058711148867845536 0.07157989660793448
0.03548706233318826 -0.06202241347183137 0.07083072851923838
0.04465086340124796 -0.06533367807581722 0.0700815604305423
0.05381466446930768 -0.06864494267980306 0.06933239234184618
0.06297846553736738 -0.0719562072837889 0.06858322425315008
0.0721422666054271 -0.07526747188777475 0.067834056164454
-0.010331943007110291 -0.04546609045190217 0.07457656896271889
-0.0006272567245140038 -0.0461035407171801 0.07553244418124215
0.009077429558082283 -0.046740990982458035 0.07648831939976541
0.018782115840678567 -0.04737844124773596 0.07744419461828869
0.028486802123274858 -0.04801589151301389 0.07840006983681196
0.038191488405871145 -0.04865334177829183 0.07935594505533522
0.04789617468846743 -0.04929079204356975 0.08031182027385848
0.057600860971063726 -0.04992824230884769 0.08126769549238176
0.06730554725366 -0.050565692574125624 0.08222357071090503
0.0770102335362563 -0.05120314283940355 0.08317944592942829
-0.010331943007110291 -0.04546609045190217 0.07457656896271889
-0.0011380248524195875 -0.04336064875116935 0.07713390357660233
0.008055893302271116 -0.04125520705043653 0.07969123819048575
0.017249811456961823 -0.03914976534970371 0.08224857280436919
0.026443729611652523 -0.037044323648970895 0.08480590741825263
0.03563764776634324 -0.034938881948238076 0.08736324203213607
0.04483156592103394 -0.03283344024750526 0.08992057664601949
0.05402548407572464 -0.030727998546772432 0.09247791125990293
0.06321940223041533 -0.02862255684603962 0.09503524587378635
0.07241332038510605 -0.0265171151453068 0.09759258048766979
-0.010331943007110291 -0.04546609045190217 0.07457656896271889
-0.0026450966707246776 -0.04084591406272702 0.07845823608541319
0.005041749665660936 -0.036225737673551875 0.08233990320810751
0.012728596002046549 -0.03160556128437673 0.08622157033080181
0.020415442338432163 -0.026985384895201577 0.09010323745349612
0.028102288674817778 -0.022365208506026423 0.09398490457619044
0.03578913501120339 -0.017745032116851283 0.09786657169888474
0.04347598134758901 -0.013124855727676132 0.10174823882157905
0.05116282768397462 -0.008504679338500985 0.10562990594427335
0.05884967402036024 -0.0038845029493258386 0.10951157306696767
-0.010331943007110291 -0.04546609045190217 0.07457656896271889
-0.004985157563287255 -0.038831847175474915 0.079361929731209
0.0003616278805357814 -0.03219760389904766 0.0841472904996991
0.005708413324358817 -0.025563360622620407 0.0889326512681892
0.011055198768181854 -0.01892911734619315 0.0937180120366793
0.01640198421200489 -0.012294874069765892 0.09850337280516941
0.021748769655827924 -0.0056606307933386455 0.10328873357365952
0.027095555099650972 0.0009736124830886158 0.10807409434214962
0.032442340543474 0.00760785575951587 0.11285945511063973
0.037789125987297036 0.014242099035943118 0.11764481587912984
-0.010331943007110291 -0.04546609045190217 0.07457656896271889
-0.007904625622612287 -0.037536703488114505 0.07974705528521606
-0.005477308238114282 -0.02960731652432684 0.08491754160771324
-0.0030499908536162808 -0.021677929560539173 0.09008802793021041
-0.0006226734691182725 -0.013748542596751512 0.09525851425270758
0.0018046439153797322 -0.005819155632963841 0.10042900057520476
0.00423196129987773 0.0021102313308238234 0.10559948689770193
0.006659278684375738 0.010039618294611488 0.1107699732201991
0.009086596068873746 0.017969005258399146 0.11594045954269627
0.01151391345337175 0.025898392222186817 0.12111094586519346
-0.010331943007110291 -0.04546609045190217 0.07457656896271889
-0.011087131184257524 -0.03710083191539618 0.07957187841781906
-0.011842319361404759 -0.028735573378890194 0.08456718787291921
-0.012597507538551994 -0.02037031484238421 0.08956249732801938
-0.013352695715699227 -0.012005056305878219 0.09455780678311955
-0.014107883892846462 -0.003639797769372233 0.09955311623821972
-0.014863072069993696 0.004725460767133745 0.10454842569331987
-0.015618260247140931 0.013090719303639739 0.10954373514842004
-0.016373448424288162 0.021455977840145732 0.11453904460352021
-0.0171286366014354 0.02982123637665171 0.11953435405862037
-0.010331943007110291 -0.04546609045190217 0.07457656896271889
-0.014187800388956952 -0.037571465905468275 0.07885538226074959
-0.018043657770803613 -0.02967684135903438 0.0831341955587803
-0.021899515152650272 -0.021782216812600487 0.087413008856811
-0.025755372534496935 -0.013887592266166593 0.0916918221548417
-0.029611229916343598 -0.005992967719732693 0.0959706354528724
-0.03346708729819026 0.0019016568267011945 0.1002494487509031
-0.037322944680036926 0.009796281373135096 0.10452826204893381
-0.041178802061883575 0.017690905919568983 0.10880707534696452
-0.045034659443730245 0.025585530466002884 0.11308588864499522
-0.010331943007110291 -0.04546609045190217 0.07457656896271889
-0.016870627616541536 -0.0388976049628677 0.0776752102902095
-0.023409312225972777 -0.032329119473833226 0.08077385161770013
-0.02994799683540402 -0.025760633984798748 0.08387249294519077
-0.036486681444835266 -0.019192148495764276 0.08697113427268138
-0.04302536605426651 -0.012623663006729798 0.09006977560017201
-0.04956405066369775 -0.006055177517695327 0.09316841692766263
-0.056102735273129 0.0005133079713391449 0.09626705825515326
-0.06264141988256024 0.007081793460373616 0.09936569958264388
-0.0691801044919915 0.01365027894940811 0.10246434091013451
-0.010331943007110291 -0.04546609045190217 0.07457656896271889
-0.018844886908548932 -0.040935541343557605 0.07615925245146174
-0.027357830809987573 -0.036404992235213034 0.07774193594020458
-0.03587077471142621 -0.03187444312686847 0.07932461942894743
-0.04438371861286485 -0.0273438940185239 0.08090730291769029
-0.05289666251430349 -0.02281334491017933 0.08248998640643314
-0.061409606415742134 -0.018282795801834766 0.08407266989517598
-0.06992255031718078 -0.013752246693490205 0.08565535338391883
-0.07843549421861942 -0.009221697585145634 0.08723803687266168
-0.08694843812005808 -0.004691148476801064 0.08882072036140454
-0.010331943007110291 -0.04546609045190217 0.07457656896271889
-0.019896636636900916 -0.04346443301884919 0.07447178629884406
-0.02946133026669154 -0.04146277558579621 0.07436700363496923
-0.039026023896482166 -0.039461118152743224 0.0742622209710944
-0.04859071752627279 -0.037459460719690245 0.07415743830721958
-0.05815541115606342 -0.03545780328663726 0.07405265564334475
-0.06772010478585405 -0.03345614585358428 0.07394787297946992
-0.07728479841564467 -0.0314544884205313 0.0738430903155951
-0.0868494920454353 -0.02945283098747832 0.07373830765172026
-0.09641418567522594 -0.02745117355442533 0.07363352498784545
-0.010331943007110291 -0.04546609045190217 0.07457656896271889
-0.019911903398952054 -0.04621023533592725 0.07279567497372777
-0.029491863790793816 -0.04695438021995232 0.07101478098473665
-0.03907182418263558 -0.047698525103977395 0.06923388699574555
-0.04865178457447734 -0.04844266998800247 0.06745299300675443
-0.0582317449663191 -0.04918681487202754 0.06567209901776332
-0.06781170535816086 -0.04993095975605262 0.0638912050287722
-0.07739166575000263 -0.05067510464007769 0.06211031103978109
-0.0869716261418444 -0.05141924952410277 0.06032941705078997
-0.09655158653368616 -0.05216339440812784 0.05854852306179886
-0.010331943007110291 -0.04546609045190217 0.07457656896271889
-0.01888903280414588 -0.048875398008223624 0.07131255114573608
-0.02744612260118147 -0.05228470556454508 0.06804853332875327
-0.036003212398217056 -0.05569401312086653 0.06478451551177046
-0.04456030219525264 -0.059103320677187994 0.06152049769478766
-0.05311739199228823 -0.06251262823350945 0.05825647987780485
-0.06167448178932382 -0.0659219357898309 0.05499246206082204
-0.07023157158635941 -0.06933124334615236 0.05172844424383923
-0.078788661383395 -0.07274055090247382 0.04846442642685643
-0.0873457511804306 -0.07614985845879527 0.04520040860987362
-0.010331943007110291 -0.04546609045190217 0.07457656896271889
-0.016938868752902216 -0.051171109305935276 0.07018313429466919
-0.02354579449869414 -0.056876128159968384 0.06578969962661949
-0.030152720244486068 -0.06258114701400148 0.06139626495856979
-0.03675964599027799 -0.0682861658680346 0.0570028302905201
-0.04336657173606992 -0.0739911847220677 0.0526093956224704
-0.04997349748186184 -0.0796962035761008 0.048215960954420704
-0.056580423227653776 -0.08540122243013391 0.043822526286371
-0.06318734897344569 -0.09110624128416701 0.03942909161832131
-0.06979427471923762 -0.09681126013820011 0.03503565695027161
-0.010331943007110291 -0.04546609045190217 0.07457656896271889
-0.014272741780086359 -0.05284859328832413 0.06952981426104828
-0.018213540553062426 -0.06023109612474609 0.06448305955937766
-0.022154339326038493 -0.06761359896116806 0.059436304857707054
-0.02609513809901456 -0.07499610179759002 0.05438955015603644
-0.030035936871990628 -0.08237860463401198 0.04934279545436583
-0.03397673564496669 -0.08976110747043393 0.04429604075269523
-0.03791753441794276 -0.0971436103068559 0.039249286051024616
-0.04185833319091883 -0.10452611314327785 0.034202531349354005
-0.045799131963894894 -0.11190861597969981 0.0291557766476834
-0.010331943007110291 -0.04546609045190217 0.07457656896271889
-0.011179568112425303 -0.05372606853705252 0.06942338840782097
-0.012027193217740316 -0.061986046622202876 0.06427020785292306
-0.012874818323055329 -0.07024602470735324 0.05911702729802515
-0.01372244342837034 -0.07850600279250358 0.05396384674312723
-0.014570068533685355 -0.08676598087765394 0.04881066618822932
-0.015417693639000366 -0.09502595896280429 0.043657485633331404
-0.016265318744315378 -0.10328593704795463 0.0385043050784335
-0.01711294384963039 -0.111545915133105 0.03335112452353558
-0.0179605689549454 -0.11980589321825535 0.028197943968637666
-0.010331943007110291 -0.04546609045190217 0.07457656896271889
-0.007994541112344735 -0.05370844699348941 0.06987538962755172
-0.005657139217579179 -0.06195080353507664 0.06517421029238454
-0.0033197373228136245 -0.07019316007666387 0.06047303095721737
-0.0009823354280480664 -0.07843551661825111 0.0557718516220502
0.0013550664667174898 -0.08667787315983834 0.051070672286883036
0.0036924683614830422 -0.09492022970142558 0.046369492951715864
0.006029870256248602 -0.10316258624301282 0.0416683136165487
0.008367272151014158 -0.11140494278460006 0.03696713428138152
0.010704674045779707 -0.11964729932618728 0.03226595494621435
-0.010331943007110291 -0.04546609045190217 0.07457656896271889
-0.005062807876089286 -0.05279763822530626 0.07083683657456112
0.00020632725493171923 -0.06012918599871035 0.06709710418640337
0.005475462385952718 -0.06746073377211444 0.0633573717982456
0.01074459751697373 -0.07479228154551854 0.05961763941008784
0.016013732647994734 -0.08212382931892262 0.05587790702193008
0.021282867779015727 -0.0894553770923267 0.05213817463377232
0.026552002910036742 -0.0967869248657308 0.04839844224561456
0.03182113804105775 -0.10411847263913489 0.0446587098574568
0.037090273172078754 -0.11145002041253899 0.04091897746929904
-0.010331943007110291 -0.04546609045190217 0.07457656896271889
-0.0027020671903354512 -0.05109234249518991 0.07220354155375426
0.004927808626439389 -0.05671859453847764 0.06983051414478962
0.012557684443214229 -0.062344846581765374 0.067457486735825
0.02018756025998907 -0.06797109862505311 0.06508445932686037
0.027817436076763912 -0.07359735066834085 0.06271143191789573
0.03544731189353875 -0.07922360271162858 0.060338404508931104
0.04307718771031359 -0.08484985475491633 0.05796537709996647
0.05070706352708843 -0.09047610679820406 0.05559234969100184
0.05833693934386327 -0.09610235884149179 0.05321932228203721
