# .PCD v0.7 - Point Cloud Data file format
VERSION 0.7
FIELDS x y z
SIZE 4 4 4
TYPE F F F
COUNT 1 1 1
WIDTH 700
HEIGHT 1
VIEWPOINT 0 0 0 1 0 0 0
POINTS 700
DATA ascii
0.06154886482738255 -0.04540145624013029 -0.074375720031527
0.05494254377908008 -0.03459225105415944 -0.08465220475901283
0.045316005554094325 -0.0247168879817996 -0.09336400703476914
0.03311937638069684 -0.016237128024636588 -0.10010377266685438
0.018922957083455986 -0.009549475333691083 -0.10455635770502371
0.003390556450523909 -0.00496663711599956 -0.10651356422158517
-0.012751547727526857 -0.0027029017931624317 -0.10588387541510316
-0.02874856859999087 -0.002864119112914488 -0.10269673483431992
-0.04385250325028347 -0.0054427507325642485 -0.09710116963054055
-0.057357108480974604 -0.010318222703520154 -0.08935882221366973
-0.06863092396076785 -0.017262563375118146 -0.07983171614391922
-0.07714679860777401 -0.025951063095634663 -0.06896532831249268
-0.08250653958821402 -0.03597745727471221 -0.05726775893726496
-0.0844595313707667 -0.046872922864073865 -0.04528597336130713
-0.08291445423027435 -0.05812800000220132 -0.0335802265613528
-0.0779435542565965 -0.06921641379123555 -0.022697866247764653
-0.06977926520774384 -0.07961968232628809 -0.01314773949393131
-0.058803340165685114 -0.08885136033306237 -0.005376399612658474
-0.04552900118652253 -0.09647978480823483 0.00025277418042944194
-0.030576941607553594 -0.10214825910173123 0.003476567975144974
-0.014646303116670211 -0.10559173165564437 0.004144240756636659
0.0015180153359268913 -0.10664918952049815 0.002224572887706981
0.01716018818474388 -0.10527118714181198 -0.002192674095650546
0.03154880481239653 -0.10152215837927361 -0.0089009546339115
0.04401106949717461 -0.09557740365107313 -0.017586596984825138
0.05396426059323025 -0.08771489308118086 -0.02784347016546085
0.06094297794708927 -0.0783022689252921 -0.0391919741855879
0.06462090449157248 -0.06777965502755587 -0.051101465610181376
0.0648260644691816 -0.0566390771187849 -0.06301506985667643
0.06154886482738255 -0.045401456240130304 -0.07437572003152698
0.06369303181551125 -0.03327619262659784 -0.06300029254558467
0.05708671076720879 -0.02246698744062698 -0.07327677727307051
0.04746017254222303 -0.012591624368267143 -0.08198857954882682
0.03526354336882555 -0.004111864411104131 -0.08872834518091206
0.021067124071584686 0.002575788279841374 -0.09318093021908139
0.005534723438652609 0.007158626497532897 -0.09513813673564285
-0.010607380739398157 0.009422361820370024 -0.09450844792916084
-0.026604401611862172 0.009261144500617968 -0.0913213073483776
-0.04170833626215476 0.006682512880968209 -0.08572574214459823
-0.0552129414928459 0.0018070409100123034 -0.0779833947277274
-0.06648675697263914 -0.005137299761585689 -0.0684562886579769
-0.07500263161964532 -0.013825799482102207 -0.05758990082655036
-0.08036237260008533 -0.02385219366117975 -0.04589233145132264
-0.082315364382638 -0.034747659250541414 -0.03391054587536481
-0.08077028724214566 -0.04600273638866886 -0.02220479907541048
-0.07579938726846781 -0.0570911501777031 -0.011322438761822333
-0.06763509821961514 -0.06749441871275563 -0.0017723120079889876
-0.05665917317755641 -0.07672609671952993 0.005999027873283847
-0.043384834198393826 -0.08435452119470237 0.011628201666371763
-0.028432774619424894 -0.09002299548819877 0.014851995461087295
-0.012502136128541511 -0.09346646804211192 0.01551966824257898
0.0036621823240555918 -0.0945239259069657 0.013600000373649302
0.01930435517287258 -0.09314592352827954 0.009182753390291775
0.03369297180052524 -0.08939689476574117 0.002474472852030821
0.046155236485303314 -0.08345214003754067 -0.006211169498882818
0.056108427581358956 -0.0755896294676484 -0.016468042679518527
0.06308714493521797 -0.06617700531175964 -0.02781654669964557
0.06676507147970118 -0.05565439141402342 -0.039726038124239055
0.06697023145731029 -0.04451381350525244 -0.0516396423707341
0.06369303181551125 -0.033276192626597846 -0.06300029254558466
0.06583719880363996 -0.021150929013065384 -0.05162486505964236
0.05923087775533749 -0.010341723827094529 -0.06190134978712819
0.04960433953035173 -0.00046636075473469084 -0.07061315206288452
0.03740771035695425 0.008013399202428322 -0.07735291769496976
0.023211291059713385 0.014701051893373826 -0.08180550273313907
0.007678890426781309 0.01928389011106535 -0.08376270924970054
-0.008463213751269457 0.021547625433902477 -0.08313302044321852
-0.024460234623733472 0.02138640811415042 -0.07994587986243527
-0.03956416927402606 0.01880777649450066 -0.07435031465865592
-0.0530687745047172 0.013932304523544756 -0.0666079672417851
-0.06434258998451045 0.006987963851946763 -0.057080861172034585
-0.07285846463151661 -0.0017005358685697543 -0.04621447334060804
-0.07821820561195662 -0.0117269300476473 -0.03451690396538032
-0.0801711973945093 -0.02262239563700896 -0.022535118389422494
-0.07862612025401695 -0.03387747277513641 -0.010829371589468166
-0.0736552202803391 -0.04496588656417065 5.2988724119983276e-05
-0.06549093123148644 -0.05536915509922318 0.009603115477953329
-0.05451500618942771 -0.06460083310599747 0.017374455359226163
-0.041240667210265126 -0.07222925758116992 0.02300362915231408
-0.026288607631296194 -0.07789773187466632 0.02622742294702961
-0.010357969140412811 -0.08134120442857946 0.026895095728521296
0.005806349312184291 -0.08239866229343325 0.024975427859591618
0.02144852216100128 -0.08102065991474708 0.02055818087623409
0.03583713878865394 -0.07727163115220871 0.013849900337973137
0.048299403473432014 -0.07132687642400823 0.005164257987059499
0.058252594569487656 -0.06346436585411595 -0.005092615193576212
0.06523131192334668 -0.05405174169822719 -0.016441119213703257
0.06890923846782988 -0.043529127800490966 -0.02835061063829674
0.069114398445439 -0.03238854989171999 -0.04026421488479179
0.06583719880363996 -0.0211509290130654 -0.051624865059642346
0.06798136579176865 -0.009025665399532933 -0.040249437573700045
0.06137504474346618 0.0017835397864379226 -0.050525922301185876
0.051748506518480425 0.01165890285879776 -0.059237724576942194
0.03955187734508294 0.020138662815960773 -0.06597749020902743
0.025355458047842085 0.026826315506906277 -0.07043007524719676
0.009823057414910009 0.0314091537245978 -0.07238728176375822
-0.006319046763140757 0.03367288904743493 -0.07175759295727621
-0.022316067635604772 0.03351167172768287 -0.06857045237649297
-0.03742000228589737 0.030933040108033112 -0.0629748871727136
-0.050924607516588505 0.026057568137077207 -0.055232539755842774
-0.06219842299638175 0.019113227465479214 -0.04570543368609227
-0.07071429764338792 0.010424727744962697 -0.034839045854665726
-0.07607403862382793 0.00039833356588515206 -0.023141476479438004
-0.07802703040638061 -0.010497132023476508 -0.011159690903480178
-0.07648195326588826 -0.02175220916160396 0.0005460558964741505
-0.07151105329221041 -0.03284062295063819 0.0114284162100623
-0.06334676424335774 -0.04324389148569072 0.020978542963895647
-0.052370839201299015 -0.05247556949246502 0.02874988284516848
-0.039096500222136434 -0.060103993967637465 0.0343790566382564
-0.024144440643167495 -0.06577246826113387 0.03760285043297193
-0.008213802152284112 -0.069215940815047 0.038270523214463614
0.007950516300312991 -0.07027339867990079 0.036350855345533936
0.02359268914912998 -0.06889539630121462 0.03193360836217641
0.03798130577678263 -0.06514636753867625 0.025225327823915455
0.050443570461560706 -0.05920161281047577 0.016539685473001817
0.06039676155761635 -0.051339102240583495 0.006282812292366104
0.06737547891147537 -0.041926478084694734 -0.005065691727760941
0.07105340545595858 -0.031403864186958515 -0.016975183152354422
0.07125856543356769 -0.020263286278187537 -0.028888787398849473
0.06798136579176865 -0.009025665399532945 -0.04024943757370003
0.07012553277989736 0.0030995982139995198 -0.028874010087757727
0.06351921173159489 0.013908803399970375 -0.03915049481524356
0.053892673506609125 0.023784166472330216 -0.04786229709099988
0.04169604433321164 0.032263926429493224 -0.05460206272308512
0.027499625035970785 0.03895157912043873 -0.059054647761254436
0.011967224403038709 0.04353441733813025 -0.061011854277815906
-0.004174879775012057 0.04579815266096738 -0.06038216547133389
-0.020171900647476072 0.04563693534121532 -0.057195024890550644
-0.03527583529776867 0.04305830372156556 -0.051599459686771286
-0.048780440528459805 0.03818283175060966 -0.04385711226990046
-0.06005425600825305 0.03123849107901167 -0.034330006200149955
-0.06857013065525921 0.022549991358495152 -0.02346361836872341
-0.07392987163569922 0.012523597179417605 -0.011766048993495688
-0.0758828634182519 0.001628131590055945 0.00021573658246214005
-0.07433778627775955 -0.009626945548071508 0.011921483382416468
-0.0693668863040817 -0.020715359337105742 0.022803843696004616
-0.061202597255229044 -0.031118627872158272 0.03235397044983796
-0.050226672213170315 -0.04035030587893257 0.040125310331110796
-0.036952333234007734 -0.04797873035410501 0.04575448412419871
-0.022000273655038795 -0.053647204647601414 0.048978277918914244
-0.006069635164155412 -0.05709067720151456 0.04964595070040593
0.01009468328844169 -0.058148135066368345 0.04772628283147625
0.02573685613725868 -0.056770132687682176 0.043309035848118724
0.04012547276491133 -0.05302110392514381 0.03660075530985777
0.052587737449689406 -0.04707634919694332 0.02791511295894413
0.06254092854574506 -0.039213838627051044 0.01765823977830842
0.06951964589960408 -0.029801214471162282 0.006309735758181377
0.07319757244408728 -0.01927860057342606 -0.005599755666412106
0.0734027324216964 -0.008138022664655086 -0.017513359912907155
0.07012553277989736 0.0030995982139995076 -0.028874010087757713
0.07226969976802605 0.015224861827531974 -0.017498582601815405
0.06566337871972358 0.02603406701350283 -0.02777506732930124
0.05603684049473783 0.03590943008586267 -0.03648686960505756
0.04384021132134035 0.04438919004302568 -0.0432266352371428
0.029643792024099485 0.05107684273397119 -0.047679220275312115
0.014111391391167408 0.05565968095166271 -0.049636426791873585
-0.0020307127868833576 0.05792341627449984 -0.04900673798539157
-0.018027733659347372 0.05776219895474778 -0.04581959740460832
-0.03313166830963996 0.05518356733509802 -0.040224032200828964
-0.0466362735403311 0.050308095364142116 -0.03248168478395814
-0.057910089020124345 0.043363754692544124 -0.022954578714207634
-0.06642596366713052 0.03467525497202761 -0.012088190882781092
-0.07178570464757053 0.024648860792950058 -0.0003906215075533695
-0.07373869643012321 0.0137533952035884 0.011591164068404458
-0.07219361928963086 0.002498318065460947 0.023296910868358788
-0.06722271931595301 -0.008590095723573289 0.034179271181946934
-0.05905843026710034 -0.01899336425862582 0.04372939793578028
-0.04808250522504161 -0.028225042265400114 0.05150073781705312
-0.03480816624587903 -0.035853466740572555 0.05712991161014103
-0.019856106666910095 -0.041521941034068956 0.060353705404856565
-0.003925468176026712 -0.0449654135879821 0.06102137818634825
0.01223885027657039 -0.04602287145283589 0.05910171031741857
0.02788102312538738 -0.04464486907414972 0.054684463334061045
0.04226963975304004 -0.04089584031161135 0.04797618279580009
0.05473190443781811 -0.03495108558341086 0.03929054044488645
0.06468509553387375 -0.02708857501351859 0.029033667264250742
0.07166381288773277 -0.01767595085762983 0.017685163244123697
0.07534173943221598 -0.007153336959893605 0.005775671819530212
0.07554689940982509 0.003987240948877369 -0.006137932426964837
0.07226969976802605 0.015224861827531962 -0.01749858260181539
0.07441386675615476 0.02735012544106442 -0.006123155115873096
0.06780754570785229 0.038159330627035276 -0.016399639843358932
0.058181007482866524 0.048034693699395115 -0.02511144211911525
0.04598437830946904 0.056514453656558127 -0.03185120775120049
0.03178795901222818 0.06320210634750363 -0.03630379278936981
0.016255558379296108 0.06778494456519515 -0.03826099930593128
0.000113454201245341 0.07004867988803228 -0.03763131049944926
-0.015883566671218673 0.06988746256828023 -0.034444169918666015
-0.030987501321511266 0.06730883094863047 -0.028848604714886657
-0.044492106552202405 0.06243335897767456 -0.02110625729801583
-0.05576592203199565 0.05548901830607657 -0.011579151228265324
-0.06428179667900182 0.04680051858556005 -0.0007127633968387808
-0.06964153765944182 0.036774124406482506 0.010984805978388941
-0.0715945294419945 0.025878658817120846 0.022966591554346768
-0.07004945230150215 0.014623581678993393 0.0346723383543011
-0.06507855232782431 0.0035351678899591564 0.04555469866788925
-0.056914263278971644 -0.006868100645093374 0.05510482542172259
-0.045938338236912915 -0.016099778651867666 0.06287616530299543
-0.032663999257750334 -0.02372820312704011 0.06850533909608335
-0.017711939678781395 -0.02939667742053651 0.07172913289079888
-0.0017813011878980134 -0.03284014997444966 0.07239680567229057
0.014383017264699089 -0.03389760783930344 0.07047713780336089
0.03002519011351608 -0.032519605460617274 0.06605989082000335
0.04441380674116873 -0.028770576698078906 0.0593516102817424
0.056876071425946806 -0.022825821969878417 0.05066596793082876
0.06682926252200246 -0.014963311399986141 0.04040909475019305
0.07380797987586148 -0.005550687244097384 0.029060590730066005
0.07748590642034468 0.00497192665363884 0.017151099305472522
0.0776910663979538 0.016112504562409813 0.005237495058977474
0.07441386675615476 0.027350125441064407 -0.006123155115873082
0.07655803374428345 0.039475389054596875 0.005252272370069222
0.06995171269598098 0.05028459424056773 -0.005024212357416612
0.060325174470995224 0.060159957312927566 -0.01373601463317293
0.04812854529759774 0.06863971727009058 -0.02047578026525817
0.03393212600035688 0.07532736996103609 -0.024928365303427485
0.018399725367424808 0.07991020817872761 -0.026885571819988956
0.002257621189374041 0.08217394350156473 -0.02625588301350694
-0.013739399683089975 0.08201272618181268 -0.023068742432723693
-0.028843334333382566 0.07943409456216292 -0.017473177228944335
-0.042347939564073706 0.07455862259120702 -0.00973082981207351
-0.05362175504386695 0.06761428191960903 -0.00020372374232300602
-0.06213762969087312 0.0589257821990925 0.010662664089103538
-0.06749737067131313 0.04889938802001496 0.02236023346433126
-0.06945036245386581 0.0380039224306533 0.034342019040289086
-0.06790528531337346 0.026748845292525848 0.046047765840243414
-0.06293438533969561 0.015660431503491612 0.05693012615383156
-0.054770096290842944 0.005257162968439081 0.0664802529076649
-0.043794171248784215 -0.003974515038335212 0.07425159278893774
-0.03051983226962163 -0.011602939513507658 0.07988076658202566
-0.015567772690652697 -0.017271413807004057 0.08310456037674119
0.00036286580023068665 -0.020714886360917204 0.08377223315823287
0.01652718425282779 -0.021772344225770988 0.0818525652893032
0.03216935710164478 -0.02039434184708482 0.07743531830594567
0.04655797372929743 -0.01664531308454645 0.07072703776768471
0.059020238414075506 -0.010700558356345964 0.06204139541677108
0.06897342951013115 -0.002838047786453688 0.05178452223613537
0.07595214686399017 0.006574576369435071 0.040436018216008326
0.07963007340847338 0.017097190267171294 0.028526526791414843
0.07983523338608249 0.028237768175942268 0.016612922544919792
0.07655803374428345 0.03947538905459686 0.005252272370069236
0.07870220073241216 0.05160065266812933 0.016627699856011542
0.07209587968410969 0.062409857854100186 0.0063512151285257095
0.062469341459123924 0.07228522092646003 -0.0023605871472306087
0.05027271228572644 0.08076498088362304 -0.009100352779315849
0.03607629298848558 0.08745263357456855 -0.013552937817485166
0.020543892355553508 0.09203547179226007 -0.015510144334046636
0.004401788177502742 0.09429920711509719 -0.01488045552756462
-0.011595232694961273 0.09413798979534514 -0.011693314946781374
-0.026699167345253867 0.09155935817569538 -0.006097749743002015
-0.040203772575945006 0.08668388620473948 0.0016445976738688106
-0.05147758805573825 0.07973954553314148 0.011171703743619315
-0.05999346270274442 0.07105104581262496 0.022038091575045857
-0.06535320368318442 0.061024651633547415 0.03373566095027358
-0.0673061954657371 0.05012918604418576 0.04571744652623141
-0.06576111832524476 0.0388741089060583 0.057423193326185736
-0.060790218351566915 0.027785695117024067 0.06830555363977389
-0.052625929302714244 0.017382426581971536 0.07785568039360723
-0.041650004260655515 0.008150748575197245 0.08562702027488006
-0.02837566528149293 0.0005223241000247995 0.09125619406796798
-0.013423605702523995 -0.005146150193471601 0.09447998786268351
0.002507032788359387 -0.008589622747384748 0.0951476606441752
0.01867135124095649 -0.009647080612238531 0.09322799277524552
0.03431352408977348 -0.008269078233552362 0.088810745791888
0.04870214071742613 -0.004520049471013996 0.08210246525362704
0.061164405402204206 0.0014247052571864937 0.0734168229027134
0.07111759649825986 0.00928721582707877 0.0631599497220777
0.07809631385211888 0.018699839982967526 0.05181144570195065
0.08177424039660208 0.029222453880703752 0.03990195427735716
0.0819794003742112 0.04036303178947472 0.027988350030862114
0.07870220073241216 0.05160065266812932 0.016627699856011556
0.08084636772054085 0.06372591628166178 0.028003127341953864
0.07424004667223838 0.07453512146763264 0.01772664261446803
0.06461350844725262 0.08441048453999248 0.009014840338711713
0.052416879273855146 0.0928902444971555 0.002275074706626472
0.03822045997661429 0.09957789718810099 -0.002177510331542845
0.022688059343682208 0.10416073540579251 -0.004134716848104315
0.006545955165631442 0.10642447072862965 -0.003505028041622299
-0.009451065706832573 0.10626325340887759 -0.0003178874608390527
-0.024555000357125167 0.10368462178922783 0.005277677742940305
-0.0380596055878163 0.09880914981827192 0.013020025159811132
-0.049333421067609545 0.09186480914667393 0.022547131229561635
-0.057849295714615716 0.08317630942615742 0.03341351906098818
-0.06320903669505573 0.07314991524707987 0.045111088436215904
-0.06516202847760841 0.06225444965771821 0.05709287401217373
-0.06361695133711606 0.05099937251959076 0.06879862081212806
-0.05864605136343821 0.03991095873055652 0.07968098112571621
-0.05048176231458554 0.029507690195503995 0.08923110787954955
-0.03950583727252681 0.0202760121887297 0.09700244776082238
-0.02623149829336423 0.012647587713557257 0.1026316215539103
-0.011279438714395296 0.006979113420060856 0.10585541534862583
0.004651199776488087 0.0035356408661477083 0.10652308813011752
0.02081551822908519 0.0024781830012939247 0.10460342026118784
0.03645769107790218 0.0038561853799800937 0.10018617327783032
0.05084630770555484 0.007605214142518461 0.09347789273956936
0.06330857239033291 0.01354996887071895 0.08479225038865572
0.07326176348638855 0.021412479440611226 0.07453537720802002
0.08024048084024757 0.030825103596499984 0.06318687318789297
0.08391840738473078 0.04134771749423621 0.05127738176329948
0.08412356736233989 0.05248829540300718 0.039363777516804435
0.08084636772054085 0.06372591628166177 0.028003127341953878
-0.00964875144657915 -0.05456368626089604 -0.05118942368674043
-0.0017379051939167384 -0.05354566070303318 -0.05376567883616116
0.006172941058745673 -0.052527635145170316 -0.05634193398558189
0.014083787311408084 -0.05150960958730746 -0.058918189135002616
0.021994633564070495 -0.0504915840294446 -0.06149444428442335
0.029905479816732913 -0.04947355847158174 -0.06407069943384408
0.03781632606939531 -0.048455532913718874 -0.0666469545832648
0.04572717232205773 -0.047437507355856015 -0.06922320973268553
0.053638018574720135 -0.046419481797993156 -0.07179946488210627
0.06154886482738255 -0.04540145624013029 -0.074375720031527
-0.00964875144657915 -0.05456368626089604 -0.05118942368674043
-0.0029958945981068386 -0.05175080022042828 -0.05544173164145378
0.0036569622503654724 -0.04893791417996052 -0.05969403959616713
0.01030981909883778 -0.04612502813949276 -0.06394634755088047
0.016962675947310095 -0.043312142099025 -0.06819865550559381
0.02361553279578241 -0.04049925605855724 -0.07245096346030716
0.03026838964425471 -0.037686370018089485 -0.07670327141502051
0.03692124649272703 -0.03487348397762172 -0.08095557936973385
0.043574103341199336 -0.03206059793715396 -0.0852078873244472
0.05022696018967164 -0.029247711896686204 -0.08946019527916055
-0.00964875144657915 -0.05456368626089604 -0.05118942368674043
-0.004974824271539044 -0.050260759586732026 -0.056656980898496995
-0.00030089709649893894 -0.04595783291256802 -0.062124538110253556
0.004373030078541167 -0.041654906238404 -0.06759209532201012
0.009046957253581272 -0.03735197956423999 -0.07305965253376667
0.01372088442862138 -0.03304905289007598 -0.07852720974552324
0.018394811603661482 -0.02874612621591197 -0.0839947669572798
0.02306873877870159 -0.024443199541747958 -0.08946232416903636
0.027742665953741693 -0.020140272867583943 -0.09492988138079292
0.0324165931287818 -0.015837346193419935 -0.10039743859254949
-0.00964875144657915 -0.05456368626089604 -0.05118942368674043
-0.0074602464778393135 -0.04923700782496802 -0.05727973549375509
-0.005271741509099478 -0.04391032938903999 -0.06337004730076976
-0.0030832365403596442 -0.03858365095311197 -0.06946035910778442
-0.0008947315716198066 -0.033256972517183944 -0.07555067091479907
0.0012937733971200257 -0.027930294081255923 -0.08164098272181373
0.003482278365859861 -0.022603615645327903 -0.0877312945288284
0.00567078333459969 -0.01727693720939988 -0.09382160633584305
0.007859288303339537 -0.011950258773471854 -0.09991191814285771
0.010047793272079355 -0.006623580337543823 -0.10600222994987239
-0.00964875144657915 -0.05456368626089604 -0.05118942368674043
-0.01018282715565597 -0.04879048432366866 -0.0572425103037987
-0.010716902864732787 -0.043017282386441286 -0.06329559692085697
-0.011250978573809606 -0.037244080449213915 -0.06934868353791523
-0.011785054282886426 -0.03147087851198654 -0.0754017701549735
-0.012319129991963246 -0.02569767657475916 -0.08145485677203178
-0.012853205701040062 -0.01992447463753179 -0.08750794338909003
-0.013387281410116882 -0.014151272700304418 -0.09356103000614831
-0.0139213571191937 -0.008378070763077033 -0.09961411662320657
-0.014455432828270522 -0.0026048688258496554 -0.10566720324026485
-0.00964875144657915 -0.05456368626089604 -0.05118942368674043
-0.012847532443355679 -0.04896957683272575 -0.056549339255567925
-0.016046313440132208 -0.04337546740455546 -0.06190925482439542
-0.01924509443690874 -0.03778135797638517 -0.0672691703932229
-0.022443875433685267 -0.03218724854821487 -0.07262908596205041
-0.025642656430461798 -0.026593139120044584 -0.0779890015308779
-0.028841437427238326 -0.020999029691874303 -0.08334891709970538
-0.03204021842401486 -0.015404920263703999 -0.08870883266853288
-0.03523899942079139 -0.009810810835533708 -0.09406874823736038
-0.038437780417567916 -0.004216701407363417 -0.09942866380618787
-0.00964875144657915 -0.05456368626089604 -0.05118942368674043
-0.015165600175853498 -0.049754877899876336 -0.05527533818779558
-0.020682448905127847 -0.04494606953885663 -0.05936125268885073
-0.02619929763440219 -0.04013726117783693 -0.06344716718990587
-0.03171614636367654 -0.03532845281681722 -0.06753308169096102
-0.03723299509295089 -0.03051964445579752 -0.07161899619201617
-0.042749843822225235 -0.025710836094777822 -0.07570491069307131
-0.04826669255149959 -0.020902027733758113 -0.07979082519412646
-0.053783541280773936 -0.01609321937273841 -0.08387673969518161
-0.05930039001004828 -0.011284411011718704 -0.08796265419623676
-0.00964875144657915 -0.05456368626089604 -0.05118942368674043
-0.016885831745806452 -0.05106128796929312 -0.05355856488433815
-0.02412291204503375 -0.047558889677690196 -0.05592770608193587
-0.03135999234426105 -0.044056491386087276 -0.05829684727953358
-0.038597072643488356 -0.04055409309448435 -0.060665988477131304
-0.045834152942715665 -0.03705169480288143 -0.06303512967472902
-0.053071233241942954 -0.03354929651127851 -0.06540427087232673
-0.06030831354117026 -0.03004689821967559 -0.06777341206992446
-0.06754539384039755 -0.026544499928072663 -0.07014255326752217
-0.07478247413962485 -0.023042101636469754 -0.07251169446511989
-0.00964875144657915 -0.05456368626089604 -0.05118942368674043
-0.017821813370467142 -0.05274723723891397 -0.0515850583711077
-0.025994875294355135 -0.05093078821693189 -0.05198069305547498
-0.03416793721824313 -0.04911433919494981 -0.05237632773984225
-0.042340999142131124 -0.04729789017296774 -0.05277196242420952
-0.05051406106601912 -0.04548144115098566 -0.0531675971085768
-0.05868712298990711 -0.04366499212900359 -0.053563231792944074
-0.0668601849137951 -0.04184854310702151 -0.053958866477311344
-0.07503324683768309 -0.04003209408503944 -0.054354501161678614
-0.08320630876157108 -0.038215645063057364 -0.05475013584604589
-0.00964875144657915 -0.05456368626089604 -0.05118942368674043
-0.017872116917552295 -0.05463002694517716 -0.04956867870092142
-0.02609548238852544 -0.05469636762945827 -0.04794793371510242
-0.03431884785949858 -0.05476270831373939 -0.04632718872928342
-0.042542213330471736 -0.054829048998020505 -0.044706443743464414
-0.05076557880144489 -0.05489538968230162 -0.0430856987576454
-0.05898894427241802 -0.05496173036658274 -0.0414649537718264
-0.06721230974339117 -0.05502807105086385 -0.0398442087860074
-0.07543567521436431 -0.055094411735144976 -0.038223463800188394
-0.08365904068533747 -0.055160752419426085 -0.036602718814369384
-0.00964875144657915 -0.05456368626089604 -0.05118942368674043
-0.01703129121719528 -0.05650562760891671 -0.047727931898398225
-0.02441383098781141 -0.05844756895693738 -0.044266440110056024
-0.03179637075842755 -0.06038951030495806 -0.040804948321713816
-0.039178910529043674 -0.06233145165297873 -0.037343456533371615
-0.046561450299659815 -0.06427339300099941 -0.03388196474502941
-0.05394399007027594 -0.06621533434902008 -0.0304204729566872
-0.06132652984089206 -0.06815727569704075 -0.026958981168344994
-0.06870906961150819 -0.07009921704506142 -0.023497489380002793
-0.07609160938212432 -0.07204115839308209 -0.020035997591660585
-0.00964875144657915 -0.05456368626089604 -0.05118942368674043
-0.01539045278078477 -0.05817078879527357 -0.04626229144172099
-0.021132154114990392 -0.061777891329651106 -0.041335159196701554
-0.02687385544919602 -0.06538499386402864 -0.03640802695168212
-0.03261555678340164 -0.06899209639840617 -0.03148089470666268
-0.03835725811760727 -0.0725991989327837 -0.026553762461643236
-0.04409895945181289 -0.07620630146716123 -0.0216266302166238
-0.04984066078601851 -0.07981340400153876 -0.016699497971604364
-0.055582362120224126 -0.0834205065359163 -0.01177236572658493
-0.06132406345442976 -0.08702760907029383 -0.0068452334815654855
-0.00964875144657915 -0.05456368626089604 -0.05118942368674043
-0.013127411913137455 -0.05944506445206802 -0.045330582216125556
-0.01660607237969576 -0.06432644264324 -0.03947174074551068
-0.020084732846254068 -0.06920782083441197 -0.03361289927489581
-0.02356339331281237 -0.07408919902558396 -0.027754057804280932
-0.02704205377937068 -0.07897057721675593 -0.02189521633366606
-0.030520714245928983 -0.0838519554079279 -0.01603637486305118
-0.0339993747124873 -0.08873333359909989 -0.010177533392436313
-0.0374780351790456 -0.09361471179027187 -0.0043186919218214355
-0.04095669564560391 -0.09849608998144384 0.0015401495487934412
-0.00964875144657915 -0.05456368626089604 -0.05118942368674043
-0.010487404206959964 -0.06019036703946234 -0.04503376937316336
-0.011326056967340778 -0.06581704781802863 -0.0388781150595863
-0.01216470972772159 -0.07144372859659494 -0.032722460746009235
-0.013003362488102405 -0.07707040937516123 -0.02656680643243217
-0.013842015248483218 -0.08269709015372753 -0.020411152118855098
-0.014680668008864032 -0.08832377093229382 -0.014255497805278036
-0.015519320769244841 -0.09395045171086014 -0.008099843491700972
-0.01635797352962566 -0.09957713248942643 -0.001944189178123908
-0.017196626290006473 -0.10520381326799273 0.004211465135453156
-0.00964875144657915 -0.05456368626089604 -0.05118942368674043
-0.007756515461156853 -0.06032593145755118 -0.04540401718989516
-0.005864279475734555 -0.06608817665420631 -0.03961861069304989
-0.003972043490312259 -0.07185042185086143 -0.033833204196204614
-0.0020798075048899614 -0.07761266704751657 -0.028047797699359337
-0.00018757151946766453 -0.0833749122441717 -0.022262391202514064
0.0017046644659546304 -0.08913715744082683 -0.016476984705668798
0.0035969004513769286 -0.09489940263748198 -0.01069157820882352
0.005489136436799227 -0.10066164783413711 -0.004906171711978245
0.007381372422221526 -0.10642389303079225 0.0008792347848670275
-0.00964875144657915 -0.05456368626089604 -0.05118942368674043
-0.005230679845440737 -0.05983706719813592 -0.04640120357039124
-0.0008126082443023245 -0.0651104481353758 -0.04161298345404205
0.0036054633568360877 -0.07038382907261569 -0.03682476333769286
0.0080235349579745 -0.07565721000985556 -0.03203654322134367
0.012441606559112913 -0.08093059094709544 -0.027248323104994487
0.016859678160251326 -0.08620397188433532 -0.022460102988645293
0.021277749761389735 -0.0914773528215752 -0.017671882872296107
0.02569582136252815 -0.09675073375881509 -0.012883662755946912
0.030113892963666563 -0.10202411469605496 -0.008095442639597722
-0.00964875144657915 -0.05456368626089604 -0.05118942368674043
-0.0031836108411521674 -0.05877675028923477 -0.04791726789738394
0.003281529764274815 -0.0629898143175735 -0.04464511210802745
0.0097466703697018 -0.06720287834591222 -0.04137295631867096
0.01621181097512878 -0.07141594237425096 -0.038100800529314464
0.022676951580555767 -0.07562900640258968 -0.034828644739957976
0.029142092185982748 -0.0798420704309284 -0.03155648895060149
0.03560723279140972 -0.08405513445926714 -0.028284333161244988
0.042072373396836706 -0.08826819848760588 -0.025012177371888492
0.048537514002263686 -0.0924812625159446 -0.021740021582532
-0.00964875144657915 -0.05456368626089604 -0.05118942368674043
-0.0018371401384541226 -0.05725988252043916 -0.04978792107688178
0.005974471169670904 -0.05995607877998228 -0.04838641846702313
0.01378608247779593 -0.0626522750395254 -0.04698491585716448
0.021597693785920958 -0.06534847129906853 -0.045583413247305825
0.02940930509404598 -0.06804466755861165 -0.044181910637447176
0.037220916402171005 -0.07074086381815477 -0.04278040802758853
0.04503252771029603 -0.07343706007769789 -0.04137890541772987
0.05284413901842106 -0.07613325633724102 -0.03997740280787122
0.06065575032654608 -0.07882945259678414 -0.03857590019801257
-0.00964875144657915 -0.05456368626089604 -0.05118942368674043
-0.0013371787306295307 -0.0554508400511266 -0.051810448810711424
0.006974393985320088 -0.05633799384135716 -0.052431473934682414
0.0152859667012697 -0.057225147631587724 -0.053052499058653405
0.023597539417219326 -0.05811230142181828 -0.0536735241826244
0.031909112133168945 -0.058999455212048836 -0.05429454930659539
0.040220684849118546 -0.0598866090022794 -0.05491557443056638
0.048532257565068175 -0.060773762792509955 -0.05553659955453738
0.0568438302810178 -0.06166091658274052 -0.05615762467850837
0.06515540299696741 -0.06254807037297108 -0.05677864980247936
-0.00964875144657915 -0.05456368626089604 -0.05118942368674043
-0.0017379051939167384 -0.05354566070303318 -0.05376567883616116
0.006172941058745673 -0.05252763514517032 -0.056341933985581884
0.014083787311408087 -0.051509609587307464 -0.058918189135002616
0.021994633564070495 -0.050491584029444606 -0.06149444428442334
0.029905479816732913 -0.04947355847158175 -0.06407069943384407
0.03781632606939532 -0.04845553291371889 -0.06664695458326479
0.04572717232205774 -0.04743750735585602 -0.06922320973268553
0.053638018574720135 -0.04641948179799316 -0.07179946488210626
0.06154886482738255 -0.045401456240130304 -0.07437572003152698
0.00964875144657915 0.05456368626089604 0.05118942368674043
0.01755959769924156 0.0555817118187589 0.0486131685373197
0.02547044395190397 0.056599737376621766 0.046036913387898976
0.033381290204566386 0.057617762934484625 0.04346065823847824
0.0412921364572288 0.05863578849234748 0.04088440308905751
0.049202982709891215 0.05965381405021034 0.038308147939636786
0.05711382896255362 0.06067183960807321 0.035731892790216054
0.06502467521521603 0.06168986516593607 0.03315563764079533
0.07293552146787843 0.06270789072379893 0.030579382491374596
0.08084636772054085 0.06372591628166178 0.028003127341953864
0.00964875144657915 0.05456368626089604 0.05118942368674043
0.01630160829505146 0.0573765723013638 0.046937115732027086
0.022954465143523773 0.06018945834183156 0.04268480777731374
0.029607321991996078 0.06300234438229932 0.03843249982260039
0.03626017884046839 0.06581523042276707 0.034180191867887046
0.04291303568894071 0.06862811646323484 0.029927883913173695
0.04956589253741301 0.0714410025037026 0.02567557595846035
0.056218749385885336 0.07425388854417035 0.021423268003747
0.06287160623435764 0.07706677458463812 0.017170960049033655
0.06952446308282995 0.07987966062510587 0.01291865209432031
0.00964875144657915 0.05456368626089604 0.05118942368674043
0.014322678621619254 0.058866612935060056 0.04572186647498387
0.01899660579665936 0.06316953960922407 0.04025430926322731
0.023670532971699465 0.06747246628338807 0.03478675205147075
0.02834446014673957 0.07177539295755209 0.029319194839714183
0.03301838732177968 0.0760783196317161 0.023851637627957622
0.037692314496819784 0.08038124630588012 0.01838408041620106
0.04236624167185989 0.08468417298004412 0.0129165232044445
0.047040168846899995 0.08898709965420813 0.007448965992687938
0.051714096021940104 0.09329002632837215 0.0019814087809313695
0.00964875144657915 0.05456368626089604 0.05118942368674043
0.011837256415318985 0.059890364696824065 0.04509911187972577
0.01402576138405882 0.06521704313275209 0.03900880007271111
0.016214266352798656 0.0705437215686801 0.03291848826569645
0.018402771321538492 0.07587040000460814 0.026828176458681786
0.020591276290278324 0.08119707844053616 0.02073786465166712
0.02277978125901816 0.08652375687646417 0.014647552844652465
0.02496828622775799 0.0918504353123922 0.008557241037637808
0.027156791196497835 0.09717711374832022 0.0024669292306231426
0.029345296165237653 0.10250379218424825 -0.0036233825763915288
0.00964875144657915 0.05456368626089604 0.05118942368674043
0.009114675737502331 0.06033688819812342 0.04513633706968216
0.008580600028425511 0.0661100901353508 0.0390832504526239
0.008046524319348693 0.07188329207257817 0.03303016383556563
0.0075124486102718735 0.07765649400980554 0.02697707721850736
0.006978372901195053 0.08342969594703292 0.02092399060144909
0.006444297192118236 0.0892028978842603 0.014870903984390829
0.005910221483041416 0.09497609982148766 0.008817817367332557
0.005376145773964598 0.10074930175871505 0.0027647307502742914
0.004842070064887776 0.10652250369594242 -0.0032883558667839872
0.00964875144657915 0.05456368626089604 0.05118942368674043
0.00644997044980262 0.06015779568906633 0.04582950811791294
0.003251189453026091 0.06575190511723662 0.04046959254908544
5.240845624956127e-05 0.07134601454540691 0.03510967698025796
-0.003146372540526968 0.0769401239735772 0.02974976141143046
-0.0063451535373034995 0.0825342334017475 0.024389845842602963
-0.009543934534080027 0.08812834282991777 0.01902993027377548
-0.012742715530856558 0.09372245225808808 0.013670014704947974
-0.015941496527633086 0.09931656168625837 0.00831009913612049
-0.019140277524409617 0.10491067111442866 0.00295018356729299
0.00964875144657915 0.05456368626089604 0.05118942368674043
0.004131902717304801 0.059372494621915746 0.04710350918568528
-0.0013849460119695464 0.06418130298293545 0.04301759468463014
-0.006901794741243892 0.06899011134395515 0.03893168018357499
-0.012418643470518242 0.07379891970497486 0.03484576568251984
-0.01793549219979259 0.07860772806599456 0.03075985118146469
-0.023452340929066933 0.08341653642701426 0.026673936680409547
-0.028969189658341287 0.08822534478803397 0.022588022179354395
-0.03448603838761563 0.09303415314905367 0.018502107678299243
-0.04000288711688998 0.09784296151007338 0.014416193177244093
0.00964875144657915 0.05456368626089604 0.05118942368674043
0.002411671147351849 0.05806608455249896 0.04882028248914271
-0.0048254091518754524 0.061568482844101886 0.046451141291545
-0.012062489451102752 0.0650708811357048 0.044082000093947284
-0.019299569750330054 0.06857327942730773 0.04171285889634956
-0.026536650049557364 0.07207567771891064 0.03934371769875184
-0.03377373034878465 0.07557807601051357 0.03697457650115413
-0.04101081064801195 0.0790804743021165 0.034605435303556406
-0.048247890947239254 0.08258287259371942 0.03223629410595869
-0.055484971246466556 0.08608527088532232 0.029867152908360978
0.00964875144657915 0.05456368626089604 0.05118942368674043
0.0014756895226911567 0.056380135282878115 0.050793789002373156
-0.006697372401196836 0.05819658430486019 0.050398154318005886
-0.014870434325084829 0.06001303332684227 0.05000251963363861
-0.02304349624897282 0.06182948234882434 0.04960688494927134
-0.031216558172860818 0.06364593137080642 0.04921125026490406
-0.039389620096748804 0.0654623803927885 0.04881561558053679
-0.0475626820206368 0.06727882941477056 0.048419980896169515
-0.05573574394452479 0.06909527843675264 0.048024346211802245
-0.06390880586841279 0.07091172745873471 0.047628711527434975
0.00964875144657915 0.05456368626089604 0.05118942368674043
0.0014253859756060037 0.054497345576614925 0.052810168672559436
-0.006797979495367142 0.05443100489233381 0.05443091365837844
-0.015021344966340285 0.05436466420805269 0.05605165864419744
-0.023244710437313434 0.05429832352377158 0.05767240363001645
-0.03146807590828658 0.05423198283949046 0.059293148615835456
-0.039691441379259715 0.054165642155209345 0.06091389360165446
-0.04791480685023287 0.05409930147092822 0.06253463858747346
-0.05613817232120601 0.054032960786647106 0.06415538357329247
-0.06436153779217918 0.05396662010236599 0.06577612855911148
0.00964875144657915 0.05456368626089604 0.05118942368674043
0.0022662116759630192 0.05262174491287537 0.054650915475082634
-0.005116328094653112 0.0506798035648547 0.05811240726342484
-0.012498867865269245 0.04873786221683402 0.06157389905176704
-0.019881407635885372 0.04679592086881335 0.06503539084010924
-0.027263947406501513 0.04485397952079268 0.06849688262845145
-0.03464648717711764 0.04291203817277201 0.07195837441679366
-0.04202902694773376 0.040970096824751334 0.07541986620513587
-0.04941156671834989 0.039028155476730664 0.07888135799347806
-0.056794106488966024 0.03708621412870999 0.08234284978182027
0.00964875144657915 0.05456368626089604 0.05118942368674043
0.003907050112373528 0.05095658372651851 0.05611655593175987
-0.0018346512218320938 0.047349481192140976 0.061043688176779305
-0.007576352556037721 0.04374237865776344 0.06597082042179875
-0.013318053890243337 0.04013527612338591 0.07089795266681818
-0.01905975522444897 0.036528173589008374 0.07582508491183762
-0.02480145655865459 0.032921071054630845 0.08075221715685706
-0.030543157892860207 0.02931396852025332 0.08567934940187649
-0.03628485922706582 0.025706865985875783 0.09060648164689593
-0.04202656056127146 0.02209976345149825 0.09553361389191538
0.00964875144657915 0.05456368626089604 0.05118942368674043
0.006170090980020844 0.04968230806972406 0.0570482651573553
0.0026914305134625384 0.04480092987855208 0.06290710662797018
-0.0007872299530957674 0.0399195516873801 0.06876594809858505
-0.004265890419654073 0.03503817349620812 0.07462478956919993
-0.007744550886212381 0.03015679530503615 0.0804836310398148
-0.011223211352770684 0.02527541711386417 0.08634247251042967
-0.014701871819328995 0.02039403892269219 0.09220131398104454
-0.018180532285887296 0.01551266073152021 0.09806015545165943
-0.02165919275244561 0.010631282540348237 0.1039189969222743
0.00964875144657915 0.05456368626089604 0.05118942368674043
0.008810098686198335 0.048937005482329744 0.0573450780003175
0.007971445925817522 0.04331032470376344 0.06350073231389457
0.007132793165436708 0.037683643925197144 0.06965638662747163
0.0062941404050558935 0.03205696314663085 0.0758120409410487
0.005455487644675081 0.026430282368064544 0.08196769525462576
0.0046168348842942665 0.020803601589498254 0.08812334956820282
0.0037781821239134578 0.015176920810931943 0.09427900388177989
0.002939529363532638 0.009550240032365653 0.10043465819535695
0.0021008766031518256 0.00392355925379935 0.10659031250893401
0.00964875144657915 0.05456368626089604 0.05118942368674043
0.011540987432001446 0.048801441064240905 0.056974830183585706
0.013433223417423744 0.04303919586758577 0.06276023668043097
0.015325459402846039 0.03727695067093064 0.06854564317727625
0.01721769538826834 0.031514705474275505 0.07433104967412152
0.019109931373690634 0.025752460277620372 0.0801164561709668
0.02100216735911293 0.019990215080965247 0.08590186266781207
0.022894403344535227 0.014227969884310104 0.09168726916465735
0.024786639329957526 0.008465724687654969 0.09747267566150261
0.026678875315379824 0.0027034794909998323 0.10325808215834789
0.00964875144657915 0.05456368626089604 0.05118942368674043
0.014066823047717562 0.04929030532365616 0.05597764380308962
0.018484894648855974 0.04401692438641628 0.06076586391943881
0.022902966249994387 0.038743543449176396 0.065554084035788
0.0273210378511328 0.03347016251193652 0.07034230415213719
0.031739109452271215 0.02819678157469664 0.07513052426848638
0.03615718105340963 0.022923400637456758 0.07991874438483557
0.04057525265454803 0.01765001970021688 0.08470696450118476
0.04499332425568645 0.012376638762976996 0.08949518461753395
0.049411395856824865 0.007103257825737112 0.09428340473388314
0.00964875144657915 0.05456368626089604 0.05118942368674043
0.016113892052006133 0.05035062223255731 0.05446157947609692
0.022579032657433114 0.04613755820421858 0.05773373526545342
0.029044173262860098 0.04192449417587985 0.061005891054809906
0.03550931386828708 0.03771143014754112 0.0642780468441664
0.04197445447371407 0.03349836611920239 0.06755020263352289
0.04843959507914105 0.02928530209086367 0.07082235842287937
0.05490473568456802 0.025072238062524933 0.07409451421223587
0.06136987628999501 0.020859174034186204 0.07736667000159236
0.06783501689542198 0.016646110005847474 0.08063882579094886
0.00964875144657915 0.05456368626089604 0.05118942368674043
0.017460362754704178 0.05186749000135292 0.05259092629659908
0.025271974062829203 0.04917129374180979 0.05399242890645773
0.03308358537095423 0.04647509748226667 0.055393931516316386
0.04089519667907926 0.04377890122272355 0.056795434126175035
0.04870680798720428 0.04108270496318043 0.05819693673603368
0.05651841929532931 0.03838650870363731 0.05959843934589233
0.06433003060345434 0.03569031244409419 0.06099994195575099
0.07214164191157936 0.03299411618455106 0.06240144456560964
0.07995325321970438 0.030297919925007938 0.06380294717546829
0.00964875144657915 0.05456368626089604 0.05118942368674043
0.017960324162528768 0.05367653247066548 0.050568398562769436
0.026271896878478387 0.05278937868043492 0.049947373438798445
0.034583469594428 0.05190222489020436 0.049326348314827455
0.04289504231037763 0.0510150710999738 0.048705323190856464
0.05120661502632725 0.050127917309743246 0.04808429806688547
0.05951818774227685 0.04924076351951268 0.047463272942914476
0.06782976045822647 0.048353609729282127 0.04684224781894348
0.0761413331741761 0.04746645593905156 0.046221222694972496
0.0844529058901257 0.046579302148821 0.0456001975710015
0.00964875144657915 0.05456368626089604 0.05118942368674043
0.01755959769924156 0.0555817118187589 0.0486131685373197
0.02547044395190397 0.05659973737662176 0.046036913387898976
0.033381290204566386 0.05761776293448462 0.04346065823847825
0.0412921364572288 0.058635788492347476 0.04088440308905752
0.049202982709891215 0.059653814050210335 0.03830814793963679
0.057113828962553626 0.060671839608073194 0.03573189279021606
0.06502467521521604 0.06168986516593605 0.033155637640795335
0.07293552146787843 0.06270789072379891 0.030579382491374606
0.08084636772054085 0.06372591628166177 0.028003127341953878
