# .PCD v0.7 - Point Cloud Data file format
VERSION 0.7
FIELDS x y z
SIZE 4 4 4
TYPE F F F
COUNT 1 1 1
WIDTH 700
HEIGHT 1
VIEWPOINT 0 0 0 1 0 0 0
POINTS 700
DATA ascii
0.12714528562167726 0.02002431673186711 -0.05443780282841951
0.12257741148881993 0.04086478692561704 -0.05324677150218915
0.11394695258745902 0.06040404670430472 -0.05383135174744778
0.10165745958375604 0.07772846199700623 -0.056164209241641394
0.08628357551177372 0.09202796239933943 -0.060136262161126365
0.06854416610387302 0.1026339191652445 -0.06556178172600735
0.04926870642802994 0.109050409544022 -0.07218707667146237
0.02935849555555216 0.11097740557697712 -0.07970235556932843
0.009744512818226693 0.10832480307131119 -0.08775621233097389
-0.00865611375052521 0.10121663477203317 -0.09597205756544307
-0.024982991303176244 0.08998527072865571 -0.10396572748082833
-0.03847269319138557 0.07515587704108254 -0.11136344695621228
-0.04849445594758733 0.05742185967645722 -0.11781930685090061
-0.05457967308369079 0.03761244157680506 -0.1230314383313906
-0.05644380660964488 0.016653889115878902 -0.12675612792252264
-0.05399969171361157 -0.004473799087006437 -0.12881921327871054
-0.04736161249169079 -0.024782715813222868 -0.12912422682165364
-0.03683995815060435 -0.04332323868839229 -0.1276569064570821
-0.022926709553362637 -0.059228433469182884 -0.12448586245443388
-0.006272434740907474 -0.07175459092499925 -0.11975936930691052
0.01234413090642777 -0.0803160018550315 -0.11369843258097033
0.03205249746980029 -0.08451234419951618 -0.10658645494167097
0.05193112363298297 -0.08414740165432467 -0.09875598455903066
0.07105050693009153 -0.07923823852726564 -0.0905731655251989
0.08851664624782146 -0.07001440183001743 -0.0824206173636475
0.10351284432389532 -0.0569071879149852 -0.07467954416550414
0.11533789560335292 -0.04052947553721389 -0.06771190990992908
0.12343887383096738 -0.02164706832496821 -0.06184351343074375
0.1274369862684061 -0.0011428866532043579 -0.05734875442506058
0.12714528562167726 0.020024316731867085 -0.05443780282841951
0.11921334745787093 0.017127272283229016 -0.03416657000001767
0.11464547332501358 0.03796774247697895 -0.03297553867378731
0.10601501442365267 0.05750700225566663 -0.033560118919045936
0.09372552141994969 0.07483141754836814 -0.035892976413239554
0.07835163734796738 0.08913091795070134 -0.03986502933272453
0.060612227940066696 0.09973687471660642 -0.04529054889760551
0.04133676826422361 0.10615336509538391 -0.051915843843060534
0.02142655739174583 0.10808036112833903 -0.059431122740926594
0.0018125746544203605 0.1054277586226731 -0.06748497950257205
-0.016588051914331544 0.09831959032339509 -0.07570082473704123
-0.03291492946698257 0.08708822628001762 -0.0836944946524265
-0.0464046313551919 0.07225883259244444 -0.09109221412781043
-0.056426394111393656 0.05452481522781913 -0.09754807402249877
-0.06251161124749713 0.034715397128166965 -0.10276020550298877
-0.06437574477345122 0.013756844667240808 -0.1064848950941208
-0.0619316298774179 -0.007370843535644529 -0.10854798045030871
-0.05529355065549712 -0.02767976026186096 -0.10885299399325181
-0.04477189631441068 -0.04622028313703038 -0.10738567362868029
-0.03085864771716897 -0.06212547791782098 -0.10421462962603205
-0.014204372904713805 -0.07465163537363734 -0.09948813647850867
0.004412192742621437 -0.08321304630366959 -0.0934271997525685
0.024120559305993956 -0.08740938864815427 -0.08631522211326914
0.04399918546917664 -0.08704444610296276 -0.07848475173062883
0.06311856876628519 -0.08213528297590372 -0.07030193269679706
0.08058470808401512 -0.07291144627865552 -0.06214938453524567
0.09558090616008898 -0.05980423236362329 -0.054408311337102305
0.10740595743954658 -0.04342651998585198 -0.04744067708152724
0.11550693566716104 -0.024544112773606304 -0.04157228060234191
0.11950504810459978 -0.0040399311018424495 -0.03707752159665874
0.11921334745787093 0.01712727228322899 -0.03416657000001767
0.1112814092940646 0.014230227834590922 -0.013895337171615823
0.10671353516120725 0.035070698028340855 -0.012704305845385466
0.09808307625984634 0.054609957807028535 -0.013288886090644093
0.08579358325614336 0.07193437309973004 -0.01562174358483771
0.07041969918416105 0.08623387350206324 -0.019593796504322684
0.05268028977626036 0.09683983026796832 -0.025019316069203667
0.033404830100417275 0.10325632064674581 -0.03164461101465869
0.013494619227939497 0.10518331667970093 -0.03915988991252475
-0.006119363509385974 0.102530714174035 -0.0472137466741702
-0.024519990078137877 0.09542254587475699 -0.05542959190863939
-0.04084686763078891 0.08419118183137952 -0.06342326182402465
-0.054336569518998235 0.06936178814380635 -0.07082098129940859
-0.06435833227519999 0.051627770779181036 -0.07727684119409692
-0.07044354941130346 0.03181835267952887 -0.08248897267458692
-0.07230768293725755 0.010859800218602715 -0.08621366226571896
-0.06986356804122423 -0.010267887984282622 -0.08827674762190686
-0.06322548881930345 -0.03057680471049905 -0.08858176116484996
-0.05270383447821701 -0.049117327585668474 -0.08711444080027844
-0.0387905858809753 -0.06502252236645907 -0.0839433967976302
-0.02213631106852014 -0.07754867982227544 -0.07921690365010682
-0.003519745421184898 -0.08611009075230769 -0.07315596692416665
0.016188621142187623 -0.09030643309679237 -0.0660439892848673
0.0360672473053703 -0.08994149055160086 -0.05821351890222698
0.05518663060247886 -0.08503232742454182 -0.050030699868395215
0.07265276992020879 -0.07580849072729362 -0.04187815170684382
0.08764896799628265 -0.06270127681226138 -0.03413707850870046
0.09947401927574025 -0.046323564434490073 -0.027169444253125393
0.10757499750335471 -0.027441157222244394 -0.021301047773940065
0.11157310994079345 -0.006936975550480543 -0.016806288768256895
0.1112814092940646 0.014230227834590898 -0.013895337171615823
0.10334947113025827 0.01133318338595283 0.006375895656786015
0.09878159699740093 0.03217365357970276 0.007566926983016372
0.09015113809604001 0.05171291335839044 0.006982346737757745
0.07786164509233703 0.06903732865109195 0.004649489243564128
0.062487761020354714 0.08333682905342515 0.0006774363240791536
0.044748351612454024 0.09394278581933023 -0.004748083240801829
0.025472891936610943 0.10035927619810772 -0.011373378186256852
0.005562681064133163 0.10228627223106285 -0.01888865708412291
-0.014051301673192306 0.09963366972539692 -0.026942513845768366
-0.03245192824194421 0.0925255014261189 -0.03515835908023755
-0.048778805794595245 0.08129413738274144 -0.043152028995622815
-0.06226850768280457 0.06646474369516825 -0.05054974847100675
-0.07229027043900632 0.04873072633054294 -0.057005608365695085
-0.07837548757510979 0.02892130823089078 -0.06221773984618509
-0.08023962110106388 0.007962755769964623 -0.06594242943731712
-0.07779550620503056 -0.013164932432920714 -0.06800551479350503
-0.07115742698310978 -0.03347384915913715 -0.06831052833644813
-0.06063577264202335 -0.05201437203430657 -0.0668432079718766
-0.04672252404478164 -0.06791956681509716 -0.06367216396922837
-0.030068249232326472 -0.08044572427091352 -0.05894567082170499
-0.01145168358499123 -0.08900713520094578 -0.052884734095764815
0.00825668297838129 -0.09320347754543046 -0.045772756456465453
0.02813530914156397 -0.09283853500023895 -0.03794228607382514
0.04725469243867252 -0.08792937187317991 -0.029759467039993374
0.06472083175640246 -0.0787055351759317 -0.021606918878441985
0.07971702983247632 -0.06559832126089947 -0.013865845680298623
0.09154208111193392 -0.04922060888312817 -0.006898211424723555
0.09964305933954838 -0.030338201670882487 -0.001029814945538227
0.10364117177698712 -0.009834019999118634 0.0034649440601449435
0.10334947113025827 0.011333183385952806 0.006375895656786015
0.09541753296645193 0.008436138937314737 0.02664712848518786
0.09084965883359458 0.02927660913106467 0.02783815981141822
0.08221919993223367 0.048815868909752355 0.02725357956615959
0.06992970692853069 0.06614028420245385 0.024920722071965974
0.054555822856548385 0.08043978460478705 0.020948669152481
0.036816413448647695 0.09104574137069213 0.015523149587600017
0.01754095377280461 0.09746223174946962 0.008897854642144994
-0.002369257099673172 0.09938922778242475 0.0013825757442789373
-0.021983239836998642 0.09673662527675882 -0.006671281017366519
-0.04038386640575054 0.0896284569774808 -0.014887126251835707
-0.056710743958401574 0.07839709293410334 -0.02288079616722097
-0.0702004458466109 0.06356769924653016 -0.03027851564260491
-0.08022220860281266 0.045833681881904856 -0.036734375537293244
-0.08630742573891613 0.026024263782252685 -0.04194650701778324
-0.08817155926487022 0.00506571132132653 -0.04567119660891528
-0.0857274443688369 -0.016061976881558807 -0.04773428196510318
-0.07908936514691613 -0.036370893607775234 -0.04803929550804628
-0.06856771080582968 -0.054911416482944654 -0.046571975143474754
-0.05465446220858797 -0.07081661126373526 -0.04340093114082652
-0.038000187396132805 -0.08334276871955162 -0.03867443799330315
-0.019383621748797566 -0.09190417964958388 -0.03261350126736297
0.00032474481457495444 -0.09610052199406856 -0.02550152362806361
0.020203370977757634 -0.09573557944887705 -0.017671053245423295
0.039322754274866194 -0.09082641632181801 -0.009488234211591529
0.056788893592596125 -0.08160257962456981 -0.0013356860500401398
0.07178509166866998 -0.06849536570953757 0.006405387148103223
0.08361014294812757 -0.05211765333176625 0.013373021403678291
0.09171112117574204 -0.03323524611952058 0.01924141788286362
0.09570923361318077 -0.012731064447756728 0.02373617688854679
0.09541753296645193 0.008436138937314713 0.02664712848518786
0.0874855948026456 0.005539094488676644 0.04691836131358971
0.08291772066978825 0.026379564682426578 0.048109392639820066
0.07428726176842734 0.045918824461114255 0.04752481239456144
0.061997768764724355 0.06324323975381577 0.04519195490036782
0.04662388469274204 0.07754274015614897 0.04121990198088285
0.028884475284841355 0.08814869692205404 0.035794382416001864
0.009609015608998272 0.09456518730083154 0.02916908747054684
-0.010301195263479508 0.09649218333378666 0.021653808572680785
-0.029915178000804978 0.09383958082812073 0.013599951811035328
-0.048315804569556885 0.08673141252884271 0.00538410657656614
-0.06464268212220792 0.07550004848546525 -0.0026095633388191226
-0.07813238401041724 0.06067065479789206 -0.010007282814203062
-0.088154146766619 0.042936637433266756 -0.016463142708891394
-0.09423936390272246 0.023127219333614592 -0.021675274189381394
-0.09610349742867655 0.002168666872688437 -0.02539996378051343
-0.09365938253264323 -0.0189590213301969 -0.027463049136701334
-0.08702130331072246 -0.039267938056413335 -0.027768062679644434
-0.07649964896963601 -0.057808460931582754 -0.026300742315072907
-0.06258640037239431 -0.07371365571237334 -0.023129698312424674
-0.04593212555993915 -0.08623981316818971 -0.018403205164901296
-0.027315559912603902 -0.09480122409822196 -0.012342268438961121
-0.007607193349231382 -0.09899756644270664 -0.0052302907996617624
0.012271432813951298 -0.09863262389751513 0.0026001795829785537
0.03139081611105985 -0.0937234607704561 0.010782998616810318
0.04885695542878978 -0.0844996240732079 0.01893554677836171
0.06385315350486365 -0.07139241015817566 0.02667661997650507
0.07567820478432125 -0.055014697780404354 0.03364425423208014
0.08377918301193571 -0.03613229056815868 0.039512650711265467
0.08777729544937445 -0.01562810889639482 0.04400740971694864
0.0874855948026456 0.00553909448867662 0.04691836131358971
0.07955365663883927 0.0026420500400385527 0.06718959414199153
0.07498578250598192 0.02348252023378849 0.06838062546822189
0.06635532360462101 0.04302178001247617 0.06779604522296327
0.054065830600918026 0.06034619530517767 0.06546318772876965
0.03869194652893571 0.07464569570751087 0.06149113480928468
0.020952537121035026 0.08525165247341594 0.0560656152444037
0.0016770774451919418 0.09166814285219343 0.049440320298948674
-0.018233133427285837 0.09359513888514856 0.041925041401082615
-0.03784711616461131 0.09094253637948263 0.03387118463943716
-0.056247742733363214 0.08383436808020461 0.02565533940496797
-0.07257462028601425 0.07260300403682715 0.01766166948958271
-0.08606432217422356 0.057773610349253976 0.010263950014198771
-0.09608608493042532 0.04003959298462867 0.00380809011951044
-0.10217130206652879 0.020230174884976502 -0.0014040413609795604
-0.10403543559248288 -0.0007283775759496545 -0.005128730952111596
-0.10159132069644956 -0.02185606577883499 -0.007191816308299501
-0.09495324147452879 -0.04216498250505142 -0.007496829851242601
-0.08443158713344234 -0.06070550538022084 -0.006029509486671074
-0.07051833853620064 -0.07661070016101144 -0.00285846548402284
-0.05386406372374548 -0.08913685761682781 0.001868027663500537
-0.035247498076410234 -0.09769826854686006 0.007928964389440712
-0.015539131513037712 -0.10189461089134474 0.015040942028740071
0.004339494650144967 -0.10152966834615323 0.022871412411380385
0.023458877947253525 -0.0966205052190942 0.03105423144521215
0.04092501726498345 -0.087396668521846 0.03920677960676354
0.05592121534105731 -0.07428945460681376 0.0469478528049069
0.06774626662051492 -0.05791174222904244 0.05391548706048197
0.07584724484812938 -0.039029335016796764 0.0597838835396673
0.07984535728556812 -0.01852515334503291 0.06427864254535047
0.07955365663883927 0.0026420500400385284 0.06718959414199153
0.07162171847503293 -0.0002549944085995403 0.08746082697039338
0.06705384434217558 0.020585475785150395 0.08865185829662374
0.05842338544081467 0.040124735563838075 0.08806727805136512
0.04613389243711169 0.05744915085653958 0.0857344205571715
0.03076000836512938 0.07174865125887278 0.08176236763768653
0.01302059895722869 0.08235460802477786 0.07633684807280554
-0.006254860718614393 0.08877109840355535 0.06971155312735051
-0.026165071591092173 0.09069809443651047 0.06219627422948446
-0.04577905432841765 0.08804549193084454 0.05414241746783901
-0.06417968089716955 0.08093732363156653 0.045926572233369815
-0.08050655844982058 0.06970595958818906 0.03793290231798455
-0.09399626033802991 0.05487656590061588 0.030535182842600615
-0.10401802309423167 0.037142548535990576 0.024079322947912284
-0.11010324023033513 0.01733313043633841 0.018867191467422283
-0.11196737375628922 -0.0036254220245877473 0.015142501876290248
-0.1095232588602559 -0.024753110227473084 0.013079416520102343
-0.10288517963833513 -0.045062026953689514 0.012774402977159243
-0.09236352529724869 -0.06360254982885893 0.01424172334173077
-0.07845027670000697 -0.07950774460964953 0.017412767344379004
-0.06179600188755181 -0.0920339020654659 0.02213926049190238
-0.04317943624021657 -0.10059531299549815 0.028200197217842556
-0.023471069676844047 -0.10479165533998283 0.035312174857141915
-0.0035924435136613676 -0.10442671279479132 0.04314264523978223
0.015526939783447189 -0.09951754966773228 0.051325464273613994
0.03299307910117712 -0.09029371297048408 0.05947801243516539
0.047989277177250975 -0.07718649905545184 0.06721908563330875
0.059814328456708574 -0.06080878667768053 0.07418671988888381
0.06791530668432304 -0.04192637946543486 0.08005511636806914
0.07191341912176177 -0.021422197793671004 0.08454987537375232
0.07162171847503293 -0.0002549944085995646 0.08746082697039338
0.0636897803112266 -0.003152038857237634 0.10773205979879524
0.059121906178369245 0.0176884313365123 0.1089230911250256
0.050491447277008335 0.03722769111519998 0.10833851087976697
0.038201954273305354 0.054552106407901486 0.10600565338557336
0.022828070201323044 0.06885160681023468 0.10203360046608838
0.005088660793422352 0.07945756357613976 0.0966080809012074
-0.01418679888242073 0.08587405395491725 0.08998278595575238
-0.03409700975489851 0.08780104998787237 0.08246750705788632
-0.05371099249222398 0.08514844748220644 0.07441365029624086
-0.07211161906097588 0.07804027918292843 0.06619780506177167
-0.08843849661362692 0.06680891513955096 0.05820413514638641
-0.10192819850183624 0.05197952145197779 0.05080641567100247
-0.111949961258038 0.03424550408735248 0.04435055577631414
-0.11803517839414146 0.014436085987700313 0.039138424295824134
-0.11989931192009555 -0.0065224664732258415 0.0354137347046921
-0.11745519702406224 -0.027650154676111177 0.033350649348504194
-0.11081711780214146 -0.04795907140232761 0.033045635805561094
-0.10029546346105501 -0.06649959427749703 0.03451295617013262
-0.08638221486381331 -0.08240478905828763 0.037684000172780854
-0.06972794005135814 -0.094930946514104 0.042410493320304235
-0.051111374404022906 -0.10349235744413625 0.04847143004624441
-0.031403007840650386 -0.10768869978862093 0.05558340768554377
-0.011524381677467705 -0.10732375724342942 0.06341387806818408
0.007595001619640851 -0.10241459411637038 0.07159669710201584
0.025061140937370784 -0.09319075741912218 0.07974924526356723
0.04005733901344464 -0.08008354350408994 0.0874903184617106
0.05188239029290224 -0.06370583112631863 0.09445795271728567
0.0599833685205167 -0.04482342391407295 0.100326349196471
0.06398148095795544 -0.024319242242309098 0.10482110820215416
0.0636897803112266 -0.0031520388572376583 0.10773205979879524
0.055757842147420265 -0.006049083305875726 0.12800329262719706
0.051189968014562916 0.014791386887874208 0.12919432395342742
0.042559509113202006 0.03433064666656189 0.1286097437081688
0.030270016109499025 0.05165506195926339 0.12627688621397518
0.01489613203751671 0.0659545623615966 0.12230483329449021
-0.00284327737038398 0.07656051912750167 0.11687931372960923
-0.022118737046227063 0.08297700950627916 0.11025401878415421
-0.042028947918704845 0.08490400553923429 0.10273873988628815
-0.06164293065603031 0.08225140303356836 0.0946848831246427
-0.08004355722478222 0.07514323473429034 0.0864690378901735
-0.09637043477743325 0.06391187069091288 0.07847536797478824
-0.10986013666564258 0.049082477003339696 0.0710776484994043
-0.11988189942184434 0.03134845963871439 0.06462178860471597
-0.1259671165579478 0.011539041539062222 0.059409657124225974
-0.1278312500839019 -0.009419510921863933 0.05568496753309394
-0.12538713518786856 -0.03054719912474927 0.053621882176906034
-0.1187490559659478 -0.0508561158509657 0.053316868633962934
-0.10822740162486136 -0.06939663872613512 0.05478418899853446
-0.09431415302761964 -0.08530183350692572 0.057955233001182695
-0.07765987821516449 -0.09782799096274208 0.06268172614870607
-0.059043312567829236 -0.10638940189277434 0.06874266287464624
-0.039334946004456715 -0.11058574423725902 0.07585464051394561
-0.019456319841274036 -0.11022080169206751 0.08368511089658592
-0.0003369365441654807 -0.10531163856500847 0.09186792993041769
0.01712920277356445 -0.09608780186776027 0.10002047809196907
0.03212540084963831 -0.08298058795272803 0.10776155129011243
0.04395045212909591 -0.06660287557495673 0.1147291855456875
0.05205143035671037 -0.047720468362711044 0.12059758202487283
0.05604954279414911 -0.02721628669094719 0.125092341030556
0.055757842147420265 -0.00604908330587575 0.12800329262719706
0.0356937217371285 0.013036700018871417 -0.09122054772780828
0.045855006613189475 0.013813101875870938 -0.08713357607232064
0.056016291489250455 0.014589503732870459 -0.08304660441683301
0.06617757636531142 0.01536590558986998 -0.07895963276134536
0.0763388612413724 0.0161423074468695 -0.07487266110585772
0.08650014611743338 0.016918709303869024 -0.07078568945037007
0.09666143099349435 0.017695111160868544 -0.06669871779488243
0.10682271586955533 0.018471513017868067 -0.06261174613939478
0.11698400074561631 0.019247914874867586 -0.058524774483907145
0.12714528562167726 0.02002431673186711 -0.05443780282841951
0.0356937217371285 0.013036700018871417 -0.09122054772780828
0.044896657658371336 0.01729603295909334 -0.08701080892087311
0.05409959357961417 0.02155536589931526 -0.08280107011393793
0.063302529500857 0.02581469883953718 -0.07859133130700277
0.07250546542209983 0.030074031779759102 -0.0743815925000676
0.08170840134334267 0.034333364719981024 -0.07017185369313242
0.0909113372645855 0.03859269766020294 -0.06596211488619724
0.10011427318582834 0.04285203060042486 -0.06175237607926207
0.10931720910707117 0.04711136354064679 -0.05754263727232689
0.11852014502831401 0.051370696480868706 -0.05333289846539172
0.0356937217371285 0.013036700018871417 -0.09122054772780828
0.0429410277982227 0.0203173992278826 -0.08734423228998484
0.050188333859316904 0.027598098436893783 -0.08346791685216139
0.0574356399204111 0.034878797645904965 -0.07959160141433794
0.0646829459815053 0.04215949685491615 -0.07571528597651447
0.07193025204259951 0.04944019606392733 -0.07183897053869102
0.07917755810369369 0.056720895272938505 -0.06796265510086757
0.0864248641647879 0.06400159448194971 -0.06408633966304413
0.0936721702258821 0.07128229369096088 -0.06021002422522067
0.10091947628697631 0.07856299289997207 -0.05633370878739721
0.0356937217371285 0.013036700018871417 -0.09122054772780828
0.04020003987281449 0.022549788765687397 -0.08809771458401593
0.044706358008500466 0.03206287751250338 -0.08497488144022357
0.04921267614418645 0.04157596625931935 -0.08185204829643121
0.05371899427987243 0.05108905500613533 -0.07872921515263885
0.05822531241555841 0.0606021437529513 -0.07560638200884649
0.0627316305512444 0.07011523249976728 -0.07248354886505413
0.06723794868693037 0.07962832124658326 -0.06936071572126178
0.07174426682261636 0.08914140999339924 -0.06623788257746943
0.07625058495830234 0.09865449874021523 -0.06311504943367706
0.0356937217371285 0.013036700018871417 -0.09122054772780828
0.03697072245467442 0.023751287526993906 -0.08918960430492573
0.038247723172220346 0.034465875035116396 -0.08715866088204316
0.039524723889766265 0.04518046254323888 -0.08512771745916059
0.040801724607312184 0.05589505005136137 -0.08309677403627803
0.04207872532485811 0.06660963755948386 -0.08106583061339546
0.04335572604240403 0.07732422506760635 -0.0790348871905129
0.04463272675994995 0.08803881257572882 -0.07700394376763033
0.04590972747749587 0.09875340008385132 -0.07497300034474777
0.04718672819504179 0.10946798759197382 -0.0729420569218652
0.0356937217371285 0.013036700018871417 -0.09122054772780828
0.03360302219408055 0.02379169447784042 -0.09050157825903898
0.0315123226510326 0.03454668893680942 -0.08978260879026967
0.029421623107984646 0.04530168339577841 -0.08906363932150035
0.02733092356493669 0.05605667785474742 -0.08834466985273105
0.02524022402188874 0.06681167231371642 -0.08762570038396174
0.02314952447884079 0.07756666677268541 -0.08690673091519244
0.021058824935792836 0.08832166123165443 -0.08618776144642312
0.01896812539274488 0.09907665569062342 -0.08546879197765381
0.016877425849696932 0.10983165014959241 -0.0847498225088845
0.0356937217371285 0.013036700018871417 -0.09122054772780828
0.030461881669521802 0.02266663089812427 -0.09189146371105414
0.0252300416019151 0.03229656177737712 -0.09256237969429998
0.019998201534308396 0.04192649265662997 -0.09323329567754583
0.014766361466701695 0.05155642353588282 -0.09390421166079167
0.009534521399094992 0.06118635441513567 -0.09457512764403753
0.004302681331488292 0.07081628529438852 -0.09524604362728337
-0.0009291587361184144 0.08044621617364138 -0.09591695961052922
-0.006160998803725114 0.09007614705289423 -0.09658787559377506
-0.01139283887133182 0.09970607793214707 -0.09725879157702091
0.0356937217371285 0.013036700018871417 -0.09122054772780828
0.027887692196651187 0.020498014883867814 -0.09320864500595051
0.020081662656173872 0.027959329748864212 -0.09519674228409274
0.01227563311569656 0.03542064461386061 -0.09718483956223495
0.004469603575219244 0.04288195947885701 -0.09917293684037717
-0.0033364259652580775 0.050343274343853404 -0.1011610341185194
-0.011142455505735385 0.0578045892088498 -0.10314913139666163
-0.0189484850462127 0.0652659040738462 -0.10513722867480384
-0.026754514586690016 0.0727272189388426 -0.10712532595294606
-0.03456054412716734 0.080188533803839 -0.10911342323108829
0.0356937217371285 0.013036700018871417 -0.09122054772780828
0.02615940714751935 0.01752084962976024 -0.09431038511225248
0.016625092557910195 0.022004999240649057 -0.09740022249669666
0.007090777968301044 0.02648914885153788 -0.10049005988114085
-0.002443536621308111 0.030973298462426697 -0.10357989726558503
-0.011977851210917266 0.03545744807331552 -0.10666973465002921
-0.021512165800526416 0.03994159768420434 -0.1097595720344734
-0.03104648039013557 0.04442574729509316 -0.11284940941891759
-0.040580794979744726 0.04890989690598198 -0.11593924680336178
-0.05011510956935388 0.053394046516870804 -0.11902908418780596
0.0356937217371285 0.013036700018871417 -0.09122054772780828
0.025464313024305324 0.014057757186562698 -0.09507729339418307
0.015234904311482144 0.01507881435425398 -0.09893403906055785
0.005005495598658969 0.01609987152194526 -0.10279078472693264
-0.005223913114164216 0.017120928689636543 -0.10664753039330742
-0.015453321826987393 0.018141985857327823 -0.11050427605968222
-0.025682730539810565 0.019163043025019103 -0.11436102172605699
-0.03591213925263375 0.020184100192710382 -0.11821776739243178
-0.046141547965456935 0.021205157360401666 -0.12207451305880655
-0.05637095667828013 0.022226214528092945 -0.12593125872518135
0.0356937217371285 0.013036700018871417 -0.09122054772780828
0.025877734060755934 0.010484017355911455 -0.09542626343958706
0.016061746384383367 0.007931334692951493 -0.09963197915136582
0.006245758708010804 0.005378652029991532 -0.10383769486314458
-0.003570228968361766 0.0028259693670315694 -0.10804341057492334
-0.013386216644734326 0.00027328670407160774 -0.11224912628670211
-0.023202204321106895 -0.0022793959588883524 -0.11645484199848087
-0.033018191997479455 -0.004832078621848316 -0.12066055771025963
-0.04283417967385204 -0.007384761284808278 -0.12486627342203839
-0.052650167350224604 -0.009937443947768243 -0.12907198913381715
0.0356937217371285 0.013036700018871417 -0.09122054772780828
0.027354869672683437 0.007186900300744491 -0.09531947892921673
0.019016017608238373 0.001337100582617566 -0.09941841013062516
0.01067716554379331 -0.004512699135509359 -0.10351734133203361
0.0023383134793482445 -0.010362498853636284 -0.10761627253344204
-0.006000538585096824 -0.016212298571763213 -0.11171520373485049
-0.014339390649541884 -0.022062098289890135 -0.11581413493625892
-0.022678242713986954 -0.02791189800801705 -0.11991306613766736
-0.031017094778432015 -0.033761697726143985 -0.1240119973390758
-0.03935594684287708 -0.039611497444270914 -0.12811092854048423
0.0356937217371285 0.013036700018871417 -0.09122054772780828
0.029735649296414916 0.004523699814031466 -0.09476851162170312
0.023777576855701327 -0.003989300390808484 -0.09831647551559795
0.017819504414987742 -0.012502300595648438 -0.10186443940949279
0.011861431974274155 -0.021015300800488385 -0.10541240330338762
0.0059033595335605685 -0.029528301005328342 -0.10896036719728246
-5.471290715301658e-05 -0.03804130121016829 -0.11250833109117729
-0.006012785347866609 -0.04655430141500824 -0.11605629498507213
-0.011970857788580194 -0.055067301619848186 -0.11960425887896696
-0.017928930229293788 -0.06358030182468814 -0.1231522227728618
0.0356937217371285 0.013036700018871417 -0.09122054772780828
0.03276207851811699 0.0027830149923210156 -0.09383306737395396
0.029830435299105465 -0.007470670034229385 -0.09644558702009963
0.026898792080093947 -0.017724355060779785 -0.0990581066662453
0.023967148861082428 -0.027978040087330187 -0.10167062631239097
0.02103550564207091 -0.03823172511388059 -0.10428314595853665
0.018103862423059388 -0.048485410140430986 -0.10689566560468232
0.015172219204047871 -0.058739095166981406 -0.10950818525082799
0.012240575985036356 -0.06899278019353179 -0.11212070489697365
0.009308932766024828 -0.07924646522008219 -0.11473322454311932
0.0356937217371285 0.013036700018871417 -0.09122054772780828
0.0361061967717304 0.002153476045553368 -0.09261451608512589
0.0365186718063323 -0.00872974792776468 -0.09400848444244349
0.0369311468409342 -0.019612971901082722 -0.09540245279976109
0.0373436218755361 -0.030496195874400778 -0.09679642115707869
0.037756096910137996 -0.04137941984771882 -0.09819038951439629
0.038168571944739896 -0.05226264382103686 -0.09958435787171388
0.038581046979341796 -0.06314586779435492 -0.10097832622903148
0.038993522013943696 -0.07402909176767297 -0.10237229458634908
0.039405997048545596 -0.084912315740991 -0.10376626294366668
0.0356937217371285 0.013036700018871417 -0.09122054772780828
0.03940561695513511 0.0027033032869140244 -0.09124490669513481
0.043117512173141706 -0.007630093445043368 -0.09126926566246134
0.04682940739114831 -0.017963490177000763 -0.09129362462978785
0.05054130260915492 -0.028296886908958152 -0.09131798359711438
0.054253197827161516 -0.038630283640915544 -0.0913423425644409
0.05796509304516812 -0.04896368037287294 -0.09136670153176742
0.06167698826317472 -0.05929707710483033 -0.09139106049909394
0.06538888348118133 -0.06963047383678772 -0.09141541946642047
0.06910077869918793 -0.07996387056874513 -0.09143977843374698
0.0356937217371285 0.013036700018871417 -0.09122054772780828
0.04230279569568016 0.004372914403352876 -0.08987265763306558
0.048911869654231825 -0.004290871212165665 -0.08852476753832288
0.055520943612783494 -0.0129546568276842 -0.08717687744358017
0.062130017571335155 -0.021618442443202747 -0.08582898734883747
0.06873909152988682 -0.03028222805872128 -0.08448109725409476
0.07534816548843848 -0.03894601367423982 -0.08313320715935206
0.08195723944699014 -0.04760979928975836 -0.08178531706460936
0.0885663134055418 -0.05627358490527691 -0.08043742696986665
0.09517538736409348 -0.06493737052079544 -0.07908953687512395
0.0356937217371285 0.013036700018871417 -0.09122054772780828
0.04448377872246755 0.006981381123718047 -0.08864647337743146
0.05327383570780661 0.0009260622285646778 -0.08607239902705463
0.06206389269314566 -0.005129256666588689 -0.08349832467667781
0.07085394967848471 -0.011184575561742061 -0.08092425032630099
0.07964400666382378 -0.01723989445689543 -0.07835017597592416
0.08843406364916281 -0.023295213352048795 -0.07577610162554732
0.09722412063450188 -0.029350532247202174 -0.0732020272751705
0.10601417761984093 -0.03540585114235554 -0.07062795292479368
0.11480423460518 -0.04146117003750891 -0.06805387857441685
0.0356937217371285 0.013036700018871417 -0.09122054772780828
0.0457122226831064 0.010246035604326569 -0.08769923001853946
0.0557307236290843 0.007455371189781719 -0.08417791230927064
0.0657492245750622 0.004664706775236871 -0.08065659460000182
0.0757677255210401 0.0018740423606920208 -0.077135276890733
0.085786226467018 -0.0009166220538528255 -0.07361395918146418
0.0958047274129959 -0.0037072864683976754 -0.07009264147219536
0.1058232283589738 -0.00649795088294252 -0.06657132376292653
0.1158417293049517 -0.009288615297487375 -0.06305000605365771
0.1258602302509296 -0.01207927971203222 -0.05952868834438889
0.0356937217371285 0.013036700018871417 -0.09122054772780828
0.045855006613189475 0.013813101875870936 -0.08713357607232064
0.056016291489250455 0.014589503732870454 -0.08304660441683301
0.06617757636531142 0.015365905589869973 -0.07895963276134536
0.0763388612413724 0.01614230744686949 -0.07487266110585772
0.08650014611743338 0.01691870930386901 -0.07078568945037007
0.09666143099349435 0.01769511116086853 -0.06669871779488243
0.10682271586955533 0.01847151301786805 -0.0626117461393948
0.11698400074561631 0.019247914874867565 -0.058524774483907145
0.12714528562167726 0.020024316731867085 -0.05443780282841951
-0.0356937217371285 -0.013036700018871417 0.09122054772780828
-0.02553243686106753 -0.012260298161871895 0.09530751938329593
-0.015371151985006553 -0.011483896304872374 0.09939449103878358
-0.005209867108945579 -0.010707494447872853 0.10348146269427122
0.004951417767115398 -0.009931092590873332 0.10756843434975887
0.01511270264317637 -0.00915469073387381 0.11165540600524651
0.025273987519237345 -0.00837828887687429 0.11574237766073414
0.03543527239529832 -0.0076018870198747675 0.11982934931622179
0.0455965572713593 -0.006825485162875246 0.12391632097170943
0.055757842147420265 -0.006049083305875726 0.12800329262719706
-0.0356937217371285 -0.013036700018871417 0.09122054772780828
-0.02649078581588567 -0.008777367078649496 0.09543028653474346
-0.017287849894642836 -0.004518034138427574 0.09964002534167864
-0.008084913973400004 -0.00025870119820565346 0.10384976414861381
0.0011180219478428275 0.004000631742016269 0.10805950295554899
0.010320957869085661 0.008259964682238188 0.11226924176248416
0.019523893790328498 0.01251929762246011 0.11647898056941934
0.028726829711571332 0.01677863056268203 0.12068871937635452
0.03792976563281416 0.021037963502903954 0.12489845818328969
0.047132701554057 0.025297296443125873 0.12910819699022485
-0.0356937217371285 -0.013036700018871417 0.09122054772780828
-0.028446415676034304 -0.005756000809860233 0.09509686316563175
-0.021199109614940103 0.0015246983991509498 0.0989731786034552
-0.01395180355384591 0.008805397608162128 0.10284949404127865
-0.006704497492751705 0.016086096817173316 0.1067258094791021
0.0005428085683424957 0.023366796026184494 0.11060212491692556
0.007790114629436683 0.030647495235195672 0.11447844035474901
0.015037420690530883 0.03792819444420687 0.11835475579257246
0.022284726751625093 0.04520889365321805 0.12223107123039591
0.0295320328127193 0.052489592862229234 0.12610738666821936
-0.0356937217371285 -0.013036700018871417 0.09122054772780828
-0.03118740360144252 -0.0035236112720554384 0.09434338087160064
-0.026681085465756538 0.00598947747476054 0.097466214015393
-0.022174767330070556 0.015502566221576516 0.10058904715918536
-0.017668449194384574 0.025015654968392496 0.10371188030297772
-0.013162131058698597 0.03452874371520847 0.10683471344677008
-0.008655812923012611 0.04404183246202445 0.10995754659056244
-0.004149494787326639 0.05355492120884042 0.1130803797343548
0.00035682334835935323 0.06306800995565641 0.11620321287814715
0.004863141484045325 0.0725810987024724 0.11932604602193951
-0.0356937217371285 -0.013036700018871417 0.09122054772780828
-0.03441672101958258 -0.0023221125107489287 0.09325149115069085
-0.033139720302036664 0.00839247499737356 0.09528243457357342
-0.03186271958449074 0.01910706250549605 0.09731337799645598
-0.03058571886694482 0.029821650013618535 0.09934432141933855
-0.0293087181493989 0.04053623752174103 0.10137526484222112
-0.028031717431852978 0.051250825029863514 0.10340620826510369
-0.026754716714307056 0.06196541253798599 0.10543715168798624
-0.025477715996761137 0.07268000004610849 0.10746809511086881
-0.02420071527921521 0.08339458755423099 0.10949903853375138
-0.0356937217371285 -0.013036700018871417 0.09122054772780828
-0.03778442128017646 -0.0022817055599024163 0.0919395171965776
-0.039875120823224405 0.008473288899066584 0.09265848666534691
-0.04196582036627236 0.01922828335803558 0.09337745613411622
-0.044056519909320316 0.029983277817004585 0.09409642560288553
-0.046147219452368264 0.040738272275973576 0.09481539507165483
-0.04823791899541621 0.051493266734942575 0.09553436454042415
-0.05032861853846417 0.062248261193911594 0.09625333400919346
-0.05241931808151212 0.07300325565288059 0.09697230347796276
-0.05451001762456007 0.08375825011184958 0.09769127294673208
-0.0356937217371285 -0.013036700018871417 0.09122054772780828
-0.04092556180473521 -0.0034067691396185654 0.09054963174456244
-0.04615740187234191 0.006223161739634286 0.08987871576131659
-0.05138924193994861 0.01585309261888713 0.08920779977807075
-0.056621082007555314 0.025483023498139988 0.08853688379482491
-0.06185292207516201 0.035112954377392834 0.08786596781157906
-0.06708476214276872 0.04474288525664568 0.08719505182833322
-0.07231660221037542 0.05437281613589855 0.08652413584508736
-0.07754844227798212 0.06400274701515139 0.08585321986184152
-0.08278028234558883 0.07363267789440424 0.08518230387859567
-0.0356937217371285 -0.013036700018871417 0.09122054772780828
-0.043499751277605817 -0.005575385153875019 0.08923245044966607
-0.05130578081808313 0.0018859297111213785 0.08724435317152385
-0.059111810358560446 0.009347244576117776 0.08525625589338162
-0.06691783989903777 0.016808559441114174 0.08326815861523941
-0.07472386943951509 0.02426987430611057 0.08128006133709718
-0.0825298989799924 0.03173118917110697 0.07929196405895496
-0.0903359285204697 0.039192504036103366 0.07730386678081273
-0.09814195806094703 0.046653818901099764 0.07531576950267052
-0.10594798760142435 0.05411513376609617 0.0733276722245283
-0.0356937217371285 -0.013036700018871417 0.09122054772780828
-0.04522803632673766 -0.008552550407982596 0.0881307103433641
-0.05476235091634681 -0.004068400797093776 0.08504087295891992
-0.06429666550595596 0.0004157488137950439 0.08195103557447574
-0.07383098009556512 0.004899898424683864 0.07886119819003155
-0.08336529468517427 0.00938404803557269 0.07577136080558737
-0.09289960927478343 0.013868197646461505 0.07268152342114317
-0.10243392386439258 0.018352347257350327 0.06959168603669899
-0.11196823845400174 0.022836496868239145 0.06650184865225481
-0.12150255304361089 0.02732064647912797 0.06341201126781063
-0.0356937217371285 -0.013036700018871417 0.09122054772780828
-0.04592313044995168 -0.012015642851180135 0.0873638020614335
-0.056152539162774864 -0.010994585683488855 0.08350705639505872
-0.06638194787559804 -0.009973528515797574 0.07965031072868393
-0.07661135658842122 -0.008952471348106292 0.07579356506230915
-0.0868407653012444 -0.00793141418041501 0.07193681939593437
-0.09707017401406758 -0.006910357012723731 0.0680800737295596
-0.10729958272689076 -0.00588929984503245 0.0642233280631848
-0.11752899143971395 -0.004868242677341168 0.060366582396810024
-0.12775840015253714 -0.0038471855096498895 0.056509836730435234
-0.0356937217371285 -0.013036700018871417 0.09122054772780828
-0.04550970941350107 -0.015589382681831378 0.08701483201602953
-0.055325697089873636 -0.01814206534479134 0.08280911630425077
-0.0651416847662462 -0.020694748007751302 0.078603400592472
-0.07495767244261878 -0.023247430670711264 0.07439768488069323
-0.08477366011899133 -0.025800113333671226 0.07019196916891447
-0.0945896477953639 -0.028352795996631187 0.06598625345713571
-0.10440563547173647 -0.03090547865959115 0.061780537745356946
-0.11422162314810905 -0.03345816132255111 0.05757482203357819
-0.12403761082448161 -0.036010843985511076 0.05336910632179942
-0.0356937217371285 -0.013036700018871417 0.09122054772780828
-0.04403257380157357 -0.018886499736998342 0.08712161652639985
-0.05237142586601863 -0.024736299455125267 0.08302268532499141
-0.0607102779304637 -0.030586099173252192 0.07892375412358298
-0.06904912999490877 -0.03643589889137912 0.07482482292217454
-0.07738798205935384 -0.042285698609506046 0.0707258917207661
-0.08572683412379889 -0.04813549832763297 0.06662696051935767
-0.09406568618824396 -0.05398529804575988 0.06252802931794922
-0.10240453825268903 -0.05983509776388682 0.05842909811654079
-0.1107433903171341 -0.06568489748201375 0.05433016691513235
-0.0356937217371285 -0.013036700018871417 0.09122054772780828
-0.04165179417784209 -0.021549700223711367 0.08767258383391345
-0.04760986661855568 -0.030062700428551317 0.08412461994001863
-0.053567939059269265 -0.038575700633391274 0.0805766560461238
-0.05952601149998285 -0.04708870083823122 0.07702869215222896
-0.06548408394069644 -0.055601701043071175 0.07348072825833413
-0.07144215638141002 -0.06411470124791113 0.06993276436443929
-0.07740022882212362 -0.07262770145275108 0.06638480047054446
-0.0833583012628372 -0.08114070165759102 0.06283683657664962
-0.08931637370355079 -0.08965370186243098 0.05928887268275479
-0.0356937217371285 -0.013036700018871417 0.09122054772780828
-0.038625364956140024 -0.02329038504542182 0.08860802808166261
-0.04155700817515154 -0.03354407007197222 0.08599550843551695
-0.04448865139416306 -0.04379775509852262 0.08338298878937128
-0.047420294613174575 -0.05405144012507302 0.08077046914322561
-0.0503519378321861 -0.06430512515162343 0.07815794949707994
-0.05328358105119762 -0.07455881017817383 0.07554542985093426
-0.056215224270209134 -0.08481249520472424 0.07293291020478859
-0.05914686748922065 -0.09506618023127462 0.07032039055864292
-0.06207851070823218 -0.10531986525782502 0.06770787091249725
-0.0356937217371285 -0.013036700018871417 0.09122054772780828
-0.0352812467025266 -0.023919923992189465 0.0898265793704907
-0.0348687716679247 -0.034803147965507514 0.0884326110131731
-0.03445629663332281 -0.045686371938825555 0.0870386426558555
-0.03404382159872091 -0.05656959591214361 0.08564467429853789
-0.03363134656411901 -0.06745281988546166 0.08425070594122029
-0.03321887152951711 -0.0783360438587797 0.08285673758390269
-0.03280639649491521 -0.08921926783209776 0.08146276922658509
-0.03239392146031331 -0.1001024918054158 0.0800688008692675
-0.03198144642571141 -0.11098571577873384 0.0786748325119499
-0.0356937217371285 -0.013036700018871417 0.09122054772780828
-0.0319818265191219 -0.02337009675082881 0.09119618876048177
-0.028269931301115298 -0.0337034934827862 0.09117182979315525
-0.024558036083108692 -0.0440368902147436 0.09114747082582872
-0.02084614086510209 -0.054370286946700985 0.0911231118585022
-0.017134245647095488 -0.06470368367865838 0.09109875289117568
-0.013422350429088884 -0.07503708041061578 0.09107439392384915
-0.009710455211082285 -0.08537047714257316 0.09105003495652264
-0.005998559993075679 -0.09570387387453055 0.09102567598919611
-0.0022866647750690735 -0.10603727060648796 0.09100131702186959
-0.0356937217371285 -0.013036700018871417 0.09122054772780828
-0.02908464777857684 -0.02170048563438996 0.09256843782255099
-0.02247557382002518 -0.0303642712499085 0.0939163279172937
-0.015866499861473513 -0.039028056865427034 0.09526421801203641
-0.009257425902921853 -0.04769184248094558 0.09661210810677912
-0.0026483519443701877 -0.05635562809646411 0.09795999820152182
0.003960722014181474 -0.06501941371198265 0.09930788829626452
0.010569795972733135 -0.0736831993275012 0.10065577839100723
0.0171788699312848 -0.08234698494301974 0.10200366848574993
0.023787943889836474 -0.09101077055853828 0.10335155858049264
-0.0356937217371285 -0.013036700018871417 0.09122054772780828
-0.02690366475178945 -0.019092018914024785 0.09379462207818512
-0.018113607766450397 -0.025147337809178157 0.09636869642856194
-0.009323550781111347 -0.031202656704331522 0.09894277077893877
-0.0005334937957722925 -0.0372579755994849 0.1015168451293156
0.008256563189566765 -0.04331329449463826 0.10409091947969243
0.01704662017490581 -0.04936861338979163 0.10666499383006925
0.02583667716024487 -0.05542393228494501 0.10923906818044608
0.03462673414558392 -0.06147925118009837 0.1118131425308229
0.043416791130922984 -0.06753457007525175 0.11438721688119974
-0.0356937217371285 -0.013036700018871417 0.09122054772780828
-0.025675220791150605 -0.015827364433416265 0.09474186543707712
-0.015656719845172706 -0.018618028847961116 0.09826318314634594
-0.00563821889919481 -0.021408693262505964 0.10178450085561476
0.00438028204678309 -0.024199357677050812 0.10530581856488358
0.014398782992760989 -0.02699002209159566 0.1088271362741524
0.024417283938738883 -0.02978068650614051 0.11234845398342122
0.03443578488471679 -0.03257135092068535 0.11586977169269005
0.04445428583069468 -0.03536201533523021 0.11939108940195887
0.05447278677667259 -0.038152679749775056 0.1229124071112277
-0.0356937217371285 -0.013036700018871417 0.09122054772780828
-0.02553243686106753 -0.012260298161871899 0.09530751938329593
-0.015371151985006553 -0.01148389630487238 0.09939449103878358
-0.005209867108945579 -0.010707494447872862 0.10348146269427122
0.004951417767115398 -0.009931092590873342 0.10756843434975887
0.01511270264317637 -0.009154690733873825 0.11165540600524651
0.025273987519237345 -0.008378288876874305 0.11574237766073414
0.03543527239529832 -0.007601887019874786 0.11982934931622179
0.0455965572713593 -0.006825485162875268 0.12391632097170943
0.055757842147420265 -0.00604908330587575 0.12800329262719706
