# .PCD v0.7 - Point Cloud Data file format
VERSION 0.7
FIELDS x y z
SIZE 4 4 4
TYPE F F F
COUNT 1 1 1
WIDTH 700
HEIGHT 1
VIEWPOINT 0 0 0 1 0 0 0
POINTS 700
DATA ascii
0.018219802907121628 -0.037327730596794534 -0.0573998090049143
0.02411912048490522 -0.02866396369196363 -0.06013903870018447
0.02809465955472898 -0.018812816910159305 -0.06226416937284693
0.029960528328182287 -0.008234918926135463 -0.06367583227456107
0.029629480855182633 0.0025751195068641286 -0.06430801961699337
0.027116996547634664 0.013111833006207241 -0.06413117102263746
0.022540556379333568 0.022882536559380502 -0.06315355573521232
0.016114149606201188 0.03143036292759456 -0.06142088595901662
0.008138267866511064 0.03835562525009843 -0.05901417940706111
-0.0010141454741447826 0.04333450595756805 -0.056045971002853016
-0.01091513374013406 0.0461341981217506 -0.052655050872446416
-0.02110173772429725 0.046623791248683266 -0.04899997467240208
-0.03109764314593204 0.04478039250789435 -0.04525164970350866
-0.04043545257717371 0.040690197175712595 -0.04158534347534762
-0.04867854042724716 0.034544458239945224 -0.038172488392341074
-0.055441469069817124 0.02663054362273046 -0.035172665765054414
-0.06040801147801233 0.017318499175884933 -0.032726143965476184
-0.063345937648741 0.007043745748149065 -0.03094731963384097
-0.06411787341953026 -0.003713280609764425 -0.0299193686188748
-0.06268772393168304 -0.014449593300935601 -0.029690356767551992
-0.059122361385754024 -0.02466317427647984 -0.03027099241951201
-0.05358849817177504 -0.03387644784156063 -0.031634125696999374
-0.04634489158318449 -0.04165861156409286 -0.03371601800297261
-0.03773024461337442 -0.04764578011766472 -0.0364193223670615
-0.028147368580160693 -0.05155800015497106 -0.03961763528170828
-0.018044348116254643 -0.053212340615187745 -0.04316140718969353
-0.007893589229847774 -0.05253144637706238 -0.04688493525521947
0.0018302698752897016 -0.049547155298410125 -0.05061411144434629
0.010672552354694798 -0.04439900951326745 -0.0541745636231521
0.01821980290712162 -0.03732773059679454 -0.0573998090049143
0.02200278057422721 -0.036600999096825286 -0.04695409172335269
0.027902098152010803 -0.027937232191994385 -0.04969332141862286
0.03187763722183456 -0.01808608541019006 -0.051818452091285314
0.033743505995287866 -0.007508187426166219 -0.053230114992999455
0.03341245852228821 0.003301851006833373 -0.05386230233543175
0.030899974214740247 0.013838564506176484 -0.05368545374107584
0.02632353404643915 0.023609268059349747 -0.052707838453650714
0.01989712727330677 0.03215709442756381 -0.050975168677455
0.011921245533616644 0.03908235675006768 -0.04856846212549949
0.002768832192960799 0.044061237457537296 -0.0456002537212914
-0.00713215607302848 0.046860929621719845 -0.0422093335908848
-0.017318760057191667 0.047350522748652514 -0.038554257390840466
-0.027314665478826456 0.045507124007863595 -0.034805932421947045
-0.03665247491006813 0.04141692867568184 -0.031139626193786005
-0.04489556276014158 0.03527118973991447 -0.02772677111077946
-0.051658491402711545 0.027357275122699705 -0.024726948483492796
-0.05662503381090675 0.018045230675854177 -0.022280426683914566
-0.05956295998163542 0.007770477248118309 -0.020501602352279356
-0.06033489575242469 -0.0029865491097951806 -0.019473651337313186
-0.05890474626457746 -0.013722861800966359 -0.019244639485990377
-0.055339383718648445 -0.023936442776510594 -0.019825275137950394
-0.04980552050466946 -0.03314971634159138 -0.02118840841543776
-0.042561913916078914 -0.04093188006412361 -0.023270300721410994
-0.03394726694626884 -0.04691904861769547 -0.025973605085499892
-0.02436439091305511 -0.050831268655001816 -0.029171918000146662
-0.01426137044914906 -0.0524856091152185 -0.032715689908131916
-0.004110611562742193 -0.05180471487709313 -0.03643921797365786
0.005613247542395283 -0.04882042379844088 -0.04016839416278468
0.014455530021800379 -0.043672278013298205 -0.04372884634159049
0.022002780574227204 -0.03660099909682529 -0.04695409172335269
0.02578575824133279 -0.035874267596856045 -0.036508374441791086
0.03168507581911638 -0.02721050069202514 -0.03924760413706126
0.03566061488894014 -0.017359353910220816 -0.041372734809723706
0.037526483662393445 -0.0067814559261969755 -0.04278439771143785
0.03719543618939379 0.0040285825068026165 -0.043416585053870145
0.03468295188184582 0.014565296006145728 -0.04323973645951424
0.03010651171354473 0.02433599955931899 -0.04226212117208911
0.02368010494041235 0.03288382592753305 -0.0405294513958934
0.015704223200722223 0.03980908825003692 -0.03812274484393789
0.006551809860066377 0.04478796895750654 -0.035154536439729794
-0.003349178405922902 0.047587661121689086 -0.0317636163093232
-0.01353578239008609 0.048077254248621755 -0.02810854010927886
-0.023531687811720877 0.046233855507832836 -0.024360215140385437
-0.03286949724296255 0.04214366017565108 -0.0206939089122244
-0.041112585093036 0.03599792123988371 -0.017281053829217855
-0.047875513735605967 0.02808400662266895 -0.014281231201931192
-0.05284205614380117 0.01877196217582342 -0.011834709402352962
-0.05577998231452984 0.008497208748087553 -0.010055885070717752
-0.05655191808531911 -0.002259817609825937 -0.009027934055751582
-0.05512176859747188 -0.012996130300997114 -0.008798922204428773
-0.051556406051542866 -0.02320971127654135 -0.00937955785638879
-0.04602254283756388 -0.03242298484162214 -0.010742691133876155
-0.038778936248973335 -0.04020514856415437 -0.01282458343984939
-0.030164289279163255 -0.04619231711772623 -0.015527887803938286
-0.02058141324594953 -0.050104537155032575 -0.018726200718585058
-0.010478392782043483 -0.051758877615249256 -0.022269972626570315
-0.00032763389563661557 -0.05107798337712389 -0.02599350069209625
0.00939622520950086 -0.04809369229847164 -0.02972267688122307
0.018238507688905958 -0.042945546513328964 -0.03328312906002888
0.025785758241332783 -0.03587426759685605 -0.03650837444179108
0.02956873590843837 -0.035147536096886804 -0.026062657160229475
0.03546805348622196 -0.026483769192055896 -0.028801886855499646
0.039443592556045716 -0.016632622410251572 -0.0309270175281621
0.041309461329499024 -0.006054724426227732 -0.03233868042987624
0.04097841385649937 0.00475531400677186 -0.03297086777230854
0.0384659295489514 0.01529202750611497 -0.03279401917795263
0.033889489380650305 0.025062731059288235 -0.0318164038905275
0.027463082607517928 0.03361055742750229 -0.03008373411433179
0.019487200867827802 0.04053581975000616 -0.02767702756237628
0.010334787527171955 0.04551470045747578 -0.024708819158168187
0.000433799261182677 0.04831439262165833 -0.02131789902776159
-0.00975280472298051 0.048803985748590996 -0.017662822827717254
-0.019748710144615298 0.046960587007802077 -0.013914497858823831
-0.029086519575856968 0.042870391675620324 -0.010248191630662791
-0.037329607425930424 0.03672465273985295 -0.006835336547656248
-0.04409253606850039 0.028810738122638194 -0.003835513920369585
-0.04905907847669559 0.019498693675792666 -0.0013889921207913547
-0.05199700464742426 0.009223940248056796 0.0003898322108438559
-0.052768940418213534 -0.0015330861098566935 0.0014177832258100258
-0.0513387909303663 -0.012269398801027872 0.0016467950771328344
-0.04777342838443729 -0.022482979776572105 0.0010661594251728176
-0.0422395651704583 -0.0316962533416529 -0.00029697385231454784
-0.034995958581867756 -0.03947841706418513 -0.0023788661582877825
-0.026381311612057676 -0.04546558561775699 -0.005082170522376679
-0.016798435578843952 -0.049377805655063334 -0.00828048343702345
-0.0066954151149379035 -0.051032146115280015 -0.011824255345008706
0.0034553437714689634 -0.05035125187715465 -0.015547783410534644
0.01317920287660644 -0.047366960798502396 -0.019276959599661463
0.022021485356011537 -0.04221881501335972 -0.02283741177846727
0.02956873590843836 -0.03514753609688681 -0.02606265716022947
0.033351713575543944 -0.034420804596917556 -0.015616939878667866
0.03925103115332754 -0.025757037692086652 -0.018356169573938035
0.043226570223151295 -0.015905890910282328 -0.020481300246600487
0.0450924389966046 -0.0053279929262584885 -0.02189296314831463
0.04476139152360495 0.0054820455067411036 -0.022525150490746926
0.04224890721605698 0.016018759006084217 -0.022348301896391018
0.037672467047755884 0.02578946255925748 -0.021370686608965888
0.031246060274623507 0.03433728892747154 -0.01963801683277018
0.02327017853493338 0.04126255124997541 -0.01723131028081467
0.014117765194277536 0.046241431957445026 -0.014263101876606578
0.004216776928288257 0.049041124121627575 -0.01087218174619998
-0.00596982705587493 0.049530717248560244 -0.007217105546155645
-0.01596573247750972 0.047687318507771324 -0.00346878057726222
-0.02530354190875139 0.04359712317558957 0.0001975256508988188
-0.033546629758824845 0.0374513842398222 0.0036103807339053625
-0.04030955840139481 0.029537469622607438 0.006610203361192025
-0.04527610080959001 0.02022542517576191 0.009056725160770255
-0.04821402698031868 0.00995067174802604 0.010835549492405465
-0.048985962751107955 -0.0008063546098874497 0.011863500507371635
-0.04755581326326072 -0.011542667301058627 0.012092512358694444
-0.04399045071733171 -0.02175624827660286 0.011511876706734427
-0.03845658750335272 -0.030969521841683653 0.010148743429247062
-0.031212980914762174 -0.03875168556421588 0.008066851123273827
-0.022598333944952097 -0.04473885411778774 0.005363546759184931
-0.013015457911738373 -0.048651074155094086 0.00216523384453816
-0.002912437447832324 -0.05030541461531077 -0.001378538063447096
0.007238321438574544 -0.0496245203771854 -0.005102066128973033
0.01696218054371202 -0.04664022929853315 -0.008831242318099853
0.025804463023117116 -0.041492083513390475 -0.012391694496905662
0.03335171357554394 -0.03442080459691756 -0.015616939878667862
0.03713469124264953 -0.033694073096948315 -0.0051712225971062556
0.04303400882043312 -0.02503030619211741 -0.007910452292376425
0.04700954789025688 -0.015179159410313085 -0.010035582965038878
0.04887541666371019 -0.004601261426289244 -0.01144724586675302
0.048544369190710535 0.006208777006710348 -0.012079433209185317
0.046031884883162566 0.016745490506053458 -0.011902584614829409
0.04145544471486147 0.02651619405922672 -0.010924969327404279
0.03502903794172909 0.03506402042744078 -0.009192299551208571
0.02705315620203896 0.04198928274994465 -0.006785592999253061
0.017900742861383115 0.046968163457414266 -0.0038173845950449673
0.007999754595393836 0.049767855621596815 -0.0004264644646383699
-0.0021868493887693507 0.050257448748529485 0.0032286117354059646
-0.01218275481040414 0.048414050007740565 0.006976936704299389
-0.02152056424164581 0.04432385467555881 0.010643242932460429
-0.029763652091719262 0.03817811573979144 0.014056098015466973
-0.03652658073428922 0.03026420112257668 0.017055920642753634
-0.04149312314248443 0.02095215667573115 0.019502442442331864
-0.044431049313213095 0.010677403247995284 0.021281266773967075
-0.04520298508400237 -7.962310991820595e-05 0.022309217788933244
-0.043772835596155135 -0.010815935801089383 0.022538229640256053
-0.04020747305022612 -0.02102951677663362 0.021957593988296036
-0.034673609836247135 -0.030242790341714412 0.02059446071080867
-0.027430003247656595 -0.03802495406424664 0.018512568404835436
-0.01881535627784652 -0.0440121226178185 0.01580926404074654
-0.009232480244632794 -0.047924342655124845 0.01261095112609977
0.0008705402192732556 -0.049578683115341526 0.009067179218114514
0.011021299105680123 -0.04889778887721616 0.005343651152588576
0.0207451582108176 -0.04591349779856391 0.001614474963461756
0.029587440690222695 -0.040765352013421234 -0.0019459772153440523
0.03713469124264952 -0.03369407309694832 -0.005171222597106252
0.0409176689097551 -0.03296734159697907 0.0052744946844553485
0.046816986487538695 -0.024303574692148167 0.0025352649891851775
0.05079252555736245 -0.014452427910343842 0.0004101343165227247
0.05265839433081576 -0.003874529926320001 -0.0010015285851914173
0.05232734685781611 0.006935508506679591 -0.0016337159276237144
0.04981486255026814 0.017472222006022702 -0.0014568673332678059
0.04523842238196704 0.027242925559195965 -0.00047925204584267585
0.03881201560883466 0.035790751927410026 0.0012534177303530317
0.03083613386914454 0.0427160142499139 0.0036601242823085423
0.021683720528488694 0.047694894957383514 0.006628332686516637
0.011782732262499413 0.05049458712156606 0.010019252816923233
0.0015961282783362267 0.05098418024849873 0.013674329016967569
-0.008399777143298563 0.04914078150770981 0.017422653985860993
-0.01773758657454023 0.04505058617552806 0.021088960214022033
-0.025980674424613683 0.03890484723976069 0.024501815297028575
-0.03274360306718365 0.030990932622545923 0.027501637924315238
-0.037710145475378855 0.021678888175700396 0.029948159723893468
-0.04064807164610752 0.011404134747964527 0.03172698405552868
-0.0414200074168968 0.0006471083900510374 0.03275493507049485
-0.03998985792904956 -0.01008920430112014 0.03298394692181766
-0.03642449538312055 -0.020302785276664376 0.03240331126985764
-0.03089063216914156 -0.029516058841745168 0.031040177992370275
-0.023647025580551016 -0.037298222564277395 0.02895828568639704
-0.015032378610740941 -0.04328539111784925 0.026254981322308146
-0.005449502577527216 -0.0471976111551556 0.023056668407661372
0.004653517886378833 -0.04885195161537228 0.019512896499676118
0.0148042767727857 -0.04817105737724691 0.01578936843415018
0.024528135877923178 -0.04518676629859466 0.01206019224502336
0.03337041835732827 -0.040038620513451986 0.008499740066217551
0.040917668909755095 -0.032967341596979075 0.005274494684455352
0.04470064657686069 -0.03224061009700983 0.01572021196601696
0.05059996415464428 -0.023576843192178922 0.012980982270746788
0.05457550322446804 -0.013725696410374598 0.010855851598084335
0.05644137199792135 -0.003147798426350757 0.009444188696370193
0.05611032452492169 0.007662240006648835 0.008812001353937896
0.053597840217373724 0.018198953505991947 0.008988849948293805
0.04902140004907263 0.02796965705916521 0.009966465235718935
0.04259499327594025 0.03651748342737927 0.011699135011914642
0.03461911153625012 0.04344274574988314 0.014105841563870153
0.025466698195594273 0.048421626457352755 0.017074049968078247
0.015565709929604994 0.051221318621535304 0.020464970098484844
0.005379105945441807 0.05171091174846797 0.02412004629852918
-0.004616799476192982 0.049867513007679054 0.027868371267422604
-0.013954608907434652 0.0457773176754973 0.03153467749558364
-0.022197696757508104 0.03963157873972993 0.034947532578590186
-0.028960625400078068 0.031717664122515164 0.03794735520587685
-0.03392716780827327 0.02240561967566964 0.04039387700545508
-0.03686509397900194 0.012130866247933771 0.04217270133709029
-0.03763702974979121 0.0013738398900202814 0.04320065235205646
-0.03620688026194398 -0.009362472801150896 0.04342966420337927
-0.032641517716014964 -0.01957605377669513 0.042849028551419255
-0.02710765450203598 -0.028789327341775924 0.041485895273931886
-0.019864047913445437 -0.036571491064308154 0.03940400296795865
-0.01124940094363536 -0.04255865961788001 0.03670069860386976
-0.0016665249104216365 -0.046470879655186356 0.03350238568922299
0.008436495553484413 -0.04812522011540304 0.02995861378123773
0.01858725443989128 -0.04744432587727767 0.02623508571571179
0.028311113545028757 -0.04446003479862542 0.02250590952658497
0.037153396024433856 -0.039311889013482745 0.018945457347779162
0.04470064657686068 -0.032240610097009834 0.015720211966016962
0.04848362424396627 -0.031513878597040586 0.026165929247578566
0.05438294182174986 -0.022850111692209678 0.023426699552308396
0.05835848089157362 -0.012998964910405354 0.021301568879645943
0.060224349665026926 -0.0024210669263815135 0.0198899059779318
0.05989330219202727 0.00838897150661808 0.019257718635499504
0.0573808178844793 0.01892568500596119 0.019434567229855412
0.05280437771617821 0.028696388559134454 0.020412182517280542
0.046377970943045826 0.03724421492734851 0.02214485229347625
0.0384020892033557 0.04416947724985238 0.02455155884543176
0.029249675862699852 0.049148357957321996 0.027519767249639854
0.019348687596710573 0.051948050121504545 0.030910687380046452
0.009162083612547386 0.052437643248437214 0.03456576358009079
-0.0008338218090874031 0.050594244507648295 0.03831408854898421
-0.010171631240329073 0.04650404917546654 0.04198039477714525
-0.018414719090402525 0.04035831023969917 0.045393249860151794
-0.02517764773297249 0.03244439562248441 0.04839307248743846
-0.030144190141167693 0.023132351175638884 0.05083959428701669
-0.03308211631189636 0.012857597747903016 0.0526184186186519
-0.03385405208268563 0.002100571389989525 0.05364636963361807
-0.0324239025948384 -0.008635741301181651 0.05387538148494088
-0.02885854004890939 -0.018849322276725887 0.05329474583298086
-0.0233246768349304 -0.02806259584180668 0.051931612555493493
-0.016081070246339858 -0.03584475956433891 0.04984972024952026
-0.0074664232765297815 -0.04183192811791077 0.047146415885431364
0.0021164527566839425 -0.045744148155217115 0.043948102970784594
0.012219473220589992 -0.0473984886154338 0.04040433106279934
0.02237023210699686 -0.04671759437730843 0.0366808029972734
0.032094091212134336 -0.04373330329865618 0.032951626808146575
0.040936373691539435 -0.038585157513513504 0.02939117462934077
0.04848362424396626 -0.03151387859704059 0.02616592924757857
0.052266601911071846 -0.030787147097071338 0.03661164652914018
0.05816591948885544 -0.022123380192240433 0.03387241683387001
0.0621414585586792 -0.012272233410436111 0.03174728616120756
0.0640073273321325 -0.0016943354264122694 0.030335623259493415
0.06367627985913285 0.009115703006587322 0.02970343591706112
0.06116379555158488 0.019652416505930435 0.029880284511417027
0.056587355383283786 0.029423120059103698 0.030857899798842157
0.050160948610151405 0.037970946427317756 0.032590569575037864
0.04218506687046128 0.04489620874982163 0.034997276126993375
0.03303265352980543 0.049875089457291244 0.03796548453120147
0.023131665263816156 0.05267478162147379 0.041356404661608066
0.012945061279652966 0.05316437474840646 0.0450114808616524
0.0029491558580181784 0.05132097600761754 0.04875980583054582
-0.0063886535732234915 0.04723078067543579 0.05242611205870686
-0.014631741423296945 0.04108504173966842 0.05583896714171341
-0.021394670065866907 0.03317112712245365 0.058838789769000074
-0.02636121247406211 0.02385908267560813 0.061285311568578305
-0.02929913864479078 0.013584329247872258 0.06306413590021351
-0.030071074415580053 0.0028273028899587693 0.06409208691517969
-0.02864092492773282 -0.007909009801212409 0.0643210987665025
-0.025075562381803806 -0.018122590776756643 0.06374046311454247
-0.01954169916782482 -0.027335864341837435 0.06237732983705511
-0.012298092579234277 -0.035118028064369665 0.06029543753108187
-0.0036834456094242 -0.04110519661794152 0.05759213316699298
0.005899430423789524 -0.04501741665524787 0.05439382025234621
0.016002450887695575 -0.04667175711546455 0.05085004834436095
0.026153209774102442 -0.04599086287733918 0.047126520278835016
0.035877068879239915 -0.04300657179868693 0.04339734408970819
0.044719351358645014 -0.03785842601354426 0.03983689191090239
0.05226660191107184 -0.030787147097071345 0.03661164652914019
-0.01702339950197511 -0.003270291749861597 -0.047005727767027244
-0.013107488123186581 -0.007054451621743034 -0.048160625682348024
-0.009191576744398055 -0.010838611493624471 -0.04931552359766881
-0.00527566536560953 -0.014622771365505906 -0.0504704215129896
-0.0013597539868210043 -0.018406931237387344 -0.051625319428310376
0.002556157391967525 -0.022191091109268785 -0.05278021734363116
0.006472068770756048 -0.02597525098115022 -0.05393511525895195
0.010387980149544574 -0.029759410853031656 -0.055090013174272735
0.0143038915283331 -0.03354357072491309 -0.056244911089593515
0.018219802907121628 -0.037327730596794534 -0.0573998090049143
-0.01702339950197511 -0.003270291749861597 -0.047005727767027244
-0.012191318325980431 -0.005529037219119624 -0.048598548369292206
-0.007359237149985757 -0.007787782688377652 -0.05019136897155717
-0.002527155973991081 -0.010046528157635676 -0.05178418957382213
0.0023049252020035946 -0.012305273626893706 -0.0533770101760871
0.007137006377998274 -0.014564019096151732 -0.05496983077835206
0.011969087553992947 -0.016822764565409754 -0.05656265138061702
0.01680116872998763 -0.01908151003466779 -0.05815547198288199
0.021633249905982296 -0.021340255503925817 -0.05974829258514695
0.026465331081976975 -0.02359900097318384 -0.061341113187411915
-0.01702339950197511 -0.003270291749861597 -0.047005727767027244
-0.011798779501657945 -0.0037588526968550264 -0.04886386422882284
-0.0065741595013407835 -0.004247413643848456 -0.05072200069061844
-0.0013495395010236248 -0.004735974590841883 -0.05258013715241404
0.003875080499293541 -0.005224535537835314 -0.054438273614209644
0.0090997004996107 -0.005713096484828745 -0.05629641007600524
0.01432432049992786 -0.0062016574318221685 -0.05815454653780084
0.019548940500245027 -0.006690218378815597 -0.06001268299959644
0.02477356050056219 -0.007178779325809031 -0.06187081946139204
0.02999818050087935 -0.0076673402728024585 -0.06372895592318764
-0.01702339950197511 -0.003270291749861597 -0.047005727767027244
-0.01197240932270189 -0.0019357250151795207 -0.04892782217076006
-0.006921419143428672 -0.0006011582804974446 -0.05084991657449288
-0.0018704289641554564 0.0007334084541846316 -0.052772010978225696
0.003180561215117763 0.0020679751888667075 -0.05469410538195851
0.008231551394390984 0.003402541923548787 -0.05661619978569133
0.013282541573664196 0.00473710865823086 -0.05853829418942415
0.018333531752937414 0.0060716753929129395 -0.060460388593156965
0.023384521932210633 0.007406242127595012 -0.06238248299688978
0.02843551211148386 0.008740808862277098 -0.0643045774006226
-0.01702339950197511 -0.003270291749861597 -0.047005727767027244
-0.012693392303857891 -0.00025721834714331824 -0.04878349135968524
-0.008363385105740676 0.00275585505557496 -0.05056125495234324
-0.004033377907623463 0.005768928458293237 -0.05233901854500124
0.0002966292904937546 0.008782001861011518 -0.05411678213765924
0.004626636488610972 0.011795075263729799 -0.05589454573031724
0.008956643686728183 0.014808148666448072 -0.05767230932297524
0.0132866508848454 0.017821222069166347 -0.059450072915633236
0.017616658082962616 0.02083429547188463 -0.061227836508291236
0.02194666528107983 0.02384736887460291 -0.06300560010094924
-0.01702339950197511 -0.003270291749861597 -0.047005727767027244
-0.013883598751914087 0.0010947750650574233 -0.04844651227850162
-0.010743798001853067 0.005459841879976443 -0.049887296789976006
-0.007603997251792049 0.00982490869489546 -0.05132808130145039
-0.004464196501731026 0.014189975509814485 -0.052768865812924774
-0.0013243957516700091 0.0185550423247335 -0.05420965032439915
0.0018154049983910093 0.022920109139652513 -0.055650434835873536
0.004955205748452035 0.02728517595457154 -0.05709121934734792
0.008095006498513057 0.031650242769490564 -0.058532003858822304
0.011234807248574072 0.03601530958440957 -0.05997278837029668
-0.01702339950197511 -0.003270291749861597 -0.047005727767027244
-0.015414051330267726 0.001973745756871487 -0.047953401839424634
-0.013804703158560345 0.0072177832636045715 -0.04890107591182203
-0.012195354986852968 0.012461820770337655 -0.04984874998421942
-0.010586006815145583 0.01770585827707074 -0.050796424056616815
-0.008976658643438206 0.022949895783803822 -0.05174409812901421
-0.007367310471730827 0.028193933290536904 -0.0526917722014116
-0.005757962300023443 0.03343797079726999 -0.053639446273809
-0.00414861412831606 0.03868200830400308 -0.05458712034620639
-0.0025392659566086826 0.04392604581073616 -0.05553479441860379
-0.01702339950197511 -0.003270291749861597 -0.047005727767027244
-0.01711890175463566 0.002284443615205303 -0.04735759620992508
-0.01721440400729621 0.007839178980272204 -0.04770946465282292
-0.017309906259956764 0.013393914345339103 -0.048061333095720755
-0.017405408512617317 0.018948649710406003 -0.0484132015386186
-0.01750091076527787 0.0245033850754729 -0.04876506998151644
-0.01759641301793842 0.0300581204405398 -0.04911693842441427
-0.017691915270598976 0.0356128558056067 -0.049468806867312115
-0.017787417523259526 0.041167591170673604 -0.04982067531020996
-0.01788291977592008 0.0467223265357405 -0.05017254375310779
-0.01702339950197511 -0.003270291749861597 -0.047005727767027244
-0.01881340302805769 0.0019931997061344046 -0.04672366017483611
-0.020603406554140273 0.007256691162130406 -0.04644159258264498
-0.022393410080222855 0.012520182618126407 -0.046159524990453844
-0.02418341360630544 0.01778367407412241 -0.04587745739826272
-0.02597341713238802 0.02304716553011841 -0.045595389806071585
-0.0277634206584706 0.02831065698611441 -0.04531332221388045
-0.029553424184553187 0.033574148442110416 -0.04503125462168932
-0.03134342771063577 0.038837639898106416 -0.04474918702949819
-0.03313343123671835 0.044101131354102416 -0.04446711943730706
-0.01702339950197511 -0.003270291749861597 -0.047005727767027244
-0.02031392964466223 0.0011315748263214947 -0.04612029054009069
-0.023604459787349357 0.005533441402504586 -0.04523485331315414
-0.02689498993003648 0.009935307978687675 -0.04434941608621759
-0.030185520072723605 0.01433717455487077 -0.04346397885928104
-0.033476050215410724 0.018739041131053864 -0.042578541632344494
-0.03676658035809785 0.023140907707236945 -0.041693104405407945
-0.040057110500784976 0.027542774283420043 -0.04080766717847139
-0.0433476406434721 0.031944640859603135 -0.03992222995153484
-0.04663817078615922 0.036346507435786234 -0.03903679272459829
-0.01702339950197511 -0.003270291749861597 -0.047005727767027244
-0.02145787626247079 -0.00020706059901818102 -0.045612871767858
-0.02589235302296647 0.0028561705518252347 -0.04422001576868876
-0.03032682978346215 0.005919401702668649 -0.042827159769519514
-0.03476130654395783 0.008982632853512067 -0.041434303770350275
-0.03919578330445351 0.012045864004355483 -0.04004144777118104
-0.04363026006494919 0.015109095155198897 -0.03864859177201179
-0.04806473682544487 0.018172326306042312 -0.03725573577284255
-0.052499213585940556 0.02123555745688573 -0.03586287977367331
-0.05693369034643623 0.024298788607729147 -0.03447002377450407
-0.01702339950197511 -0.003270291749861597 -0.047005727767027244
-0.022121278515283165 -0.0018776446504803288 -0.04525639055552293
-0.02721915752859122 -0.00048499755109906073 -0.04350705334401861
-0.032317036541899276 0.0009076495482822063 -0.04175771613251429
-0.03741491555520733 0.0023002966476634752 -0.040008378921009974
-0.042512794568515394 0.0036929437470447435 -0.038259041709505656
-0.04761067358182345 0.005085590846426009 -0.03650970449800134
-0.052708552595131505 0.006478237945807278 -0.03476036728649702
-0.05780643160843956 0.007870885045188548 -0.03301103007499271
-0.06290431062174762 0.009263532144569818 -0.031261692863488386
-0.01702339950197511 -0.003270291749861597 -0.047005727767027244
-0.022232246475260585 -0.0036991436243066483 -0.0450894771738179
-0.027441093448546065 -0.004127995498751699 -0.043173226580608556
-0.032649940421831544 -0.0045568473731967514 -0.04125697598739921
-0.03785878739511702 -0.004985699247641802 -0.03934072539418987
-0.043067634368402496 -0.005414551122086852 -0.037424474800980524
-0.04827648134168798 -0.005843402996531906 -0.03550822420777118
-0.053485328314973456 -0.006272254870976954 -0.033591973614561836
-0.05869417528825893 -0.006701106745422006 -0.03167572302135249
-0.06390302226154441 -0.007129958619867058 -0.02975947242814314
-0.01702339950197511 -0.003270291749861597 -0.047005727767027244
-0.021778755042094193 -0.0054741698432143986 -0.045130219277578626
-0.026534110582213277 -0.0076780479365672 -0.04325471078813001
-0.03128946612233236 -0.009881926029920001 -0.04137920229868139
-0.036044821662451446 -0.012085804123272802 -0.03950369380923277
-0.04080017720257054 -0.014289682216625603 -0.03762818531978416
-0.045555532742689614 -0.016493560309978405 -0.03575267683033554
-0.050310888282808705 -0.01869743840333121 -0.03387716834088692
-0.05506624382292779 -0.02090131649668401 -0.032001659851438304
-0.05982159936304688 -0.023105194590036814 -0.030126151361989685
-0.01702339950197511 -0.003270291749861597 -0.047005727767027244
-0.02080994704921216 -0.0070103716740153475 -0.04537420182768376
-0.02459649459644921 -0.010750451598169097 -0.04374267588834027
-0.02838304214368626 -0.014490531522322842 -0.042111149948996784
-0.03216958969092332 -0.0182306114464766 -0.0404796240096533
-0.035956137238160366 -0.02197069137063035 -0.03884809807030981
-0.039742684785397414 -0.02571077129478409 -0.03721657213096633
-0.04352923233263447 -0.02945085121893785 -0.035585046191622845
-0.04731577987987152 -0.0331909311430916 -0.03395352025227936
-0.05110232742710857 -0.03693101106724535 -0.03232199431293587
-0.01702339950197511 -0.003270291749861597 -0.047005727767027244
-0.019430807875248125 -0.008141277811714833 -0.04579498552905007
-0.021838216248521145 -0.013012263873568068 -0.044584243291072904
-0.024245624621794158 -0.017883249935421303 -0.04337350105309574
-0.02665303299506718 -0.022754235997274542 -0.04216275881511857
-0.029060441368340195 -0.027625222059127777 -0.040952016577141405
-0.031467849741613214 -0.03249620812098101 -0.03974127433916423
-0.03387525811488623 -0.03736719418283425 -0.038530532101187065
-0.036282666488159254 -0.042238180244687486 -0.0373197898632099
-0.03869007486143227 -0.04710916630654072 -0.03610904762523273
-0.01702339950197511 -0.003270291749861597 -0.047005727767027244
-0.017790788649250253 -0.008744337028476375 -0.04634697193850269
-0.018558177796525396 -0.014218382307091154 -0.04568821610997814
-0.01932556694380054 -0.019692427585705934 -0.04502946028145359
-0.020092956091075684 -0.025166472864320714 -0.04437070445292904
-0.020860345238350828 -0.030640518142935492 -0.04371194862440449
-0.02162773438562597 -0.03611456342155027 -0.043053192795879935
-0.02239512353290112 -0.04158860870016505 -0.042394436967355384
-0.02316251268017626 -0.04706265397877983 -0.04173568113883083
-0.023929901827451406 -0.05253669925739461 -0.04107692531030628
-0.01702339950197511 -0.003270291749861597 -0.047005727767027244
-0.016067610901875647 -0.008754198500735985 -0.04697034476362579
-0.015111822301776188 -0.014238105251610374 -0.046934961760224346
-0.014156033701676727 -0.019722012002484763 -0.0468995787568229
-0.013200245101577267 -0.025205918753359154 -0.046864195753421455
-0.012244456501477806 -0.03068982550423354 -0.04682881275002001
-0.011288667901378347 -0.03617373225510793 -0.04679342974661856
-0.010332879301278885 -0.041657639005982315 -0.04675804674321712
-0.009377090701179426 -0.04714154575685671 -0.04672266373981567
-0.008421302101079968 -0.052625452507731096 -0.04668728073641422
-0.01702339950197511 -0.003270291749861597 -0.047005727767027244
-0.014448007679909999 -0.008169793584957827 -0.04759755188619131
-0.01187261585784489 -0.013069295420054056 -0.04818937600535538
-0.009297224035779783 -0.017968797255150284 -0.048781200124519454
-0.006721832213714674 -0.022868299090246517 -0.049373024243683526
-0.004146440391649564 -0.027767800925342746 -0.04996484836284759
-0.0015710485695844588 -0.03266730276043897 -0.050556672482011664
0.0010043432524806566 -0.03756680459553521 -0.051148496601175736
0.00357973507454576 -0.042466306430631436 -0.05174032072033981
0.006155126896610874 -0.04736580826572766 -0.05233214483950387
-0.01702339950197511 -0.003270291749861597 -0.047005727767027244
-0.013107488123186583 -0.0070544516217430344 -0.048160625682348024
-0.009191576744398057 -0.010838611493624473 -0.04931552359766881
-0.005275665365609532 -0.01462277136550591 -0.05047042151298959
-0.0013597539868210077 -0.018406931237387347 -0.051625319428310376
0.0025561573919675217 -0.022191091109268788 -0.05278021734363116
0.006472068770756044 -0.025975250981150225 -0.05393511525895194
0.010387980149544567 -0.029759410853031663 -0.05509001317427273
0.014303891528333093 -0.0335435707249131 -0.056244911089593515
0.01821980290712162 -0.03732773059679454 -0.0573998090049143
0.01702339950197511 0.003270291749861597 0.047005727767027244
0.020939310880763635 -0.00051386812201984 0.04585082985170646
0.02485522225955216 -0.004298027993901277 0.04469593193638567
0.028771133638340687 -0.008082187865782714 0.043541034021064885
0.03268704501712921 -0.011866347737664151 0.042386136105744106
0.03660295639591774 -0.01565050760954559 0.04123123819042332
0.040518867774706264 -0.019434667481427022 0.04007634027510253
0.04443477915349479 -0.02321882735330846 0.038921442359781754
0.048350690532283316 -0.027002987225189897 0.03776654444446097
0.052266601911071846 -0.030787147097071338 0.03661164652914018
0.01702339950197511 0.003270291749861597 0.047005727767027244
0.021855480677969785 0.0010115462806035696 0.045412907164762276
0.02668756185396446 -0.0012471991886544578 0.043820086562497314
0.03151964302995913 -0.003505944657912482 0.04222726596023235
0.03635172420595381 -0.005764690127170512 0.04063444535796738
0.04118380538194849 -0.00802343559642854 0.03904162475570242
0.04601588655794316 -0.010282181065686562 0.03744880415343746
0.05084796773393785 -0.012540926534944595 0.03585598355117249
0.055680048909932514 -0.014799672004202622 0.03426316294890753
0.06051213008592719 -0.017058417473460645 0.03267034234664257
0.01702339950197511 0.003270291749861597 0.047005727767027244
0.02224801950229227 0.002781730802868168 0.04514759130523164
0.027472639502609433 0.0022931698558747386 0.04328945484343604
0.03269725950292659 0.0018046089088813112 0.04143131838164044
0.03792187950324376 0.0013160479618878798 0.039573181919844845
0.04314649950356091 0.0008274870148944492 0.03771504545804924
0.048371119503878075 0.00033892606790102554 0.03585690899625364
0.053595739504195244 -0.00014963487909240328 0.033998772534458044
0.05882035950451241 -0.0006381958260858374 0.032140636072662446
0.06404497950482957 -0.0011267567730792645 0.030282499610866844
0.01702339950197511 0.003270291749861597 0.047005727767027244
0.022074389681248325 0.004604858484543673 0.04508363336329442
0.027125379860521544 0.0059394252192257494 0.0431615389595616
0.03217637003979476 0.007273991953907826 0.041239444555828786
0.03722736021906798 0.008608558688589901 0.03931735015209597
0.0422783503983412 0.00994312542327198 0.03739525574836315
0.04732934057761441 0.011277692157954053 0.035473161344630334
0.05238033075688763 0.012612258892636133 0.03355106694089752
0.05743132093616085 0.013946825627318206 0.0316289725371647
0.06248231111543408 0.01528139236200029 0.02970687813343188
0.01702339950197511 0.003270291749861597 0.047005727767027244
0.021353406700092323 0.006283365152579876 0.045227964174369244
0.02568341389820954 0.009296438555298154 0.04345020058171124
0.030013421096326754 0.01230951195801643 0.04167243698905324
0.03434342829444397 0.015322585360734711 0.03989467339639524
0.038673435492561185 0.018335658763452993 0.03811690980373724
0.0430034426906784 0.021348732166171266 0.03633914621107925
0.04733344988879561 0.024361805568889543 0.034561382618421246
0.051663457086912834 0.027374878971607827 0.032783619025763246
0.05599346428503005 0.030387952374326108 0.031005855433105245
0.01702339950197511 0.003270291749861597 0.047005727767027244
0.020163200252036127 0.007635358564780617 0.04556494325555286
0.02330300100209715 0.012000425379699637 0.044124158744078476
0.026442801752158167 0.016365492194618653 0.0426833742326041
0.02958260250221919 0.02073055900953768 0.041242589721129715
0.03272240325228021 0.025095625824456697 0.03980180520965533
0.035862204002341226 0.02946069263937571 0.03836102069818095
0.03900200475240225 0.03382575945429474 0.03692023618670657
0.04214180550246327 0.03819082626921376 0.035479451675232185
0.04528160625252429 0.04255589308413277 0.0340386671637578
0.01702339950197511 0.003270291749861597 0.047005727767027244
0.01863274767368249 0.00851432925659468 0.04605805369462985
0.02024209584538987 0.013758366763327765 0.04511037962223245
0.02185144401709725 0.01900240427006085 0.04416270554983506
0.023460792188804633 0.024246441776793935 0.04321503147743767
0.02507014036051201 0.029490479283527018 0.04226735740504027
0.026679488532219388 0.0347345167902601 0.04131968333264288
0.028288836703926772 0.039978554296993186 0.040372009260245485
0.029898184875634157 0.04522259180372627 0.03942433518784809
0.03150753304734153 0.05046662931045936 0.0384766611154507
0.01702339950197511 0.003270291749861597 0.047005727767027244
0.016927897249314556 0.008825027114928496 0.0466538593241294
0.016832394996654003 0.014379762479995397 0.04630199088123156
0.016736892743993453 0.019934497845062297 0.045950122438333726
0.0166413904913329 0.0254892332101292 0.045598253995435885
0.016545888238672347 0.031043968575196097 0.04524638555253805
0.016450385986011798 0.036598703940262996 0.04489451710964021
0.01635488373335124 0.042153439305329894 0.04454264866674237
0.016259381480690692 0.0477081746703968 0.04419078022384453
0.01616387922803014 0.0532629100354637 0.04383891178094669
0.01702339950197511 0.003270291749861597 0.047005727767027244
0.015233395975892525 0.008533783205857598 0.04728779535921837
0.013443392449809941 0.0137972746618536 0.047569862951409504
0.01165338892372736 0.0190607661178496 0.04785193054360064
0.009863385397644775 0.024324257573845605 0.04813399813579177
0.008073381871562197 0.029587749029841605 0.0484160657279829
0.006283378345479614 0.034851240485837605 0.04869813332017403
0.004493374819397028 0.04011473194183361 0.048980200912365164
0.0027033712933144443 0.04537822339782961 0.0492622685045563
0.0009133677672318656 0.05064171485382561 0.049544336096747424
0.01702339950197511 0.003270291749861597 0.047005727767027244
0.013732869359287983 0.007672158326044689 0.04789116499396379
0.010442339216600859 0.01207402490222778 0.04877660222090034
0.007151809073913737 0.01647589147841087 0.04966203944783689
0.0038612789312266116 0.020877758054593964 0.05054747667477344
0.0005707487885394891 0.02527962463077706 0.05143291390170999
-0.002719781354147633 0.02968149120696014 0.05231835112864654
-0.006010311496834759 0.03408335778314324 0.05320378835558309
-0.009300841639521886 0.03848522435932633 0.05408922558251964
-0.012591371782209008 0.04288709093550943 0.05497466280945619
0.01702339950197511 0.003270291749861597 0.047005727767027244
0.012588922741479427 0.006333522900705013 0.04839858376619648
0.008154445980983745 0.009396754051548429 0.04979143976536572
0.003719969220488068 0.012459985202391843 0.05118429576453497
-0.0007145075400076156 0.01552321635323526 0.05257715176370421
-0.0051489843005032955 0.018586447504078677 0.05397000776287345
-0.009583461060998973 0.02164967865492209 0.05536286376204269
-0.014017937821494653 0.024712909805765508 0.05675571976121193
-0.018452414581990338 0.027776140956608925 0.058148575760381176
-0.02288689134248601 0.030839372107452342 0.059541431759550414
0.01702339950197511 0.003270291749861597 0.047005727767027244
0.011925520488667051 0.004662938849242865 0.048755064978531555
0.006827641475358995 0.006055585948624133 0.05050440219003587
0.0017297624620509376 0.0074482330480054 0.05225373940154019
-0.003368116551257118 0.00884088014738667 0.05400307661304451
-0.008465995564565178 0.010233527246767937 0.055752413824548826
-0.013563874577873234 0.011626174346149203 0.05750175103605314
-0.018661753591181288 0.013018821445530472 0.05925108824755746
-0.023759632604489343 0.014411468544911741 0.06100042545906178
-0.028857511617797406 0.015804115644293012 0.0627497626705661
0.01702339950197511 0.003270291749861597 0.047005727767027244
0.01181455252868963 0.002841439875416546 0.04892197836023659
0.006605705555404152 0.002412588000971495 0.05083822895344593
0.0013968585821186727 0.001983736126526443 0.05275447954665528
-0.0038119883911668035 0.0015548842520813923 0.05467073013986462
-0.009020835364452284 0.001126032377636342 0.056586980733073965
-0.014229682337737764 0.0006971805031912883 0.05850323132628331
-0.019438529311023238 0.0002683286287462397 0.06041948191949265
-0.024647376284308714 -0.00016052324569881227 0.062335732512702
-0.029856223257594197 -0.0005893751201438643 0.06425198310591135
0.01702339950197511 0.003270291749861597 0.047005727767027244
0.012268043961856023 0.0010664136565087955 0.048881236256475856
0.007512688421736938 -0.001137464436844006 0.050756744745924474
0.0027573328816178555 -0.003341342530196807 0.05263225323537309
-0.001998022658501232 -0.005545220623549609 0.05450776172482171
-0.00675337819862032 -0.007749098716902409 0.05638327021427033
-0.011508733738739398 -0.009952976810255212 0.05825877870371894
-0.016264089278858487 -0.012156854903608015 0.06013428719316756
-0.02101944481897757 -0.014360732996960815 0.06200979568261618
-0.025774800359096663 -0.016564611090313618 0.0638853041720648
0.01702339950197511 0.003270291749861597 0.047005727767027244
0.013236851954738057 -0.00046978817429215347 0.048637253706370724
0.009450304407501005 -0.004209868098445904 0.05026877964571421
0.005663756860263955 -0.00794994802259965 0.0519003055850577
0.0018772093130269016 -0.011690027946753405 0.053531831524401184
-0.0019093382342101487 -0.015430107870907156 0.05516335746374467
-0.005695885781447197 -0.019170187795060894 0.05679488340308815
-0.009482433328684254 -0.022910267719214655 0.058426409342431644
-0.013268980875921306 -0.026650347643368405 0.06005793528177513
-0.01705552842315835 -0.030390427567522152 0.06168946122111861
0.01702339950197511 0.003270291749861597 0.047005727767027244
0.014615991128702089 -0.001600694311991639 0.04821647000500441
0.01220858275542907 -0.006471680373844875 0.04942721224298158
0.009801174382156056 -0.011342666435698109 0.050637954480958744
0.007393766008883035 -0.016213652497551346 0.05184869671893591
0.004986357635610021 -0.02108463855940458 0.053059438956913084
0.002578949262337004 -0.025955624621257813 0.05427018119489025
0.00017154088906398598 -0.03082661068311105 0.05548092343286742
-0.0022358674842090373 -0.03569759674496429 0.05669166567084458
-0.004643275857482054 -0.04056858280681752 0.05790240790882175
0.01702339950197511 0.003270291749861597 0.047005727767027244
0.016256010354699965 -0.002203753528753182 0.04766448359555179
0.01548862120742482 -0.007677798807367961 0.04832323942407634
0.014721232060149676 -0.01315184408598274 0.04898199525260089
0.013953842912874532 -0.01862588936459752 0.049640751081125443
0.013186453765599387 -0.024099934643212296 0.050299506909649995
0.012419064618324245 -0.029573979921827073 0.050958262738174546
0.011651675471049098 -0.035048025200441854 0.0516170185666991
0.010884286323773957 -0.040522070479056635 0.05227577439522365
0.01011689717649881 -0.045996115757671416 0.0529345302237482
0.01702339950197511 0.003270291749861597 0.047005727767027244
0.017979188102074568 -0.002213615001012792 0.04704111077042869
0.018934976702174026 -0.007697521751887181 0.047076493773830136
0.01989076530227349 -0.013181428502761569 0.04711187677723158
0.020846553902372948 -0.018665335253635958 0.04714725978063303
0.02180234250247241 -0.024149242004510345 0.04718264278403447
0.02275813110257187 -0.029633148755384732 0.04721802578743592
0.02371391970267133 -0.03511705550625912 0.047253408790837365
0.02466970830277079 -0.04060096225713351 0.04728879179423882
0.02562549690287025 -0.0460848690080079 0.04732417479764026
0.01702339950197511 0.003270291749861597 0.047005727767027244
0.019598791324040216 -0.0016292100852346328 0.04641390364786317
0.022174183146105326 -0.006528711920330862 0.0458220795286991
0.024749574968170433 -0.01142821375542709 0.04523025540953503
0.027324966790235543 -0.01632771559052332 0.04463843129037096
0.029900358612300653 -0.02122721742561955 0.04404660717120689
0.032475750434365756 -0.026126719260715775 0.04345478305204282
0.03505114225643087 -0.03102622109581201 0.042862958932878746
0.03762653407849598 -0.03592572293090824 0.04227113481371468
0.04020192590056109 -0.04082522476600446 0.04167931069455061
0.01702339950197511 0.003270291749861597 0.047005727767027244
0.02093931088076363 -0.0005138681220198409 0.04585082985170646
0.024855222259552157 -0.004298027993901278 0.04469593193638567
0.028771133638340683 -0.008082187865782717 0.04354103402106489
0.032687045017129206 -0.011866347737664155 0.042386136105744106
0.036602956395917735 -0.015650507609545592 0.04123123819042332
0.04051886777470626 -0.01943466748142703 0.04007634027510254
0.04443477915349478 -0.023218827353308467 0.038921442359781754
0.04835069053228331 -0.027002987225189904 0.03776654444446097
0.05226660191107184 -0.030787147097071345 0.03661164652914019
