# .PCD v0.7 - Point Cloud Data file format
VERSION 0.7
FIELDS x y z
SIZE 4 4 4
TYPE F F F
COUNT 1 1 1
WIDTH 700
HEIGHT 1
VIEWPOINT 0 0 0 1 0 0 0
POINTS 700
DATA ascii
0.002993942795513563 0.004334160117770645 -0.1258931533575748
0.0022560576617838197 0.02346977812151872 -0.12377768142301147
-0.0014600045896883487 0.04172986762924281 -0.11888364578001087
-0.007980485018130689 0.05826060715019358 -0.11143988609590975
-0.017000493205702703 0.07228903767696873 -0.10179446430039203
-0.02809826359457262 0.08315920538961698 -0.09039838959649972
-0.04075487677564275 0.09036283332721856 -0.07778452977155953
-0.054378523583381445 0.09356308785366863 -0.0645426948916874
-0.06833217743465479 0.09261032862413783 -0.05129205843862369
-0.0819633809837496 0.08754910560128319 -0.03865220544588902
-0.0946347543027048 0.07861607594850804 -0.027214161391236082
-0.105753798058346 0.06622893820402678 -0.017512756502187494
-0.11480059812258896 0.050966901161456524 -0.010001617689018095
-0.12135213617922574 0.03354360071037205 -0.00503195745460047
-0.1251020695902396 0.014773731015258494 -0.0028361515881153688
-0.12587505563708315 -0.004465049678152553 -0.003516873531416676
-0.12363495035131832 -0.023273157367006112 -0.007042293483003724
-0.1184864985664092 -0.040771145839481715 -0.013247566724163174
-0.11067043616572501 -0.05614082860222378 -0.021842541574804256
-0.10055223354019231 -0.06866353637142192 -0.03242532656353943
-0.08860500659900648 -0.07775372124977854 -0.04450108242621617
-0.07538739439554833 -0.08298633629539655 -0.057505160239934405
-0.06151743778613072 -0.0841167102443767 -0.07082950377911906
-0.047643680526460445 -0.08109198806718515 -0.08385108154882209
-0.034414844086425984 -0.07405360241109007 -0.09596101904497638
-0.022449494155167657 -0.0633306603667667 -0.10659306904949062
-0.012307117196939806 -0.0494245547865135 -0.11525008872082854
-0.004461959485866856 -0.032985519711736876 -0.12152728544074468
0.0007191481227480495 -0.014782226151858072 -0.12513114446721887
0.002993942795513563 0.004334160117770623 -0.1258931533575748
0.016646421886324737 0.003279614360006252 -0.11159216186086528
0.015908536752594994 0.022415232363754325 -0.10947668992630193
0.012192474501122826 0.04067532187147842 -0.10458265428330132
0.005671994072680485 0.05720606139242919 -0.0971388945992002
-0.0033480141148915306 0.07123449191920433 -0.08749347280368248
-0.014445784503761445 0.08210465963185258 -0.07609739809979019
-0.02710239768483157 0.08930828756945416 -0.06348353827485
-0.04072604449257027 0.09250854209590423 -0.050241703394977855
-0.05467969834384361 0.09155578286637343 -0.03699106694191415
-0.06831090189293842 0.0864945598435188 -0.02435121394917948
-0.08098227521189362 0.07756153019074365 -0.012913169894526542
-0.09210131896753483 0.06517439244626239 -0.0032117650054779537
-0.10114811903177778 0.049912355403692134 0.004299373807691447
-0.10769965708841457 0.03248905495260766 0.009269034042109072
-0.11144959049942843 0.0137191852574941 0.011464839908594173
-0.11222257654627199 -0.005519595435916946 0.010784117965292866
-0.10998247126050714 -0.024327703124770506 0.007258698013705819
-0.10483401947559803 -0.041825691597246105 0.0010534247725463677
-0.09701795707491384 -0.05719537435998817 -0.007541550078094716
-0.08689975444938114 -0.06971808212918632 -0.018124335066829884
-0.07495252750819531 -0.07880826700754294 -0.03020009092950663
-0.061734915304737153 -0.08404088205316095 -0.043204168743224865
-0.047864958695319544 -0.0851712560021411 -0.05652851228240952
-0.03399120143564927 -0.08214653382494955 -0.06955009005211255
-0.020762364995614808 -0.07510814816885447 -0.08166002754826684
-0.008797015064356484 -0.0643852061245311 -0.09229207755278107
0.0013453618938713686 -0.05047910054427789 -0.100949097224119
0.009190519604944318 -0.034040065469501266 -0.10722629394403514
0.014371627213559224 -0.015836771909622467 -0.11083015297050934
0.016646421886324737 0.0032796143600062303 -0.11159216186086528
0.03029890097713589 0.0022250686022418603 -0.09729117036415576
0.029561015843406147 0.021360686605989936 -0.0951756984295924
0.025844953591933978 0.03962077611371402 -0.0902816627865918
0.01932447316349164 0.05615151563466479 -0.08283790310249069
0.010304464975919624 0.07017994616143994 -0.07319248130697296
-0.0007933054129502914 0.08105011387408818 -0.06179640660308066
-0.013449918594020416 0.08825374181168977 -0.04918254677814047
-0.027073565401759116 0.09145399633813983 -0.035940711898268335
-0.04102721925303246 0.09050123710860904 -0.022690075445204627
-0.05465842280212727 0.0854400140857544 -0.01005022245246996
-0.06732979612108246 0.07650698443297925 0.0013878216021829795
-0.07844883987672367 0.06411984668849799 0.011089226491231568
-0.08749563994096662 0.04885780964592774 0.018600365304400967
-0.09404717799760341 0.031434509194843266 0.023570025538818592
-0.09779711140861727 0.012664639499729709 0.025765831405303693
-0.09857009745546083 -0.006574141193681338 0.025085109462002386
-0.09632999216969598 -0.025382248882534895 0.02155968951041534
-0.09118154038478687 -0.0428802373550105 0.01535441626925589
-0.08336547798410268 -0.05824992011775257 0.006759441418614806
-0.07324727535856998 -0.07077262788695071 -0.0038233435701203623
-0.06130004841738415 -0.07986281276530734 -0.01589909943279711
-0.048082436213926 -0.08509542781092534 -0.02890317724651534
-0.03421247960450839 -0.08622580175990549 -0.0422275207857
-0.020338722344838116 -0.08320107958271394 -0.055249098555403026
-0.007109885904803654 -0.07616269392661887 -0.06735903605155732
0.00485546402645467 -0.06543975188229549 -0.07799108605607155
0.014997840984682523 -0.05153364630204229 -0.08664810572740948
0.02284299869575547 -0.03509461122726566 -0.09292530244732562
0.028024106304370376 -0.016891317667386857 -0.09652916147379982
0.03029890097713589 0.0022250686022418386 -0.09729117036415576
0.043951380067947056 0.001170522844477468 -0.08299017886744622
0.04321349493421731 0.020306140848225542 -0.08087470693288287
0.039497432682745144 0.03856623035594963 -0.07598067128988227
0.032976952254302805 0.0550969698769004 -0.06853691160578115
0.023956944066730785 0.06912540040367555 -0.05889148981026344
0.01285917367786087 0.0799955681163238 -0.04749541510637113
0.0002025604967907456 0.08719919605392538 -0.03488155528143094
-0.013421086310947955 0.09039945058037545 -0.021639720401558805
-0.027374740162221297 0.08944669135084465 -0.008389083948495099
-0.041005943711316106 0.08438546832799002 0.004250769044239569
-0.0536773170302713 0.07545243867521487 0.015688813098892508
-0.06479636078591251 0.0630653009307336 0.025390217987941097
-0.07384316085015546 0.04780326388816335 0.0329013568011105
-0.08039469890679225 0.030379963437078876 0.03787101703552812
-0.08414463231780611 0.011610093741965316 0.04006682290201322
-0.08491761836464967 -0.0076286869514457295 0.039386100958711916
-0.08267751307888482 -0.02643679464029929 0.03586068100712487
-0.07752906129397572 -0.04393478311277489 0.029655407765965418
-0.06971299889329152 -0.05930446587551696 0.021060432915324334
-0.05959479626775882 -0.0718271736447151 0.010477647926589166
-0.047647569326572985 -0.08091735852307172 -0.00159810793608758
-0.034429957123114835 -0.08614997356868973 -0.014602185749805811
-0.02056000051369723 -0.08728034751766987 -0.027926529288990472
-0.006686243254026953 -0.08425562534047833 -0.0409481070586935
0.006542593186007508 -0.07721723968438325 -0.05305804455484779
0.01850794311726583 -0.06649429764005987 -0.06369009455936202
0.028650320075493684 -0.05258819205980668 -0.07234711423069995
0.03649547778656664 -0.03614915698503005 -0.07862431095061609
0.04167658539518154 -0.01794586342515125 -0.08222816997709029
0.043951380067947056 0.0011705228444774463 -0.08299017886744622
0.05760385915875822 0.00011597708671307539 -0.06868918737073669
0.05686597402502848 0.01925159509046115 -0.06657371543617334
0.05314991177355631 0.03751168459818524 -0.061679679793172744
0.04662943134511397 0.05404242411913601 -0.05423592010907163
0.037609423157541955 0.06807085464591116 -0.044590498313553904
0.026511652768672036 0.0789410223585594 -0.0331944236096616
0.013855039587601913 0.08614465029616099 -0.02058056378472141
0.00023139277986321103 0.08934490482261105 -0.007338728904849272
-0.01372226107141013 0.08839214559308026 0.005911907548214436
-0.027353464620504944 0.08333092257022562 0.018551760540949102
-0.040024837939460135 0.07439789291745047 0.029989804595602042
-0.05114388169510134 0.06201075517296921 0.03969120948465063
-0.06019068175934429 0.04674871813039896 0.04720234829782003
-0.0667422198159811 0.029325417679314483 0.052172008532237656
-0.07049215322699494 0.010555547984200924 0.05436781439872276
-0.0712651392738385 -0.008683232709210122 0.05368709245542145
-0.06902503398807366 -0.027491340398063682 0.0501616725038344
-0.06387658220316454 -0.04498932887053928 0.04395639926267495
-0.05606051980248035 -0.06035901163328135 0.03536142441203387
-0.045942317176947654 -0.07288171940247949 0.0247786394232987
-0.03399509023576182 -0.08197190428083612 0.012702883560621955
-0.020777478032303672 -0.08720451932645412 -0.0003011942530962767
-0.006907521422886063 -0.08833489327543427 -0.013625537792280937
0.006966235836784213 -0.08531017109824272 -0.026647115561983965
0.020195072276818674 -0.07827178544214765 -0.03875705305813826
0.032160422208077 -0.06754884339782427 -0.04938910306265249
0.042302799166304854 -0.05364273781757107 -0.058046122733990416
0.0501479568773778 -0.03720370274279444 -0.06432331945390656
0.05532906448599271 -0.019000409182915644 -0.06792717848038075
0.05760385915875822 0.0001159770867130536 -0.06868918737073669
0.07125633824956938 -0.000938568671051317 -0.05438819587402716
0.07051845311583964 0.01819704933269676 -0.05227272393946381
0.06680239086436747 0.036457138840420844 -0.04737868829646321
0.06028191043592513 0.052987878361371615 -0.03993492861236209
0.051261902248353114 0.06701630888814676 -0.03028950681684437
0.0401641318594832 0.07788647660079501 -0.018893432112952066
0.027507518678413077 0.08509010453839659 -0.006279572288011876
0.013883871870674375 0.08829035906484665 0.00696226259186026
-6.97819805989673e-05 0.08733759983531586 0.020212899044923967
-0.013700985529693779 0.08227637681246122 0.03285275203765863
-0.026372358848648973 0.07334334715968607 0.044290796092311575
-0.03749140260429018 0.06095620941520481 0.053992200981360164
-0.04653820266853313 0.04569417237263456 0.061503339794529564
-0.05308974072516993 0.028270871921550093 0.06647300002894718
-0.05683967413618378 0.00950100222643653 0.06866880589543228
-0.05761266018302734 -0.009737778466974515 0.06798808395213098
-0.0553725548972625 -0.028545886155828072 0.06446266400054393
-0.05022410311235338 -0.04604387462830368 0.058257390759384485
-0.04240804071166919 -0.061413557391045745 0.0496624159087434
-0.032289838086136495 -0.07393626516024389 0.03907963092000823
-0.020342611144950656 -0.08302645003860051 0.027003875057331487
-0.007124998941492507 -0.08825906508421852 0.013999797243613254
0.006744957667925102 -0.08938943903319867 0.0006754537044285938
0.02061871492759538 -0.08636471685600712 -0.012346124065274433
0.03384755136762984 -0.07932633119991205 -0.024456061561428724
0.04581290129888816 -0.06860338915558867 -0.03508811156594296
0.05595527825711601 -0.054697283575335466 -0.04374513123728088
0.06380043596818896 -0.03825824850055884 -0.05002232795719702
0.06898154357680387 -0.020054954940680034 -0.05362618698367123
0.07125633824956938 -0.0009385686710513388 -0.05438819587402716
0.08490881734038054 -0.001993114428815709 -0.040087204377317644
0.0841709322066508 0.017142503574932366 -0.03797173244275429
0.08045486995517863 0.035402593082656454 -0.03307769679975369
0.0739343895267363 0.051933332603607225 -0.02563393711565257
0.06491438133916427 0.06596176313038238 -0.015988515320134847
0.05381661095029436 0.07683193084303062 -0.004592440616242543
0.04115999776922424 0.08403555878063221 0.008021419208697648
0.02753635096148553 0.08723581330708227 0.021263254088569782
0.01358269711021219 0.08628305407755148 0.03451389054163349
-4.850643888262133e-05 0.08122183105469684 0.04715374353436816
-0.012719879757837817 0.07228880140192169 0.058591787589021095
-0.02383892351347902 0.05990166365744042 0.06829319247806968
-0.03288572357772197 0.04463962661487017 0.07580433129123909
-0.03943726163435877 0.0272163261637857 0.08077399152565672
-0.04318719504537262 0.008446456468672139 0.08296979739214182
-0.04396018109221618 -0.010792324224738907 0.08228907544884051
-0.04172007580645134 -0.029600431913592466 0.07876365549725346
-0.03657162402154222 -0.04709842038606807 0.07255838225609401
-0.02875556162085803 -0.062468103148810135 0.06396340740545292
-0.018637358995325336 -0.07499081091800827 0.05338062241671775
-0.0066901320541395 -0.0840809957963649 0.04130486655404101
0.00652748014931865 -0.0893136108419829 0.02830078874032278
0.02039743675873626 -0.09044398479096305 0.014976445201138118
0.03427119401840654 -0.0874192626137715 0.0019548674314350915
0.047500030458441 -0.08038087695767643 -0.010155070064719201
0.05946538038969932 -0.06965793491335305 -0.020787120069233434
0.06960775734792718 -0.055751829333099856 -0.02944413974057136
0.07745291505900012 -0.03931279425832323 -0.0357213364604875
0.08263402266761503 -0.021109500698444427 -0.03932519548696171
0.08490881734038054 -0.0019931144288157306 -0.040087204377317644
0.09856129643119171 -0.0030476601865801014 -0.025786212880608107
0.09782341129746197 0.016087957817167972 -0.023670740946044756
0.0941073490459898 0.034348047324892064 -0.018776705303044153
0.08758686861754746 0.050878786845842836 -0.011332945618943036
0.07856686042997545 0.06490721737261798 -0.0016875238234253134
0.06746909004110553 0.07577738508526623 0.00970855088046699
0.0548124768600354 0.08298101302286781 0.02232241070540718
0.0411888300522967 0.08618126754931787 0.03556424558527932
0.027235176201023358 0.08522850831978708 0.04881488203834303
0.013603972651928545 0.08016728529693244 0.06145473503107769
0.00093259933297335 0.0712342556441573 0.07289277908573064
-0.010186444422667855 0.05884711789967603 0.08259418397477922
-0.019233244486910807 0.04358508085710578 0.09010532278794862
-0.025784782543547602 0.026161780406021306 0.09507498302236625
-0.029534715954561454 0.0073919107109077465 0.09727078888885135
-0.030307702001405014 -0.011846869982503299 0.09659006694555004
-0.028067596715640172 -0.03065497767135686 0.093064646993963
-0.022919144930731057 -0.04815296614383246 0.08685937375280355
-0.015103082530046864 -0.06352264890657452 0.07826439890216245
-0.004984879904514169 -0.07604535667577267 0.0676816139134273
0.006962347036671667 -0.0851355415541293 0.055605858050750544
0.020179959240129816 -0.0903681565997473 0.042601780237032316
0.034049915849547426 -0.09149853054872745 0.02927743669784765
0.047923673109217704 -0.0884738083715359 0.016255858928144625
0.061152509549252165 -0.08143542271544083 0.004145921431990333
0.07311785948051049 -0.07071248067111745 -0.0064861285725239005
0.08326023643873834 -0.056806375090864246 -0.015143148243861825
0.0911053941498113 -0.04036734001608762 -0.021420344963777965
0.0962865017584262 -0.02216404645620882 -0.02502420399025217
0.09856129643119171 -0.0030476601865801235 -0.025786212880608107
0.11221377552200287 -0.0041022059443444935 -0.01148522138389858
0.11147589038827313 0.01503341205940358 -0.009369749449335229
0.10775982813680096 0.03329350156712767 -0.004475713806334627
0.10123934770835862 0.04982424108807844 0.002968045877766491
0.0922193395207866 0.06385267161485358 0.012613467673284213
0.08112156913191669 0.07472283932750183 0.024009542377176517
0.06846495595084656 0.08192646726510341 0.03662340220211671
0.05484130914310786 0.08512672179155348 0.049865237081988846
0.04088765529183452 0.08417396256202268 0.06311587353505255
0.027256451742739704 0.07911273953916804 0.07575572652778723
0.014585078423784509 0.0701797098863929 0.08719377058244016
0.003466034668143305 0.057792572141911636 0.09689517547148875
-0.005580765396099647 0.042530535099341384 0.10440631428465814
-0.012132303452736443 0.025107234648256916 0.10937597451907577
-0.015882236863750294 0.006337364953143355 0.11157178038556087
-0.016655222910593855 -0.012901415740267692 0.11089105844225956
-0.014415117624829013 -0.03170952342912125 0.10736563849067252
-0.009266665839919898 -0.049207511901596855 0.10116036524951307
-0.0014506034392357046 -0.06457719466433892 0.09256539039887199
0.00866759918629699 -0.07709990243353707 0.08198260541013681
0.020614826127482826 -0.08619008731189369 0.06990684954746007
0.033832438330940975 -0.0914227023575117 0.05690277173374184
0.047702394940358585 -0.09255307630649184 0.04357842819455718
0.061576152200028864 -0.0895283541293003 0.030556850424854152
0.07480498864006332 -0.08248996847320522 0.01844691292869986
0.08677033857132165 -0.07176702642888184 0.007814862924185626
0.0969127155295495 -0.05786092084862864 -0.0008421567471522982
0.10475787324062245 -0.041421885773852016 -0.007119353467068438
0.10993898084923735 -0.02321859221397321 -0.010723212493542644
0.11221377552200287 -0.004102205944344515 -0.01148522138389858
0.12586625461281403 -0.005156751702108887 0.002815770112810962
0.1251283694790843 0.013978866301639187 0.004931242047374313
0.12141230722761213 0.03223895580936328 0.009825277690374916
0.11489182679916979 0.04876969533031405 0.01726903737447603
0.10587181861159778 0.06279812585708919 0.026914459169993753
0.09477404822272786 0.07366829356973743 0.03831053387388606
0.08211743504165774 0.08087192150733902 0.05092439369882625
0.06849378823391904 0.08407217603378908 0.06416622857869839
0.05454013438264569 0.08311941680425829 0.0774168650317621
0.04090893083355088 0.07805819378140365 0.09005671802449676
0.028237557514595682 0.0691251641286285 0.1014947620791497
0.017118513758954478 0.056738026384147246 0.11119616696819828
0.008071713694711527 0.041475989341576994 0.11870730578136769
0.0015201756380747316 0.024052688890492523 0.12367696601578532
-0.00222975777293912 0.0052828191953789615 0.12587277188227042
-0.00300274381978268 -0.013955961498032085 0.1251920499389691
-0.0007626385340178388 -0.032764069186885646 0.12166662998738206
0.004385813250891276 -0.050262057659361245 0.11546135674622261
0.01220187565157547 -0.06563174042210332 0.10686638189558152
0.022320078277108163 -0.07815444819130146 0.09628359690684636
0.034267305218294 -0.08724463306965809 0.08420784104416962
0.04748491742175215 -0.09247724811527609 0.07120376323045138
0.06135487403116976 -0.09360762206425624 0.05787941969126672
0.07522863129084004 -0.0905828998870647 0.044857841921563696
0.0884574677308745 -0.08354451423096962 0.0327479044254094
0.10042281766213282 -0.07282157218664624 0.022115854420895167
0.11056519462036067 -0.05891546660639303 0.013458834749557244
0.11841035233143363 -0.042476431531616406 0.007181638029641104
0.12359145994004853 -0.024273137971737604 0.0035777790031668983
0.12586625461281403 -0.0051567517021089086 0.002815770112810962
-0.06143615590865024 0.004745455909939766 -0.0643544617351929
-0.05427725605263204 0.00469975637747653 -0.07119209413767977
-0.047118356196613836 0.004654056845013295 -0.07802972654016666
-0.03995945634059564 0.004608357312550059 -0.08486735894265353
-0.03280055648457744 0.004562657780086824 -0.09170499134514042
-0.025641656628559238 0.004516958247623588 -0.0985426237476273
-0.01848275677254104 0.0044712587151603525 -0.10538025615011418
-0.011323856916522853 0.004425559182697117 -0.11221788855260105
-0.004164957060504641 0.0043798596502338805 -0.11905552095508794
0.002993942795513563 0.004334160117770645 -0.1258931533575748
-0.06143615590865024 0.004745455909939766 -0.0643544617351929
-0.05453617798241441 0.007912080919581631 -0.07070803892706459
-0.047636200056178586 0.011078705929223496 -0.07706161611893629
-0.04073622212994276 0.014245330938865361 -0.08341519331080799
-0.03383624420370693 0.017411955948507227 -0.08976877050267969
-0.026936266277471102 0.02057858095814909 -0.09612234769455137
-0.020036288351235276 0.023745205967790953 -0.10247592488642307
-0.013136310424999445 0.02691183097743282 -0.10882950207829477
-0.006236332498763619 0.030078455987074686 -0.11518307927016647
0.0006636454274722137 0.03324508099671655 -0.12153665646203816
-0.06143615590865024 0.004745455909939766 -0.0643544617351929
-0.05554281958469316 0.010781252506642431 -0.06953547504180231
-0.049649483260736094 0.016817049103345097 -0.07471648834841174
-0.04375614693677902 0.022852845700047763 -0.07989750165502117
-0.03786281061282194 0.028888642296750425 -0.08507851496163059
-0.031969474288864874 0.03492443889345309 -0.09025952826824002
-0.0260761379649078 0.04096023549015576 -0.09544054157484944
-0.02018280164095073 0.04699603208685842 -0.10062155488145887
-0.01428946531699365 0.053031828683561086 -0.1058025681880683
-0.008396128993036581 0.05906762528026375 -0.11098358149467773
-0.06143615590865024 0.004745455909939766 -0.0643544617351929
-0.05718809562220759 0.012996351877416684 -0.06780146797306442
-0.05294003533576495 0.0212472478448936 -0.07124847421093594
-0.048691975049322295 0.029498143812370523 -0.07469548044880747
-0.04444391476287965 0.037749039779847435 -0.078142486686679
-0.040195854476437004 0.04599993574732437 -0.08158949292455053
-0.03594779418999436 0.05425083171480128 -0.08503649916242205
-0.03169973390355171 0.06250172768227821 -0.08848350540029358
-0.02745167361710906 0.07075262364975511 -0.09193051163816511
-0.02320361333066641 0.07900351961723207 -0.09537751787603663
-0.06143615590865024 0.004745455909939766 -0.0643544617351929
-0.05929371490720493 0.014317338644272922 -0.06569392429264052
-0.057151273905759616 0.023889221378606076 -0.06703338685008815
-0.05500883290431431 0.03346110411293923 -0.06837284940753578
-0.052866391902868994 0.043032986847272386 -0.06971231196498341
-0.05072395090142369 0.05260486958160555 -0.07105177452243104
-0.04858150989997838 0.062176752315938694 -0.07239123707987867
-0.04643906889853307 0.07174863505027185 -0.07373069963732631
-0.044296627897087756 0.08132051778460501 -0.07507016219477394
-0.042154186895642445 0.09089240051893815 -0.07640962475222157
-0.06143615590865024 0.004745455909939766 -0.0643544617351929
-0.06163150091810619 0.014601063393800675 -0.06344122906021415
-0.06182684592756214 0.024456670877661582 -0.06252799638523543
-0.062022190937018086 0.03431227836152249 -0.06161476371025669
-0.062217535946474035 0.0441678858453834 -0.06070153103527796
-0.062412880955929985 0.054023493329244304 -0.059788298360299225
-0.06260822596538593 0.06387910081310522 -0.05887506568532049
-0.06280357097484188 0.07373470829696613 -0.05796183301034176
-0.06299891598429783 0.08359031578082704 -0.05704860033536302
-0.06319426099375378 0.09344592326468794 -0.05613536766038429
-0.06143615590865024 0.004745455909939766 -0.0643544617351929
-0.06394811826614277 0.013816780146945526 -0.061287496758386704
-0.0664600806236353 0.022888104383951283 -0.05822053178158052
-0.06897204298112783 0.03195942862095704 -0.05515356680477433
-0.07148400533862036 0.0410307528579628 -0.05208660182796815
-0.07399596769611289 0.050102077094968556 -0.04901963685116196
-0.07650793005360541 0.05917340133197431 -0.045952671874355776
-0.07901989241109794 0.06824472556898008 -0.04288570689754959
-0.08153185476859047 0.07731604980598585 -0.0398187419207434
-0.084043817126083 0.0863873740429916 -0.03675177694393722
-0.06143615590865024 0.004745455909939766 -0.0643544617351929
-0.0659925255156331 0.012049478162912661 -0.05946611770066107
-0.07054889512261597 0.019353500415885554 -0.054577773666129245
-0.07510526472959884 0.026657522668858447 -0.04968942963159743
-0.0796616343365817 0.033961544921831344 -0.0448010855970656
-0.08421800394356457 0.04126556717480424 -0.03991274156253378
-0.08877437355054744 0.04856958942777713 -0.03502439752800196
-0.09333074315753032 0.055873611680750015 -0.030136053493470132
-0.09788711276451317 0.06317763393372293 -0.025247709458938308
-0.10244348237149604 0.07048165618669582 -0.020359365424406483
-0.06143615590865024 0.004745455909939766 -0.0643544617351929
-0.06754317941884799 0.00949067203418776 -0.0581744665695498
-0.07365020292904574 0.014235888158435756 -0.0519944714039067
-0.07975722643924349 0.01898110428268375 -0.0458144762382636
-0.08586424994944124 0.023726320406931744 -0.03963448107262051
-0.091971273459639 0.02847153653117974 -0.033454485906977416
-0.09807829696983675 0.033216752655427735 -0.027274490741334315
-0.1041853204800345 0.037961968779675725 -0.021094495575691218
-0.11029234399023224 0.04270718490392372 -0.01491450041004813
-0.11639936750043 0.04745240102817172 -0.008734505244405026
-0.06143615590865024 0.004745455909939766 -0.0643544617351929
-0.0684320425644997 0.006417648108786104 -0.0575525138071411
-0.07542792922034916 0.008089840307632441 -0.0507505658790893
-0.08242381587619863 0.00976203250647878 -0.04394861795103751
-0.08941970253204809 0.011434224705325118 -0.0371466700229857
-0.09641558918789755 0.013106416904171456 -0.03034472209493391
-0.103411475843747 0.014778609103017794 -0.023542774166882118
-0.11040736249959647 0.01645080130186413 -0.01674082623883032
-0.11740324915544595 0.018122993500710467 -0.009938878310778517
-0.12439913581129543 0.019795185699556805 -0.0031369303827267123
-0.06143615590865024 0.004745455909939766 -0.0643544617351929
-0.06856279283862413 0.003163416211904095 -0.05766765764583339
-0.07568942976859801 0.0015813765138684237 -0.050980853556473894
-0.08281606669857189 -6.631841672461694e-07 -0.0442940494671144
-0.08994270362854577 -0.0015827028822029184 -0.037607245377754894
-0.09706934055851965 -0.0031647425802385906 -0.030920441288395394
-0.10419597748849353 -0.004746782278274258 -0.024233637199035898
-0.1113226144184674 -0.0063288219763099314 -0.017546833109676408
-0.1184492513484413 -0.007910861674345602 -0.0108600290203169
-0.12557588827841518 -0.009492901372381271 -0.004173224930957396
-0.06143615590865024 0.004745455909939766 -0.0643544617351929
-0.06792126142022033 8.06228641794215e-05 -0.05850742046406364
-0.07440636693179041 -0.004584210181580923 -0.052660379192934384
-0.08089147244336051 -0.009249043227341268 -0.04681333792180513
-0.08737657795493059 -0.013913876273101611 -0.04096629665067588
-0.09386168346650067 -0.01857870931886196 -0.03511925537954662
-0.10034678897807077 -0.023243542364622304 -0.029272214108417367
-0.10683189448964085 -0.027908375410382644 -0.02342517283728812
-0.11331700000121094 -0.03257320845614299 -0.017578131566158863
-0.11980210551278105 -0.03723804150190334 -0.011731090295029603
-0.06143615590865024 0.004745455909939766 -0.0643544617351929
-0.06657696819285797 -0.0024966634406945985 -0.0599808009302139
-0.0717177804770657 -0.009738782791328962 -0.05560714012523491
-0.07685859276127342 -0.01698090214196333 -0.05123347932025592
-0.08199940504548116 -0.024223021492597693 -0.04685981851527693
-0.08714021732968888 -0.031465140843232056 -0.042486157710297935
-0.09228102961389661 -0.03870726019386642 -0.03811249690531895
-0.09742184189810434 -0.04594937954450078 -0.03373883610033996
-0.10256265418231207 -0.05319149889513515 -0.02936517529536096
-0.1077034664665198 -0.0604336182457695 -0.024991514490381967
-0.06143615590865024 0.004745455909939766 -0.0643544617351929
-0.06467558818658034 -0.004289153740867466 -0.061928135408923335
-0.06791502046451044 -0.013323763391674697 -0.059501809082653775
-0.07115445274244053 -0.022358373042481932 -0.057075482756384216
-0.07439388502037063 -0.03139298269328916 -0.054649156430114657
-0.07763331729830072 -0.040427592344096396 -0.0522228301038451
-0.08087274957623082 -0.04946220199490363 -0.049796503777575545
-0.08411218185416092 -0.05849681164571086 -0.047370177451305985
-0.08735161413209103 -0.06753142129651808 -0.044943851125036426
-0.09059104641002111 -0.07656603094732531 -0.042517524798766866
-0.06143615590865024 0.004745455909939766 -0.0643544617351929
-0.06242316542801821 -0.0051026038989627305 -0.06413839999341607
-0.06341017494738617 -0.014950663707865226 -0.06392233825163925
-0.06439718446675415 -0.02479872351676772 -0.06370627650986242
-0.06538419398612211 -0.03464678332567022 -0.0634902147680856
-0.06637120350549008 -0.04449484313457272 -0.06327415302630877
-0.06735821302485805 -0.054342902943475206 -0.06305809128453195
-0.06834522254422601 -0.0641909627523777 -0.06284202954275513
-0.06933223206359398 -0.0740390225612802 -0.0626259678009783
-0.07031924158296195 -0.0838870823701827 -0.06240990605920147
-0.06143615590865024 0.004745455909939766 -0.0643544617351929
-0.0600637848730019 -0.004848863968371079 -0.06637207822017367
-0.058691413837353566 -0.014443183846681923 -0.06838969470515445
-0.05731904280170523 -0.02403750372499277 -0.07040731119013523
-0.055946671766056895 -0.033631823603303614 -0.072424927675116
-0.05457430073040856 -0.04322614348161446 -0.07444254416009678
-0.05320192969476022 -0.0528204633599253 -0.07646016064507755
-0.05182955865911189 -0.06241478323823615 -0.07847777713005832
-0.050457187623463545 -0.07200910311654699 -0.0804953936150391
-0.04908481658781521 -0.08160342299485783 -0.08251301010001988
-0.06143615590865024 0.004745455909939766 -0.0643544617351929
-0.057853122014228764 -0.003555430607752802 -0.06838711639423821
-0.05427008811980729 -0.01185631712544537 -0.07241977105328354
-0.050687054225385816 -0.020157203643137937 -0.07645242571232885
-0.04710402033096434 -0.028458090160830507 -0.08048508037137418
-0.04352098643654287 -0.03675897667852308 -0.0845177350304195
-0.039937952542121395 -0.04505986319621564 -0.08855038968946483
-0.03635491864769992 -0.0533607497139082 -0.09258304434851014
-0.03277188475327845 -0.06166163623160078 -0.09661569900755546
-0.029188850858856974 -0.06996252274929332 -0.10064835366660077
-0.06143615590865024 0.004745455909939766 -0.0643544617351929
-0.05603073647441537 -0.0013624673914173309 -0.06996515386291104
-0.05062531704018051 -0.007470390692774428 -0.07557584599062918
-0.04521989760594564 -0.013578313994131523 -0.0811865381183473
-0.03981447817171078 -0.019686237295488622 -0.08679723024606545
-0.03440905873747591 -0.02579416059684572 -0.09240792237378359
-0.029003639303241048 -0.031902083898202815 -0.09801861450150173
-0.023598219869006176 -0.03801000719955991 -0.10362930662921988
-0.01819280043477131 -0.04411793050091701 -0.10923999875693802
-0.012787381000536455 -0.05022585380227411 -0.11485069088465615
-0.06143615590865024 0.004745455909939766 -0.0643544617351929
-0.05479411200402566 0.001492384088815126 -0.07093518578068725
-0.048152068099401084 -0.0017606877323095137 -0.0775159098261816
-0.04151002419477651 -0.005013759553434153 -0.08409663387167596
-0.03486798029015192 -0.008266831374558792 -0.09067735791717031
-0.02822593638552734 -0.011519903195683431 -0.09725808196266465
-0.02158389248090277 -0.014772975016808071 -0.10383880600815901
-0.01494184857627818 -0.018026046837932713 -0.11041953005365336
-0.00829980467165361 -0.021279118659057353 -0.11700025409914772
-0.001657760767029019 -0.024532190480181994 -0.12358097814464207
-0.06143615590865024 0.004745455909939766 -0.0643544617351929
-0.05427725605263204 0.004699756377476528 -0.07119209413767977
-0.047118356196613836 0.0046540568450132895 -0.07802972654016666
-0.03995945634059564 0.004608357312550051 -0.08486735894265353
-0.03280055648457744 0.004562657780086814 -0.09170499134514042
-0.025641656628559238 0.004516958247623576 -0.0985426237476273
-0.01848275677254104 0.004471258715160338 -0.10538025615011418
-0.011323856916522853 0.0044255591826970996 -0.11221788855260105
-0.004164957060504641 0.004379859650233861 -0.11905552095508794
0.002993942795513563 0.004334160117770623 -0.1258931533575748
0.06143615590865024 -0.004745455909939766 0.0643544617351929
0.06859505576466844 -0.0047911554424030015 0.057516829332706014
0.07575395562068664 -0.004836854974866237 0.05067919693021913
0.08291285547670484 -0.004882554507329473 0.04384156452773225
0.09007175533272303 -0.004928254039792708 0.037003932125245366
0.09723065518874124 -0.004973953572255945 0.030166299722758482
0.10438955504475944 -0.00501965310471918 0.02332866732027161
0.11154845490077762 -0.005065352637182416 0.01649103491778473
0.11870735475679584 -0.005111052169645651 0.009653402515297843
0.12586625461281403 -0.005156751702108887 0.002815770112810962
0.06143615590865024 -0.004745455909939766 0.0643544617351929
0.06833613383488607 -0.0015788309002979007 0.058000884543321196
0.0752361117611219 0.0015877941093439644 0.0516473073514495
0.08213608968735772 0.004754419118985828 0.0452937301595778
0.08903606761359355 0.007921044128627694 0.0389401529677061
0.09593604553982937 0.011087669138269559 0.03258657577583441
0.1028360234660652 0.014254294147911422 0.02623299858396271
0.10973600139230104 0.01742091915755329 0.01987942139209101
0.11663597931853686 0.020587544167195156 0.013525844200219314
0.12353595724477269 0.02375416917683702 0.0071722670083476155
0.06143615590865024 -0.004745455909939766 0.0643544617351929
0.06732949223260731 0.0012903406867628992 0.059173448428583464
0.07322282855656438 0.007326137283465564 0.05399243512197404
0.07911616488052146 0.013361933880168231 0.04881142181536462
0.08500950120447853 0.019397730476870895 0.04363040850875519
0.0909028375284356 0.025433527073573558 0.03844939520214577
0.09679617385239268 0.03146932367027623 0.033268381895536346
0.10268951017634975 0.03750512026697889 0.028087368588926912
0.10858284650030683 0.043540916863681556 0.02290635528231749
0.1144761828242639 0.04957671346038422 0.017725341975708058
0.06143615590865024 -0.004745455909939766 0.0643544617351929
0.06568421619509289 0.0035054400575371516 0.060907455497321364
0.06993227648153554 0.011756336025014068 0.05746044925944984
0.07418033676797818 0.020007231992490992 0.05401344302157831
0.07842839705442083 0.028258127959967905 0.050566436783706786
0.08267645734086347 0.03650902392744484 0.047119430545835256
0.08692451762730612 0.04475991989492175 0.04367242430796373
0.09117257791374876 0.05301081586239868 0.04022541807009221
0.09542063820019142 0.061261711829875574 0.03677841183222068
0.09966869848663407 0.06951260779735252 0.033331405594349155
0.06143615590865024 -0.004745455909939766 0.0643544617351929
0.06357859691009556 0.0048264268243933895 0.06301499917774527
0.06572103791154087 0.014398309558726544 0.06167553662029763
0.06786347891298616 0.0239701922930597 0.06033607406285
0.07000591991443147 0.033542075027392856 0.05899661150540237
0.07214836091587679 0.04311395776172602 0.05765714894795474
0.0742908019173221 0.052685840496059164 0.056317686390507105
0.07643324291876741 0.06225772323039231 0.054978223833059475
0.07857568392021272 0.07182960596472547 0.053638761275611846
0.08071812492165803 0.08140148869905861 0.05229929871816421
0.06143615590865024 -0.004745455909939766 0.0643544617351929
0.06124081089919429 0.005110151573921143 0.06526769441017162
0.06104546588973834 0.01496575905778205 0.06618092708515036
0.06085012088028239 0.024821366541642957 0.0670941597601291
0.06065477587082645 0.03467697402550387 0.06800739243510782
0.0604594308613705 0.044532581509364774 0.06892062511008656
0.06026408585191455 0.05438818899322568 0.06983385778506529
0.0600687408424586 0.06424379647708658 0.07074709046004403
0.05987339583300265 0.0740994039609475 0.07166032313502275
0.0596780508235467 0.0839550114448084 0.0725735558100015
0.06143615590865024 -0.004745455909939766 0.0643544617351929
0.05892419355115771 0.004325868327065993 0.06742142671199908
0.05641223119366518 0.013397192564071752 0.07048839168880526
0.05390026883617265 0.022468516801077507 0.07355535666561144
0.051388306478680125 0.03153984103808327 0.07662232164241764
0.0488763441211876 0.040611165275089026 0.07968928661922382
0.04636438176369507 0.04968248951209478 0.08275625159603
0.04385241940620254 0.05875381374910054 0.08582321657283619
0.041340457048710005 0.0678251379861063 0.08889018154964239
0.03882849469121748 0.07689646222311206 0.09195714652644857
0.06143615590865024 -0.004745455909939766 0.0643544617351929
0.05687978630166737 0.0025585663430331288 0.06924280576972472
0.05232341669468451 0.009862588596006023 0.07413114980425654
0.04776704708770164 0.017166610848978917 0.07901949383878835
0.04321067748071877 0.024470633101951814 0.08390783787332018
0.03865430787373591 0.03177465535492471 0.088796181907852
0.03409793826675304 0.0390786776078976 0.09368452594238383
0.029541568659770166 0.046382699860870485 0.09857286997691565
0.02498519905278731 0.05368672211384339 0.10346121401144748
0.020428829445804438 0.06099074436681628 0.1083495580459793
0.06143615590865024 -0.004745455909939766 0.0643544617351929
0.05532913239845249 -2.3978569177125377e-07 0.07053445690083598
0.049222108888254734 0.0047449763385562236 0.07671445206647909
0.043115085378056986 0.009490192462804218 0.08289444723212218
0.03700806186785924 0.014235408587052212 0.08907444239776527
0.03090103835766148 0.01898062471130021 0.09525443756340837
0.024794014847463734 0.023725840835548205 0.10143443272905146
0.01868699133726598 0.028471056959796195 0.10761442789469457
0.012579967827068233 0.03321627308404419 0.11379442306033766
0.0064729443168704765 0.03796148920829219 0.11997441822598076
0.06143615590865024 -0.004745455909939766 0.0643544617351929
0.05444026925280077 -0.003073263711093428 0.07115640966324469
0.047444382596951315 -0.0014010715122470905 0.07795835759129649
0.04044849594110186 0.00027112068659924753 0.08476030551934828
0.033452609285252385 0.001943312885445585 0.09156225344740009
0.02645672262940292 0.003615505084291923 0.09836420137545188
0.01946083597355347 0.005287697283138261 0.10516614930350367
0.012464949317704007 0.0069598894819845976 0.11196809723155546
0.005469062661854534 0.008632081680830935 0.11877004515960726
-0.0015268239939949444 0.010304273879677271 0.12557199308765907
0.06143615590865024 -0.004745455909939766 0.0643544617351929
0.054309518978676356 -0.006327495607975437 0.07104126582455239
0.047182882048702475 -0.007909535306011108 0.07772806991391189
0.040056245118728594 -0.009491575004046779 0.08441487400327138
0.03292960818875471 -0.01107361470208245 0.0911016780926309
0.025802971258780824 -0.012655654400118123 0.09778848218199039
0.018676334328806943 -0.014237694098153791 0.10447528627134989
0.011549697398833077 -0.015819733796189464 0.11116209036070937
0.004423060468859188 -0.017401773494225135 0.11784889445006888
-0.002703576461114707 -0.018983813192260803 0.12453569853942839
0.06143615590865024 -0.004745455909939766 0.0643544617351929
0.054951050397080155 -0.00941028895570011 0.07020150300632215
0.048465944885510065 -0.014075122001460456 0.0760485442774514
0.041980839373939975 -0.0187399550472208 0.08189558554858066
0.03549573386236989 -0.023404788092981143 0.0877426268197099
0.029010628350799803 -0.02806962113874149 0.09358966809083917
0.022525522839229706 -0.032734454184501834 0.09943670936196841
0.016040417327659623 -0.037399287230262174 0.10528375063309767
0.009555311816089542 -0.04206412027602252 0.11113079190422692
0.0030702063045194377 -0.04672895332178287 0.11697783317535618
0.06143615590865024 -0.004745455909939766 0.0643544617351929
0.05629534362444251 -0.01198757526057413 0.06872812254017188
0.05115453134023478 -0.019229694611208496 0.07310178334515087
0.04601371905602705 -0.02647181396184286 0.07747544415012987
0.040872906771819324 -0.033713933312477226 0.08184910495510886
0.035732094487611596 -0.040956052663111586 0.08622276576008785
0.030591282203403864 -0.04819817201374595 0.09059642656506683
0.02545046991919614 -0.05544029136438031 0.09497008737004582
0.020309657634988404 -0.06268241071501468 0.09934374817502482
0.015168845350780677 -0.06992453006564904 0.10371740898000381
0.06143615590865024 -0.004745455909939766 0.0643544617351929
0.05819672363072014 -0.013780065560746999 0.06678078806146245
0.054957291352790046 -0.02281467521155423 0.06920711438773201
0.05171785907485994 -0.031849284862361465 0.07163344071400157
0.04847842679692985 -0.04088389451316869 0.07405976704027113
0.04523899451899975 -0.049918504163975926 0.07648609336654069
0.041999562241069655 -0.05895311381478316 0.07891241969281024
0.03876012996313956 -0.0679877234655904 0.0813387460190798
0.035520697685209456 -0.07702233311639763 0.08376507234534936
0.032281265407279366 -0.08605694276720485 0.08619139867161892
0.06143615590865024 -0.004745455909939766 0.0643544617351929
0.06044914638928227 -0.014593515718842263 0.06457052347696972
0.059462136869914306 -0.024441575527744758 0.06478658521874654
0.05847512735054634 -0.03428963533664725 0.06500264696052337
0.05748811783117837 -0.04413769514554975 0.06521870870230019
0.0565011083118104 -0.05398575495445225 0.06543477044407701
0.05551409879244243 -0.06383381476335474 0.06565083218585384
0.05452708927307447 -0.07368187457225725 0.06586689392763066
0.0535400797537065 -0.08352993438115974 0.06608295566940749
0.05255307023433853 -0.09337799419006225 0.06629901741118431
0.06143615590865024 -0.004745455909939766 0.0643544617351929
0.06280852694429857 -0.014339775788250611 0.06233684525021212
0.06418089797994692 -0.023934095666561454 0.06031922876523134
0.06555326901559524 -0.0335284155448723 0.05830161228025056
0.06692564005124359 -0.043122735423183144 0.056283995795269784
0.06829801108689192 -0.05271705530149399 0.054266379310289006
0.06967038212254026 -0.06231137517980483 0.05224876282530823
0.07104275315818859 -0.07190569505811568 0.05023114634032746
0.07241512419383693 -0.08150001493642653 0.04821352985534668
0.07378749522948527 -0.09109433481473737 0.0461959133703659
0.06143615590865024 -0.004745455909939766 0.0643544617351929
0.06501918980307171 -0.013046342427632335 0.06032180707614757
0.06860222369749319 -0.0213472289453249 0.05628915241710225
0.07218525759191466 -0.029648115463017467 0.05225649775805693
0.07576829148633614 -0.03794900198071004 0.04822384309901161
0.0793513253807576 -0.04624988849840261 0.04419118843996629
0.08293435927517909 -0.05455077501609517 0.04015853378092096
0.08651739316960055 -0.06285166153378774 0.03612587912187565
0.09010042706402203 -0.07115254805148032 0.032093224462830326
0.0936834609584435 -0.07945343456917286 0.028060569803785008
0.06143615590865024 -0.004745455909939766 0.0643544617351929
0.06684157534288511 -0.010853379211296863 0.05874376960747475
0.07224699477711997 -0.01696130251265396 0.05313307747975661
0.07765241421135484 -0.023069225814011055 0.047522385352038475
0.0830578336455897 -0.029177149115368152 0.04191169322432033
0.08846325307982457 -0.03528507241672525 0.03630100109660219
0.09386867251405943 -0.041392995718082345 0.030690308968884052
0.0992740919482943 -0.04750091901943944 0.025079616841165903
0.10467951138252916 -0.05360884232079654 0.019468924713447768
0.11008493081676403 -0.05971676562215364 0.013858232585729635
0.06143615590865024 -0.004745455909939766 0.0643544617351929
0.06807819981327481 -0.007998527731064405 0.05777373768969854
0.0747202437178994 -0.011251599552189046 0.051193013644204186
0.08136228762252397 -0.014504671373313686 0.04461228959870983
0.08800433152714855 -0.017757743194438326 0.03803156555321548
0.09464637543177314 -0.021010815015562963 0.03145084150772113
0.1012884193363977 -0.024263886836687603 0.02487011746222677
0.1079304632410223 -0.027516958657812243 0.018289393416732417
0.11457250714564687 -0.030770030478936884 0.011708669371238064
0.12121455105027146 -0.034023102300061524 0.00512794532574371
0.06143615590865024 -0.004745455909939766 0.0643544617351929
0.06859505576466844 -0.004791155442403004 0.057516829332706014
0.07575395562068664 -0.004836854974866242 0.05067919693021913
0.08291285547670484 -0.00488255450732948 0.04384156452773225
0.09007175533272303 -0.004928254039792719 0.037003932125245366
0.09723065518874124 -0.004973953572255957 0.030166299722758482
0.10438955504475944 -0.005019653104719194 0.02332866732027161
0.11154845490077762 -0.005065352637182432 0.01649103491778473
0.11870735475679584 -0.00511105216964567 0.009653402515297843
0.12586625461281403 -0.0051567517021089086 0.002815770112810962
