# .PCD v0.7 - Point Cloud Data file format
VERSION 0.7
FIELDS x y z
SIZE 4 4 4
TYPE F F F
COUNT 1 1 1
WIDTH 700
HEIGHT 1
VIEWPOINT 0 0 0 1 0 0 0
POINTS 700
DATA ascii
0.04371379310072609 -0.07791930365256847 -0.12209499462755691
0.04509996572091977 -0.057328926581558935 -0.1325476841405971
0.042057802345733385 -0.03593896150472802 -0.14081560144339939
0.03472955115346888 -0.014749579415829626 -0.1465121479120149
0.023457873025110355 0.005248427728966033 -0.14937095936482775
0.008769819102369368 0.023119975341756957 -0.1492583609556452
-0.008647813537926131 0.038029409718967525 -0.14617961766093646
-0.0279805957518242 0.04927958227976552 -0.14027868809538468
-0.048324548129847156 0.056344447458876804 -0.13183149316706294
-0.06872841006947772 0.05889366001255977 -0.12123301432243667
-0.0882381196636825 0.05680802159505048 -0.10897882465291744
-0.10594142457532135 0.05018505434073106 -0.09564191644789835
-0.12101053794253624 0.039334440837514056 -0.08184590871213723
-0.13274084477239279 0.024763543713219163 -0.06823588743419702
-0.14058384895482653 0.007153681922989444 -0.05544824208258197
-0.14417282033113998 -0.012671726967819673 -0.04408090874148656
-0.14333994258863186 -0.033785668873833316 -0.03466541128405684
-0.13812416016486476 -0.05520087933798725 -0.027642007906828414
-0.1287693572490482 -0.07591600692027456 -0.02333910514576827
-0.11571295402840912 -0.09496243527815817 -0.02195790195165065
-0.09956545340639462 -0.11144957459020818 -0.023562981850735423
-0.0810818945654322 -0.12460650454633239 -0.028079293090859533
-0.061126548173925065 -0.13381802172465973 -0.035295657977954226
-0.040632504050365545 -0.13865340581979765 -0.044874647310312446
-0.020558040920477232 -0.13888655964560098 -0.056368358193035116
-0.0018418183690503895 -0.134506581188307 -0.06923935747958827
0.014641013838997553 -0.12571827337258232 -0.08288581154842092
0.028119736788970486 -0.11293256770438771 -0.09666962737421879
0.03796410037625234 -0.09674730957047667 -0.1099462890485786
0.04371379310072609 -0.07791930365256848 -0.1220949946275569
0.054737302539753105 -0.06897959452042506 -0.10302311186952558
0.056123475159946784 -0.04838921744941553 -0.11347580138256576
0.0530813117847604 -0.02699925237258462 -0.12174371868536807
0.0457530605924959 -0.0058098702836862255 -0.12744026515398357
0.03448138246413737 0.014188136861109434 -0.13029907660679643
0.019793328541396385 0.03205968447390036 -0.1301864781976139
0.0023756959011008855 0.04696911885111093 -0.12710773490290514
-0.016957086312797184 0.05821929141190892 -0.12120680533735335
-0.037301038690820146 0.0652841565910202 -0.11275961040903161
-0.05770490063045071 0.06783336914470317 -0.10216113156440534
-0.07721461022465549 0.06574773072719388 -0.08990694189488613
-0.09491791513629434 0.059124763472874466 -0.07657003368986702
-0.10998702850350923 0.04827414996965746 -0.06277402595410592
-0.12171733533336578 0.03370325284536257 -0.04916400467616569
-0.12956033951579954 0.016093391055132845 -0.03637635932455064
-0.13314931089211296 -0.003732017835676272 -0.025009025983455235
-0.13231643314960487 -0.02484595974168991 -0.015593528526025514
-0.12710065072583776 -0.046261170205843846 -0.008570125148797087
-0.11774584781002119 -0.06697629778813116 -0.0042672223877369434
-0.1046894445893821 -0.08602272614601476 -0.002886019193619321
-0.08854194396736761 -0.10250986545806479 -0.004491099092704095
-0.07005838512640519 -0.11566679541418899 -0.009007410332828206
-0.05010303873489805 -0.12487831259251632 -0.0162237752199229
-0.02960899461133853 -0.12971369668765426 -0.02580276455228112
-0.009534531481450215 -0.12994685051345758 -0.037296475435003786
0.009181691069976627 -0.12556687205616357 -0.05016747472155694
0.02566452327802457 -0.11677856424043892 -0.0638139287903896
0.0391432462279975 -0.10399285857224431 -0.07759774461618746
0.04898760981527936 -0.08780760043833326 -0.09087440629054729
0.054737302539753105 -0.06897959452042508 -0.10302311186952556
0.06576081197878011 -0.06003988538828166 -0.08395122911149425
0.0671469845989738 -0.03944950831727213 -0.09440391862453443
0.06410482122378741 -0.01805954324044122 -0.10267183592733674
0.056776570031522915 0.003129838848457176 -0.10836838239595223
0.04550489190316439 0.023127845993252835 -0.11122719384876509
0.030816837980423402 0.04099939360604376 -0.11111459543958255
0.013399205340127902 0.055908827983254326 -0.1080358521448738
-0.005933576873770167 0.06715900054405233 -0.10213492257932202
-0.026277529251793125 0.07422386572316361 -0.09368772765100028
-0.04668139119142369 0.07677307827684658 -0.08308924880637401
-0.06619110078562848 0.07468743985933729 -0.0708350591368548
-0.08389440569726733 0.06806447260501787 -0.0574981509318357
-0.09896351906448222 0.05721385910180086 -0.043702143196074586
-0.11069382589433877 0.042642961977505965 -0.030092121918134363
-0.11853683007677251 0.025033100187276246 -0.017304476566519317
-0.12212580145308595 0.005207691296467129 -0.005937143225423907
-0.12129292371057784 -0.01590625060954651 0.003478354232005814
-0.11607714128681074 -0.03732146107370045 0.01050175760923424
-0.10672233837099418 -0.05803658865598776 0.014804660370294383
-0.0936659351503551 -0.07708301701387137 0.016185863564412005
-0.0775184345283406 -0.09357015632592137 0.01458078366532723
-0.05903487568737817 -0.10672708628204558 0.01006447242520312
-0.03907952929587103 -0.11593860346037291 0.0028481075381084292
-0.018585485172311515 -0.12077398755551084 -0.006730881794249791
0.0014889779575768015 -0.12100714138131417 -0.018224592676972462
0.020205200509003644 -0.11662716292402017 -0.03109559196352562
0.03668803271705159 -0.10783885510829551 -0.044742046032358276
0.05016675566702452 -0.0950531494401009 -0.058525861858156135
0.060011119254306376 -0.07886789130618986 -0.07180252353251595
0.06576081197878011 -0.06003988538828168 -0.08395122911149423
0.07678432141780714 -0.05110017625613826 -0.06487934635346293
0.07817049403800082 -0.030509799185128736 -0.07533203586650311
0.07512833066281444 -0.00911983410829782 -0.08359995316930542
0.06780007947054993 0.012069547980600575 -0.08929649963792091
0.056528401342191406 0.03206755512539623 -0.09215531109073377
0.04184034741945042 0.049939102738187156 -0.09204271268155123
0.024422714779154916 0.06484853711539773 -0.08896396938684248
0.005089932565256847 0.07609870967619572 -0.08306303982129071
-0.015254019812766112 0.08316357485530701 -0.07461584489296896
-0.035657881752396675 0.08571278740898998 -0.0640173660483427
-0.05516759134660146 0.08362714899148069 -0.051763176378823474
-0.07287089625824031 0.07700418173716127 -0.03842626817380438
-0.0879400096254552 0.06615356823394426 -0.024630260438043262
-0.09967031645531174 0.05158267110964936 -0.011020239160103041
-0.10751332063774549 0.03397280931941964 0.0017674061915120053
-0.11110229201405893 0.014147400428610528 0.013134739532607414
-0.11026941427155082 -0.0069665414774031115 0.022550236990037137
-0.10505363184778371 -0.02838175194155705 0.029573640367265563
-0.09569882893196716 -0.04909687952384436 0.033876543128325706
-0.08264242571132807 -0.06814330788172797 0.03525774632244333
-0.06649492508931358 -0.08463044719377798 0.033652666423358554
-0.04801136624835115 -0.09778737714990218 0.029136355183234444
-0.028056019856844017 -0.10699889432822951 0.021919990296139752
-0.007561975733284501 -0.11183427842336745 0.01234100096378153
0.012512487396603815 -0.11206743224917078 0.00084729008105886
0.031228709948030658 -0.10768745379187677 -0.012023709205494297
0.047711542156078604 -0.09889914597615211 -0.025670163274326953
0.061190265106051536 -0.0861134403079575 -0.03945397910012482
0.0710346286933334 -0.06992818217404646 -0.05273064077448463
0.07678432141780714 -0.05110017625613828 -0.06487934635346292
0.08780783085683415 -0.042160467123994856 -0.045807463595431606
0.08919400347702783 -0.021570090052985335 -0.05626015310847178
0.08615184010184145 -0.00018012497615441981 -0.06452807041127409
0.07882358890957694 0.021009257112743974 -0.07022461687988958
0.06755191078121842 0.04100726425753964 -0.07308342833270244
0.052863856858477436 0.05887881187033056 -0.0729708299235199
0.035446224218181936 0.07378824624754113 -0.06989208662881115
0.016113442004283864 0.08503841880833912 -0.06399115706325938
-0.004230510373739095 0.09210328398745041 -0.05554396213493764
-0.02463437231336966 0.09465249654113338 -0.044945483290311374
-0.04414408190757444 0.09256685812362409 -0.03269129362079215
-0.06184738681921329 0.08594389086930466 -0.01935438541577305
-0.07691650018642819 0.07509327736608766 -0.005558377680011937
-0.08864680701628473 0.06052238024179277 0.008051643597928286
-0.09648981119871848 0.04291251845156305 0.020839288949543334
-0.10007878257503192 0.023087109560753927 0.03220662229063874
-0.09924590483252381 0.0019731676547402894 0.04162211974806846
-0.0940301224087567 -0.01944204280941365 0.04864552312529689
-0.08467531949294015 -0.040157170391700955 0.05294842588635703
-0.07161891627230106 -0.059203598749584564 0.05432962908047465
-0.055471415650286564 -0.07569073806163458 0.05272454918138988
-0.036987856809324135 -0.08884766801775879 0.04820823794126577
-0.017032510417817 -0.09805918519608611 0.040991873054171075
0.003461533705742516 -0.10289456929122405 0.031412883721812855
0.023535996835630832 -0.10312772311702738 0.01991917283909019
0.04225221938705768 -0.09874774465973338 0.00704817355253703
0.05873505159510562 -0.08995943684400871 -0.0065982805162956275
0.07221377454507855 -0.07717373117581411 -0.020382096342093488
0.0820581381323604 -0.06098847304190306 -0.03365875801645331
0.08780783085683415 -0.04216046712399488 -0.04580746359543159
0.09883134029586117 -0.03322075799185146 -0.02673558083740028
0.10021751291605485 -0.012630380920841932 -0.03718827035044045
0.09717534954086847 0.008759584155988981 -0.04545618765324276
0.08984709834860397 0.029948966244887378 -0.05115273412185826
0.07857542022024544 0.049946973389683035 -0.05401154557467112
0.06388736629750445 0.06781852100247396 -0.05389894716548858
0.046469733657208946 0.08272795537968453 -0.050820203870779825
0.02713695144331088 0.09397812794048252 -0.04491927430522805
0.006792999065287922 0.1010429931195938 -0.03647207937690631
-0.013610862874342645 0.10359220567327677 -0.025873600532280046
-0.03312057246854743 0.10150656725576748 -0.013619410862760821
-0.05082387738018628 0.09488360000144806 -0.00028250265774172443
-0.06589299074740117 0.08403298649823106 0.01351350507801939
-0.07762329757725771 0.06946208937393616 0.02712352635595961
-0.08546630175969146 0.051852227583706445 0.03991117170757466
-0.08905527313600489 0.03202681869289733 0.05127850504867007
-0.08822239539349679 0.01091287678688369 0.06069400250609979
-0.08300661296972968 -0.010502333677270248 0.06771740588332821
-0.07365181005391312 -0.031217461259557554 0.07202030864438835
-0.060595406833274044 -0.05026388961744117 0.07340151183850598
-0.044447906211259554 -0.06675102892949118 0.0717964319394212
-0.02596434737029712 -0.07990795888561539 0.06728012069929709
-0.0060090009787899835 -0.08911947606394272 0.060063755812202406
0.014485043144769533 -0.09395486015908065 0.050484766479844186
0.03455950627465785 -0.09418801398488398 0.038991055597121516
0.05327572882608469 -0.08980803552758998 0.026120056310568355
0.06975856103413264 -0.08101972771186532 0.0124736022417357
0.08323728398410557 -0.06823402204367071 -0.0013102135840621625
0.09308164757138743 -0.05204876390975966 -0.01458687525842198
0.09883134029586117 -0.03322075799185148 -0.026735580837400266
0.10985484973488818 -0.02428104885970806 -0.007663698079368962
0.11124102235508186 -0.003690671788698536 -0.018116387592409137
0.10819885897989548 0.017699293288132377 -0.026384304895211447
0.10087060778763098 0.03888867537703077 -0.03208085136382694
0.08959892965927245 0.05888668252182643 -0.0349396628166398
0.07491087573653146 0.07675823013461736 -0.03482706440745726
0.05749324309623596 0.09166766451182792 -0.03174832111274851
0.03816046088233789 0.10291783707262592 -0.02584739154719674
0.017816508504314932 0.1099827022517372 -0.017400196618874996
-0.0025873534353156344 0.11253191480542017 -0.006801717774248729
-0.022097063029520417 0.11044627638791088 0.005452471895270494
-0.039800367941159265 0.10382330913359146 0.01878938010028959
-0.05486948130837416 0.09297269563037446 0.03258538783605071
-0.0665997881382307 0.07840179850607956 0.04619540911399093
-0.07444279232066445 0.06079193671584984 0.05898305446560598
-0.07803176369697788 0.040966527825040726 0.07035038780670139
-0.07719888595446978 0.019852585919027086 0.0797658852641311
-0.07198310353070267 -0.0015626245451268515 0.08678928864135953
-0.06262830061488611 -0.02227775212741416 0.09109219140241967
-0.04957189739424703 -0.04132418048529777 0.09247339459653729
-0.03342439677223254 -0.057811319797347785 0.09086831469745252
-0.014940837931270112 -0.07096824975347199 0.08635200345732841
0.005014508460237026 -0.08017976693179932 0.07913563857023372
0.025508552583796543 -0.08501515102693726 0.0695566492378755
0.04558301571368486 -0.08524830485274058 0.05806293835515283
0.0642992382651117 -0.08086832639544658 0.045191939068599675
0.08078207047315965 -0.07208001857972192 0.03154548499976702
0.09426079342313258 -0.059294312911527314 0.017761669173969152
0.10410515701041444 -0.043109054777616264 0.004485007499609337
0.10985484973488818 -0.024281048859708082 -0.007663698079368948
0.12087835917391519 -0.01534133972756466 0.011408184678662364
0.12226453179410887 0.005249037343444865 0.0009554951656221909
0.11922236841892249 0.026639002420275778 -0.0073124221371801195
0.11189411722665799 0.04782838450917418 -0.013008968605795618
0.10062243909829946 0.06782639165396984 -0.015867780058608477
0.08593438517555847 0.08569793926676075 -0.015755181649425937
0.06851675253526297 0.10060737364397132 -0.012676438354717184
0.04918397032136491 0.11185754620476931 -0.006775508789165412
0.02884001794334195 0.1189224113838806 0.0016716861391563316
0.008436156003711382 0.12147162393756357 0.012270164983782597
-0.0110735535904934 0.11938598552005428 0.02452435465330182
-0.02877685850213225 0.11276301826573486 0.03786126285832092
-0.04384597186934714 0.10191240476251785 0.05165727059408203
-0.05557627869920368 0.08734150763822296 0.06526729187202225
-0.06341928288163744 0.06973164584799324 0.07805493722363731
-0.06700825425795087 0.04990623695718413 0.08942227056473272
-0.06617537651544277 0.028792295051170487 0.09883776802216243
-0.06095959409167565 0.00737708458701655 0.10586117139939086
-0.051604791175859095 -0.01333804299527076 0.110164074160451
-0.03854838795522001 -0.032384471353154365 0.11154527735456862
-0.022400887333205523 -0.04887161066520438 0.10994019745548385
-0.003917328492243095 -0.062028540621328586 0.10542388621535974
0.016038017899264043 -0.07124005779965592 0.09820752132826505
0.03653206202282356 -0.07607544189479386 0.08862853199590683
0.056606525152711876 -0.07630859572059719 0.07713482111318416
0.07532274770413872 -0.07192861726330319 0.064263821826631
0.09180557991218666 -0.06314030944757852 0.05061736775779834
0.10528430286215959 -0.05035460377938391 0.03683355193200048
0.11512866644944145 -0.03416934564547286 0.023556890257640663
0.12087835917391519 -0.015341339727564681 0.011408184678662378
0.13190186861294223 -0.006401630595421256 0.030480067436693698
0.1332880412331359 0.014188746475588269 0.020027377923653524
0.13024587785794953 0.03557871155241918 0.011759460620851214
0.12291762666568501 0.056768093641317574 0.006062914152235715
0.11164594853732648 0.07676610078611323 0.003204102699422856
0.0969578946145855 0.09463764839890416 0.0033167011086053964
0.07954026197429 0.10954708277611473 0.006395444403314149
0.06020747976039193 0.12079725533691273 0.01229637396886592
0.03986352738236897 0.127862120516024 0.020743568897187665
0.019459665442738402 0.13041133306970698 0.03134204774181393
-5.0044151466380146e-05 0.12832569465219767 0.04359623741133315
-0.01775334906310523 0.12170272739787827 0.05693314561635225
-0.03282246243032012 0.11085211389466126 0.07072915335211337
-0.044552769260176664 0.09628121677036637 0.08433917463005358
-0.05239577344261041 0.07867135498013665 0.09712681998166864
-0.05598474481892385 0.05884594608932753 0.10849415332276405
-0.05515186707641574 0.03773200418331389 0.11790965078019376
-0.049936084652648635 0.016316793719159953 0.12493305415742219
-0.04058128173683208 -0.004398333863127355 0.12923595691848233
-0.027524878516192994 -0.023444762221010964 0.13061716011259997
-0.011377377894178503 -0.03993190153306098 0.12901208021351518
0.007106180946783926 -0.05308883148918519 0.12449576897339107
0.027061527338291064 -0.062300348667512516 0.11727940408629638
0.04755557146185058 -0.06713573276265045 0.10770041475393816
0.0676300345917389 -0.06736888658845377 0.0962067038712155
0.08634625714316574 -0.06298890813115977 0.08333570458466233
0.10282908935121368 -0.05420060031543512 0.06968925051582968
0.11630781230118661 -0.04141489464724051 0.05590543469003181
0.12615217588846847 -0.02522963651332946 0.04262877301567199
0.13190186861294223 -0.006401630595421277 0.030480067436693712
0.14292537805196923 0.002538078536722145 0.049551950194725025
0.14431155067216292 0.02312845560773167 0.03909926068168485
0.14126938729697652 0.04451842068456258 0.03083134337888254
0.13394113610471203 0.06570780277346099 0.025134796910267043
0.1226694579763535 0.08570580991825665 0.022275985457454184
0.1079814040536125 0.10357735753104756 0.022388583866636724
0.090563771413317 0.11848679190825813 0.025467327161345477
0.07123098919941895 0.12973696446905614 0.03136825672689725
0.05088703682139598 0.13680182964816742 0.03981545165521899
0.03048317488176542 0.13935104220185038 0.05041393049984526
0.010973465287560637 0.1372654037843411 0.06266812016936447
-0.006729839624078214 0.13064243653002167 0.07600502837438358
-0.021798952991293107 0.11979182302680466 0.08980103611014469
-0.03352925982114965 0.10522092590250977 0.10341105738808491
-0.041372264003583396 0.08761106411228005 0.11619870273969995
-0.04496123537989683 0.06778565522147094 0.12756603608079536
-0.044128357637388725 0.046671713315457296 0.1369815335382251
-0.03891257521362162 0.025256502851303354 0.14400493691545352
-0.02955777229780506 0.004541375269016046 0.14830783967651365
-0.016501369077165977 -0.014505053088867563 0.14968904287063128
-0.0003538684551514862 -0.03099219240091758 0.1480839629715465
0.018129690385810943 -0.044149122357041784 0.14356765173142239
0.03808503677731808 -0.05336063953536911 0.1363512868443277
0.05857908090087759 -0.05819602363050705 0.12677229751196947
0.07865354403076591 -0.05842917745631038 0.11527858662924681
0.09736976658219275 -0.054049198999016376 0.10240758734269366
0.11385259879024069 -0.04526089118329171 0.088761133273861
0.12733132174021364 -0.03247518551509711 0.07497731744806314
0.1371756853274955 -0.016289927381186058 0.061700655773703324
0.14292537805196923 0.0025380785367221242 0.04955195019472504
-0.04960579247562157 -0.0402286910946453 -0.08582347241114097
-0.03923694963380517 -0.044416536934414545 -0.0898536415462983
-0.02886810679198876 -0.04860438277418378 -0.09388381068145561
-0.01849926395017236 -0.052792228613953024 -0.09791397981661294
-0.008130421108355948 -0.05698007445372226 -0.10194414895177027
0.0022384217334604564 -0.0611679202934915 -0.1059743180869276
0.012607264575276854 -0.06535576613326075 -0.11000448722208492
0.022976107417093265 -0.06954361197302998 -0.11403465635724225
0.03334495025890968 -0.07373145781279922 -0.11806482549239958
0.04371379310072609 -0.07791930365256847 -0.12209499462755691
-0.04960579247562157 -0.0402286910946453 -0.08582347241114097
-0.039199968781873304 -0.04088190489959288 -0.09153183144799103
-0.028794145088125042 -0.04153511870454047 -0.09724019048484107
-0.018388321394376784 -0.04218833250948805 -0.10294854952169114
-0.007982497700628512 -0.04284154631443564 -0.1086569085585412
0.00242332599311975 -0.043494760119383226 -0.11436526759539124
0.012829149686868005 -0.0441479739243308 -0.1200736266322413
0.023234973380616288 -0.044801187729278394 -0.12578198566909135
0.03364079707436455 -0.045454401534225974 -0.13149034470594143
0.04404662076811281 -0.04610761533917356 -0.13719870374279147
-0.04960579247562157 -0.0402286910946453 -0.08582347241114097
-0.04029062039014979 -0.03727648701334866 -0.09259143207372446
-0.030975448304678008 -0.03432428293205202 -0.09935939173630796
-0.02166027621920623 -0.03137207885075538 -0.10612735139889146
-0.012345104133734443 -0.028419874769458744 -0.11289531106147496
-0.0030299320482626638 -0.0254676706881621 -0.11966327072405845
0.006285240037209115 -0.022515466606865462 -0.12643123038664195
0.015600412122680908 -0.019563262525568826 -0.13319919004922545
0.024915584208152687 -0.016611058444272183 -0.13996714971180896
0.034230756293624466 -0.01365885436297554 -0.14673510937439244
-0.04960579247562157 -0.0402286910946453 -0.08582347241114097
-0.042390715433674495 -0.03399098624747903 -0.09291761925430267
-0.035175638391727417 -0.02775328140031276 -0.10001176609746439
-0.027960561349780345 -0.021515576553146492 -0.10710591294062609
-0.020745484307833267 -0.015277871705980217 -0.1142000597837878
-0.013530407265886196 -0.00904016685881395 -0.12129420662694951
-0.006315330223939118 -0.0028024620116476814 -0.1283883534701112
0.0008997468180079529 0.00343524283551859 -0.13548250031327294
0.008114823859955038 0.009672947682684868 -0.14257664715643464
0.015329900901902109 0.015910652529851133 -0.14967079399959635
-0.04960579247562157 -0.0402286910946453 -0.08582347241114097
-0.04527267602814944 -0.03138143758976298 -0.09247504554739441
-0.04093955958067731 -0.022534184084880653 -0.09912661868364786
-0.03660644313320518 -0.01368693057999833 -0.10577819181990131
-0.032273326685733045 -0.004839677075116004 -0.11242976495615475
-0.027940210238260918 0.0040075764297663186 -0.1190813380924082
-0.023607093790788784 0.012854829934648641 -0.12573291122866165
-0.019273977343316658 0.02170208343953095 -0.13238448436491507
-0.014940860895844524 0.030549336944413294 -0.13903605750116854
-0.01060774444837239 0.039396590449295624 -0.145687630637422
-0.04960579247562157 -0.0402286910946453 -0.08582347241114097
-0.04862419702493716 -0.02973062612858343 -0.09131167068138181
-0.04764260157425274 -0.019232561162521557 -0.09679986895162264
-0.046661006123568334 -0.008734496196459683 -0.10228806722186348
-0.04567941067288392 0.0017635687696021874 -0.10777626549210433
-0.044697815222199504 0.012261633735664065 -0.11326446376234517
-0.043716219771515095 0.022759698701725936 -0.118752662032586
-0.04273462432083068 0.03325776366778782 -0.12424086030282686
-0.041753028870146265 0.04375582863384968 -0.12972905857306768
-0.04077143341946185 0.05425389359991156 -0.13521725684330854
-0.04960579247562157 -0.0402286910946453 -0.08582347241114097
-0.052082089119829256 -0.02921744290073821 -0.0895535643746183
-0.05455838576403694 -0.018206194706831116 -0.09328365633809561
-0.05703468240824462 -0.00719494651292403 -0.09701374830157294
-0.059510979052452305 0.0038163016809830697 -0.10074384026505027
-0.06198727569665999 0.01482754987489017 -0.1044739322285276
-0.06446357234086766 0.025838798068797242 -0.10820402419200492
-0.06693986898507535 0.036850046262704356 -0.11193411615548225
-0.06941616562928303 0.04786129445661144 -0.11566420811895958
-0.07189246227349072 0.05887254265051854 -0.11939430008243691
-0.04960579247562157 -0.0402286910946453 -0.08582347241114097
-0.055271636049620085 -0.029897499271822572 -0.08739124472527178
-0.0609374796236186 -0.01956630744899984 -0.08895901703940261
-0.06660332319761711 -0.009235115626177109 -0.09052678935353342
-0.07226916677161561 0.0010960761966456246 -0.09209456166766423
-0.07793501034561413 0.011427268019468355 -0.09366233398179506
-0.08360085391961264 0.021758459842291085 -0.09523010629592588
-0.08926669749361114 0.03208965166511381 -0.09679787861005669
-0.09493254106760966 0.04242084348793655 -0.09836565092418752
-0.10059838464160817 0.05275203531075927 -0.09993342323831833
-0.04960579247562157 -0.0402286910946453 -0.08582347241114097
-0.05784720091354697 -0.031697100581867706 -0.0850590326191953
-0.06608860935147236 -0.023165510069090102 -0.08429459282724963
-0.07433001778939775 -0.014633919556312502 -0.08353015303530398
-0.08257142622732315 -0.0061023290435349015 -0.08276571324335831
-0.09081283466524855 0.0024292614692427023 -0.08200127345141264
-0.09905424310317393 0.010960851982020299 -0.08123683365946698
-0.10729565154109934 0.019492442494797903 -0.08047239386752131
-0.11553705997902472 0.0280240330075755 -0.07970795407557565
-0.1237784684169501 0.0365556235203531 -0.07894351428362999
-0.04960579247562157 -0.0402286910946453 -0.08582347241114097
-0.059529681294596924 -0.03442123210523881 -0.08280965942608164
-0.06945357011357227 -0.028613773115832308 -0.0797958464410223
-0.07937745893254763 -0.022806314126425812 -0.07678203345596299
-0.08930134775152297 -0.016998855137019313 -0.07376822047090364
-0.09922523657049834 -0.011191396147612814 -0.07075440748584433
-0.10914912538947369 -0.005383937158206321 -0.067740594500785
-0.11907301420844904 0.0004235218312001741 -0.06472678151572567
-0.1289969030274244 0.006230980820606677 -0.06171296853066634
-0.13892079184639977 0.01203843981001318 -0.05869915554560701
-0.04960579247562157 -0.0402286910946453 -0.08582347241114097
-0.06013675433711025 -0.037774691922122884 -0.0808868796340259
-0.07066771619859893 -0.03532069274960047 -0.07595028685691081
-0.08119867806008761 -0.032866693577078054 -0.07101369407979574
-0.09172963992157629 -0.030412694404555636 -0.06607710130268066
-0.10226060178306498 -0.02795869523203322 -0.06114050852556559
-0.11279156364455366 -0.025504696059510803 -0.05620391574845051
-0.12332252550604234 -0.02305069688698839 -0.05126732297133544
-0.13385348736753103 -0.02059669771446597 -0.04633073019422036
-0.14438444922901972 -0.01814269854194355 -0.04139413741710528
-0.04960579247562157 -0.0402286910946453 -0.08582347241114097
-0.05960263425722183 -0.041394080627070215 -0.07949905626849978
-0.06959947603882208 -0.042559470159495134 -0.0731746401258586
-0.07959631782042234 -0.04372485969192005 -0.06685022398321741
-0.08959315960202259 -0.044890249224344966 -0.06052580784057623
-0.09959000138362285 -0.04605563875676988 -0.05420139169793503
-0.10958684316522312 -0.04722102828919479 -0.047876975555293855
-0.11958368494682338 -0.048386417821619704 -0.041552559412652665
-0.12958052672842363 -0.04955180735404462 -0.03522814327001149
-0.1395773685100239 -0.050717196886469536 -0.0289037271273703
-0.04960579247562157 -0.0402286910946453 -0.08582347241114097
-0.05798520125331452 -0.044887181293297565 -0.07879658152545634
-0.06636461003100746 -0.04954567149194983 -0.0717696906397717
-0.07474401880870042 -0.05420416169060208 -0.06474279975408707
-0.08312342758639336 -0.058862651889254346 -0.057715908868402443
-0.09150283636408632 -0.0635211420879066 -0.05068901798271781
-0.09988224514177926 -0.06817963228655886 -0.043662127097033175
-0.10826165391947222 -0.07283812248521113 -0.03663523621134855
-0.11664106269716516 -0.07749661268386339 -0.02960834532566392
-0.12502047147485812 -0.08215510288251564 -0.02258145443997929
-0.04960579247562157 -0.0402286910946453 -0.08582347241114097
-0.05545972928842058 -0.04787546226257784 -0.07885557944332301
-0.061313666101219584 -0.055522233430510375 -0.07188768647550506
-0.06716760291401859 -0.06316900459844291 -0.06491979350768712
-0.0730215397268176 -0.07081577576637545 -0.05795190053986916
-0.0788754765396166 -0.07846254693430799 -0.0509840075720512
-0.0847294133524156 -0.08610931810224053 -0.04401611460423326
-0.09058335016521461 -0.09375608927017305 -0.0370482216364153
-0.09643728697801363 -0.1014028604381056 -0.030080328668597354
-0.10229122379081262 -0.10904963160603814 -0.023112435700779393
-0.04960579247562157 -0.0402286910946453 -0.08582347241114097
-0.052299892436671346 -0.05003509692393283 -0.07966965668225195
-0.05499399239772111 -0.05984150275322035 -0.07351584095336293
-0.057688092358770884 -0.06964790858250787 -0.06736202522447392
-0.06038219231982066 -0.0794543144117954 -0.0612082094955849
-0.06307629228087043 -0.08926072024108293 -0.05505439376669588
-0.0657703922419202 -0.09906712607037045 -0.04890057803780687
-0.06846449220296998 -0.108873531899658 -0.04274676230891784
-0.07115859216401973 -0.1186799377289455 -0.03659294658002883
-0.07385269212506951 -0.12848634355823305 -0.030439130851139806
-0.04960579247562157 -0.0402286910946453 -0.08582347241114097
-0.04884810805087433 -0.05113205535162027 -0.08115059534169533
-0.04809042362612709 -0.06203541960859524 -0.07647771827224971
-0.04733273920137984 -0.0729387838655702 -0.07180484120280407
-0.0465750547766326 -0.08384214812254517 -0.06713196413335845
-0.04581737035188536 -0.09474551237952013 -0.06245908706391282
-0.04505968592713812 -0.1056488766364951 -0.05778620999446719
-0.04430200150239087 -0.11655224089347005 -0.053113332925021566
-0.04354431707764363 -0.12745560515044504 -0.04844045585557593
-0.04278663265289639 -0.13835896940742 -0.0437675787861303
-0.04960579247562157 -0.0402286910946453 -0.08582347241114097
-0.045478430529183864 -0.05104746507893648 -0.08313791273877157
-0.041351068582746155 -0.06186623906322766 -0.08045235306640215
-0.03722370663630844 -0.07268501304751884 -0.07776679339403275
-0.03309634468987074 -0.08350378703181002 -0.07508123372166335
-0.02896898274343302 -0.0943225610161012 -0.07239567404929395
-0.024841620796995312 -0.10514133500039238 -0.06971011437692454
-0.020714258850557613 -0.11596010898468356 -0.06702455470455514
-0.0165868969041199 -0.12677888296897474 -0.06433899503218574
-0.012459534957682185 -0.13759765695326592 -0.061653435359816336
-0.04960579247562157 -0.0402286910946453 -0.08582347241114097
-0.042556016717009065 -0.049790492774480076 -0.08541625219710082
-0.03550624095839655 -0.05935229445431485 -0.08500903198306066
-0.028456465199784044 -0.06891409613414962 -0.08460181176902051
-0.021406689441171533 -0.0784758978139844 -0.08419459155498037
-0.014356913682559015 -0.08803769949381916 -0.08378737134094022
-0.007307137923946515 -0.09759950117365394 -0.08338015112690006
-0.0002573621653340005 -0.10716130285348871 -0.08297293091285991
0.006792413593278507 -0.11672310453332349 -0.08256571069881977
0.013842189351891028 -0.12628490621315824 -0.08215849048477962
-0.04960579247562157 -0.0402286910946453 -0.08582347241114097
-0.04039755549682151 -0.04749735089137376 -0.08773872028429397
-0.031189318518021453 -0.054766010688102225 -0.08965396815744699
-0.021981081539221396 -0.06203467048483068 -0.09156921603059999
-0.012772844560421333 -0.06930333028155915 -0.093484463903753
-0.0035646075816212694 -0.0765719900782876 -0.09539971177690602
0.00564362939717878 -0.08384064987501606 -0.09731495965005903
0.014851866375978857 -0.09110930967174452 -0.09923020752321204
0.024060103354778907 -0.09837796946847298 -0.10114545539636505
0.033268340333578984 -0.10564662926520144 -0.10306070326951806
-0.04960579247562157 -0.0402286910946453 -0.08582347241114097
-0.03923694963380517 -0.044416536934414545 -0.0898536415462983
-0.02886810679198876 -0.04860438277418379 -0.09388381068145561
-0.01849926395017236 -0.05279222861395303 -0.09791397981661294
-0.008130421108355948 -0.056980074453722274 -0.10194414895177026
0.0022384217334604564 -0.061167920293491516 -0.10597431808692759
0.012607264575276854 -0.06535576613326076 -0.11000448722208492
0.022976107417093265 -0.06954361197303 -0.11403465635724223
0.03334495025890968 -0.07373145781279924 -0.11806482549239956
0.04371379310072609 -0.07791930365256848 -0.1220949946275569
0.04960579247562157 0.0402286910946453 0.08582347241114097
0.05997463531743798 0.03604084525487607 0.08179330327598364
0.07034347815925439 0.031852999415106824 0.0777631341408263
0.08071232100107079 0.027665153575337584 0.07373296500566899
0.0910811638428872 0.023477307735568345 0.06970279587051166
0.1014500066847036 0.019289461895799106 0.06567262673535433
0.11181884952651999 0.015101616056029867 0.06164245760019701
0.1221876923683364 0.010913770216260624 0.05761228846503968
0.13255653521015281 0.006725924376491388 0.053582119329882355
0.14292537805196923 0.002538078536722145 0.049551950194725025
0.04960579247562157 0.0402286910946453 0.08582347241114097
0.060011616169369834 0.03957547728969772 0.0801151133742909
0.0704174398631181 0.038922263484750134 0.07440675433744086
0.08082326355686636 0.038269049679802554 0.0686983953005908
0.09122908725061463 0.037615835874854966 0.06299003626374074
0.10163491094436289 0.036962622069907386 0.05728167722689068
0.11204073463811115 0.036309408264959805 0.05157331819004063
0.12244655833185943 0.03565619446001222 0.04586495915319057
0.1328523820256077 0.03500298065506464 0.040156600116340514
0.14325820571935596 0.03434976685011704 0.03444824107949045
0.04960579247562157 0.0402286910946453 0.08582347241114097
0.05892096456109335 0.043180895175941945 0.07905551274855746
0.06823613664656514 0.04613309925723858 0.07228755308597397
0.07755130873203692 0.049085303338535224 0.06551959342339048
0.0868664808175087 0.05203750741983186 0.05875163376080697
0.09618165290298047 0.0549897115011285 0.05198367409822348
0.10549682498845225 0.057941915582425146 0.04521571443563998
0.11481199707392405 0.06089411966372178 0.038447754773056474
0.12412716915939583 0.06384632374501842 0.031679795110472975
0.13344234124486762 0.06679852782631507 0.024911835447889483
0.04960579247562157 0.0402286910946453 0.08582347241114097
0.05682086951756865 0.046466395941811574 0.07872932556797925
0.06403594655951572 0.052704100788977845 0.07163517872481755
0.07125102360146279 0.058941805636144116 0.06454103188165583
0.07846610064340988 0.06517951048331039 0.05744688503849413
0.08568117768535695 0.07141721533047665 0.05035273819533242
0.09289625472730402 0.07765492017764293 0.04325859135217071
0.10011133176925109 0.0838926250248092 0.036164444509009
0.10732640881119818 0.09013032987197547 0.02907029766584729
0.11454148585314525 0.09636803471914174 0.021976150822685586
0.04960579247562157 0.0402286910946453 0.08582347241114097
0.053938908923093706 0.049075944599527625 0.07917189927488752
0.05827202537056583 0.057923198104409955 0.07252032613863407
0.06260514181803796 0.06677045160929228 0.06586875300238063
0.0669382582655101 0.07561770511417461 0.05921717986612718
0.07127137471298223 0.08446495861905692 0.05256560672987373
0.07560449116045435 0.09331221212393925 0.045914033593620285
0.07993760760792648 0.10215946562882156 0.03926246045736685
0.08427072405539862 0.1110067191337039 0.03261088732111339
0.08860384050287075 0.11985397263858623 0.02595931418485995
0.04960579247562157 0.0402286910946453 0.08582347241114097
0.05058738792630599 0.05072675606070717 0.08033527414090012
0.051568983376990396 0.06122482102676905 0.07484707587065928
0.05255057882767481 0.07172288599283093 0.06935887760041845
0.053532174278359226 0.0822209509588928 0.06387067933017761
0.05451376972904364 0.09271901592495467 0.058382481059936764
0.05549536517972805 0.10321708089101654 0.05289428278969593
0.056476960630412465 0.11371514585707843 0.04740608451945508
0.05745855608109688 0.12421321082314028 0.04191788624921425
0.05844015153178129 0.13471127578920217 0.0364296879789734
0.04960579247562157 0.0402286910946453 0.08582347241114097
0.04712949583141389 0.051239939288552395 0.08209338044766364
0.044653199187206206 0.06225118748245949 0.0783632884841863
0.04217690254299852 0.07326243567636657 0.07463319652070899
0.03970060589879084 0.08427368387027367 0.07090310455723166
0.03722430925458316 0.09528493206418077 0.06717301259375433
0.034748012610375474 0.10629618025808785 0.06344292063027701
0.03227171596616779 0.11730742845199496 0.059712828666799674
0.029795419321960108 0.12831867664590205 0.05598273670332235
0.027319122677752425 0.13932992483980916 0.05225264473984502
0.04960579247562157 0.0402286910946453 0.08582347241114097
0.04393994890162306 0.05055988291746803 0.08425570009701015
0.03827410532762455 0.06089107474029077 0.08268792778287933
0.032608261753626036 0.07122226656311349 0.08112015546874851
0.026942418179627524 0.08155345838593624 0.0795523831546177
0.02127657460562901 0.09188465020875897 0.07798461084048687
0.0156107310316305 0.1022158420315817 0.07641683852635606
0.009944887457631994 0.11254703385440441 0.07484906621222523
0.004279043883633475 0.12287822567722716 0.07328129389809442
-0.0013867996903650232 0.1332094175000499 0.07171352158396359
0.04960579247562157 0.0402286910946453 0.08582347241114097
0.04136438403769618 0.048760281607422906 0.08658791220308663
0.03312297559977078 0.0572918721202005 0.08735235199503229
0.02488156716184539 0.0658234626329781 0.08811679178697795
0.016640158723919996 0.0743550531457557 0.08888123157892362
0.0083987502859946 0.08288664365853331 0.08964567137086929
0.00015734184806921042 0.09141823417131091 0.09041011116281496
-0.0080840665898562 0.09994982468408851 0.09117455095476062
-0.01632547502778158 0.1084814151968661 0.09193899074670628
-0.024566883465706964 0.11701300570964371 0.09270343053865195
0.04960579247562157 0.0402286910946453 0.08582347241114097
0.03968190365664622 0.0460361500840518 0.0888372853962003
0.02975801483767087 0.0518436090734583 0.09185109838125963
0.019834126018695514 0.057651068062864796 0.09486491136631894
0.009910237199720166 0.0634585270522713 0.09787872435137827
-1.3651619255192215e-05 0.06926598604167779 0.1008925373364376
-0.009937540438230544 0.07507344503108429 0.10390635032149693
-0.019861429257205902 0.08088090402049078 0.10692016330655627
-0.02978531807618124 0.08668836300989728 0.1099339762916156
-0.03970920689515662 0.09249582199930378 0.11294778927667493
0.04960579247562157 0.0402286910946453 0.08582347241114097
0.03907483061413289 0.04268269026716772 0.09076006518825604
0.02854386875264421 0.04513668943969014 0.09569665796537112
0.018012906891155527 0.04759068861221255 0.10063325074248619
0.007481945029666849 0.05004468778473497 0.10556984351960126
-0.0030490168318218352 0.05249868695725739 0.11050643629671635
-0.01357997869331052 0.054952686129779806 0.11544302907383142
-0.024110940554799197 0.05740668530230222 0.12037962185094649
-0.034641902416287874 0.059860684474824635 0.12531621462806156
-0.045172864277776566 0.062314683647347054 0.13025280740517664
0.04960579247562157 0.0402286910946453 0.08582347241114097
0.039608950694021317 0.03906330156222039 0.09214788855378216
0.02961210891242106 0.03789791202979547 0.09847230469642333
0.019615267130820797 0.03673252249737056 0.10479672083906452
0.009618425349220548 0.035567132964945646 0.1111211369817057
-0.00037841643237971484 0.034401743432520726 0.1174455531243469
-0.010375258213979978 0.033236353900095814 0.12376996926698808
-0.02037209999558024 0.0320709643676709 0.13009438540962925
-0.030368941777180476 0.03090557483524598 0.13641880155227043
-0.04036578355878074 0.02974018530282107 0.14274321769491163
0.04960579247562157 0.0402286910946453 0.08582347241114097
0.04122638369792862 0.03557020089599304 0.0928503632968256
0.03284697492023567 0.03091171069734078 0.09987725418251023
0.024467566142542724 0.026253220498688522 0.10690414506819486
0.016088157364849774 0.02159473030003626 0.11393103595387949
0.0077087485871568245 0.016936240101384004 0.12095792683956412
-0.0006706601905361251 0.012277749902731738 0.12798481772524875
-0.009050068968229075 0.0076192597040794785 0.13501170861093337
-0.017429477745922024 0.002960769505427216 0.142038599496618
-0.02580888652361498 -0.0016977206932250325 0.14906549038230263
0.04960579247562157 0.0402286910946453 0.08582347241114097
0.04375185566282257 0.03258191992671276 0.09279136537895892
0.03789791885002356 0.02493514875878023 0.09975925834677687
0.032043982037224555 0.017288377590847694 0.10672715131459481
0.026190045224425546 0.009641606422915155 0.11369504428241277
0.02033610841162654 0.0019948352549826187 0.12066293725023072
0.014482171598827538 -0.005651935912949914 0.12763083021804866
0.008628234786028526 -0.013298707080882446 0.13459872318586663
0.0027742979732295198 -0.020945478248814993 0.14156661615368457
-0.003079638839569486 -0.02859224941674754 0.14853450912150254
0.04960579247562157 0.0402286910946453 0.08582347241114097
0.0469116925145718 0.030422285265357778 0.09197728814002998
0.04421759255352203 0.020615879436070253 0.098131103868919
0.04152349259247226 0.010809473606782732 0.10428491959780802
0.03882939263142249 0.0010030677774952037 0.11043873532669703
0.036135292670372715 -0.008803338051792321 0.11659255105558605
0.03344119270932294 -0.01860974388107984 0.12274636678447506
0.030747092748273173 -0.02841614971036739 0.12890018251336408
0.028052992787223403 -0.038222555539654895 0.1350539982422531
0.02535889282617363 -0.04802896136894243 0.14120781397114213
0.04960579247562157 0.0402286910946453 0.08582347241114097
0.05036347690036882 0.029325326837670338 0.09049634948058659
0.05112116132511606 0.01842196258069537 0.09516922655003222
0.051878845749863296 0.007518598323720406 0.09984210361947786
0.05263653017461054 -0.003384765933254562 0.10451498068892348
0.05339421459935779 -0.014288130190229523 0.1091878577583691
0.05415189902410503 -0.02519149444720449 0.11386073482781474
0.054909583448852266 -0.036094858704179444 0.11853361189726036
0.05566726787359951 -0.046998222961154426 0.123206488966706
0.05642495229834676 -0.057901587218129394 0.12787936603615163
0.04960579247562157 0.0402286910946453 0.08582347241114097
0.05373315442205928 0.029409917110354122 0.08850903208351037
0.05786051636849699 0.018591143126062942 0.09119459175587977
0.0619878783149347 0.007772369141771762 0.09388015142824918
0.0661152402613724 -0.003046404842519418 0.09656571110061858
0.07024260220781012 -0.013865178826810598 0.09925127077298798
0.07436996415424783 -0.024683952811101778 0.10193683044535738
0.07849732610068554 -0.03550272679539296 0.1046223901177268
0.08262468804712324 -0.04632150077968414 0.1073079497900962
0.08675204999356095 -0.05714027476397532 0.1099935094624656
0.04960579247562157 0.0402286910946453 0.08582347241114097
0.05665556823423408 0.03066688941481053 0.08623069262518111
0.0637053439928466 0.021105087734975755 0.08663791283922126
0.0707551197514591 0.011543286055140985 0.08704513305326142
0.07780489551007161 0.0019814843753062084 0.08745235326730157
0.08485467126868412 -0.007580317304528558 0.08785957348134171
0.09190444702729662 -0.017142118984363332 0.08826679369538186
0.09895422278590914 -0.026703920664198105 0.08867401390942202
0.10600399854452165 -0.036265722344032886 0.08908123412346217
0.11305377430313417 -0.04582752402386764 0.08948845433750231
0.04960579247562157 0.0402286910946453 0.08582347241114097
0.05881402945442163 0.032960031297916845 0.08390822453798795
0.06802226643322169 0.025691371501188384 0.08199297666483495
0.07723050341202174 0.018422711704459926 0.08007772879168193
0.0864387403908218 0.011154051907731465 0.07816248091852893
0.09564697736962187 0.003885392111003 0.07624723304537591
0.10485521434842192 -0.003383267685725451 0.0743319851722229
0.114063451327222 -0.010651927482453916 0.07241673729906989
0.12327168830602205 -0.017920587279182373 0.07050148942591689
0.13247992528482214 -0.02518924707591083 0.06858624155276387
0.04960579247562157 0.0402286910946453 0.08582347241114097
0.05997463531743798 0.03604084525487606 0.08179330327598364
0.07034347815925439 0.03185299941510682 0.07776313414082632
0.08071232100107079 0.027665153575337578 0.07373296500566899
0.0910811638428872 0.023477307735568335 0.06970279587051166
0.1014500066847036 0.019289461895799092 0.06567262673535434
0.11181884952651999 0.015101616056029853 0.061642457600197015
0.1221876923683364 0.010913770216260606 0.05761228846503969
0.13255653521015281 0.006725924376491367 0.05358211932988237
0.14292537805196923 0.0025380785367221242 0.04955195019472504
