# .PCD v0.7 - Point Cloud Data file format
VERSION 0.7
FIELDS x y z
SIZE 4 4 4
TYPE F F F
COUNT 1 1 1
WIDTH 700
HEIGHT 1
VIEWPOINT 0 0 0 1 0 0 0
POINTS 700
DATA ascii
0.15151110326126363 -0.04629469642643825 -0.006049924788897817
0.1568558770363471 -0.022781487924777518 -0.0035570445181725657
0.15846627078778378 0.0013801746750285052 -0.004685195736773128
0.15626698429358063 0.02506051888357212 -0.009381627347567808
0.1503608537458752 0.04715227812447411 -0.017426739428144652
0.14102404324488554 0.0666224662888568 -0.028444351479115764
0.12869313167251842 0.08256067901771351 -0.041919292206174026
0.11394469874907383 0.09422166319789407 -0.057221488357243146
0.09746836480634613 0.10106016416938635 -0.07363542624746865
0.08003454490736737 0.10275642122721124 -0.09039360838388528
0.06245842509431468 0.0992311192765992 -0.10671244079517588
0.04556184519519226 0.0906490975186691 -0.12182887301486804
0.030134870506883273 0.07741164175258969 -0.13503607747307672
0.01689884921996223 0.060137720697607415 -0.1457164999680895
0.006472682979024447 0.039635043703669 -0.15337073581447663
-0.0006561122703553135 0.016862293159922086 -0.15764088145113317
-0.004154201985402872 -0.0071157024283020395 -0.15832726961401505
-0.0038580193788901374 -0.031177758636926036 -0.1553978055554916
0.00021858637968570074 -0.054198760460689326 -0.1489894677590739
0.007884997735875527 -0.07510227144031852 -0.13940190297776656
0.018782741815268143 -0.09291086663499004 -0.12708341508493057
0.032402252216683754 -0.10679183592623298 -0.11261000288341899
0.04810669577075079 -0.1160961206175781 -0.09665842704173222
0.06516175015111644 -0.1203886626978278 -0.07997456551732435
0.08276993997028631 -0.1194687476701275 -0.0633385371322964
0.1001079258424134 -0.11337938973876031 -0.04752822408431476
0.11636500281790432 -0.10240532051276172 -0.033282899039602146
0.13078100804582832 -0.08705967527233759 -0.021268657564707773
0.14268186514396689 -0.06805999933347032 -0.012047272238127234
0.1515111032612636 -0.04629469642643828 -0.006049924788897817
0.13440193101792608 -0.04431393003541645 0.011949528494650564
0.13974670479300955 -0.02080072153375572 0.014442408765375815
0.14135709854444625 0.003360941066050305 0.013314257546775253
0.1391578120502431 0.027041285274593915 0.008617825935980573
0.13325168150253766 0.04913304451549591 0.0005727138554037292
0.12391487100154801 0.0686032326798786 -0.010444898195567383
0.11158395942918087 0.0845414454087353 -0.02391983892262565
0.09683552650573628 0.09620242958891587 -0.03922203507369477
0.0803591925630086 0.10304093056040814 -0.05563597296392027
0.06292537266402984 0.10473718761823303 -0.07239415510033691
0.04534925285097714 0.10121188566762099 -0.0887129875116275
0.028452672951854722 0.0926298639096909 -0.10382941973131966
0.013025698263545733 0.07939240814361148 -0.11703662418952834
-0.00021032302337530988 0.062118487088629215 -0.12771704668454112
-0.010636489264313095 0.0416158100946908 -0.13537128253092826
-0.017765284513692855 0.018843059550943883 -0.1396414281675848
-0.021263374228740414 -0.005134936037280239 -0.14032781633046668
-0.02096719162222768 -0.02919699224590424 -0.13739835227194322
-0.01689058586365184 -0.052217994069667525 -0.13099001447552552
-0.009224174507462015 -0.07312150504929672 -0.12140244969421818
0.001673569571930604 -0.09093010024396825 -0.10908396180138219
0.015293079973346214 -0.10481106953521119 -0.09461054959987061
0.030997523527413248 -0.1141153542265563 -0.07865897375818384
0.04805257790777891 -0.11840789630680601 -0.06197511223377596
0.06566076772694877 -0.1174879812791057 -0.045339083848748025
0.08299875359907587 -0.11139862334773852 -0.02952877080076638
0.09925583057456677 -0.10042455412173992 -0.015283445756053768
0.11367183580249078 -0.08507890888131579 -0.0032692042811593926
0.12557269290062936 -0.06607923294244852 0.005952181045421147
0.13440193101792608 -0.04431393003541648 0.011949528494650564
0.11729275877458853 -0.04233316364439465 0.029948981778198956
0.122637532549672 -0.018819955142733918 0.03244186204892421
0.12424792630110869 0.005341707457072106 0.031313710830323645
0.12204863980690554 0.02902205166561572 0.026617279219528965
0.11614250925920011 0.05111381090651771 0.01857216713895212
0.10680569875821046 0.0705839990709004 0.007554555087981007
0.09447478718584332 0.08652221179975711 -0.005920385639077258
0.07972635426239873 0.09818319597993767 -0.021222581790146376
0.06325002031967104 0.10502169695142995 -0.03763651968037188
0.04581620042069228 0.10671795400925484 -0.05439470181678851
0.02824008060763959 0.1031926520586428 -0.0707135342280791
0.011343500708517171 0.0946106303007127 -0.08582996644777127
-0.004083473979791817 0.08137317453463329 -0.09903717090597995
-0.01731949526671286 0.06409925347965102 -0.10971759340099273
-0.027745661507650645 0.0435965764857126 -0.11737182924737986
-0.0348744567570304 0.020823825941965687 -0.1216419748840364
-0.03837254647207796 -0.0031541696462584383 -0.12232836304691828
-0.038076363865565226 -0.027216225854882436 -0.11939889898839484
-0.03399975810698939 -0.050237227678645725 -0.11299056119197715
-0.026333346750799565 -0.07114073865827492 -0.10340299641066979
-0.015435602671406947 -0.08894933385294644 -0.0910845085178338
-0.001816092269991336 -0.10283030314418938 -0.07661109631632222
0.013888351284075697 -0.1121345878355345 -0.06065952047463545
0.030943405664441353 -0.1164271299157842 -0.04397565895022757
0.04855159548361122 -0.1155072148880839 -0.02733963056519963
0.06588958135573832 -0.10941785695671671 -0.01152931751721799
0.08214665833122922 -0.09844378773071812 0.0027160075274946225
0.09656266355915323 -0.08309814249029399 0.014730249002388998
0.1084635206572918 -0.06409846655142672 0.02395163432896954
0.11729275877458852 -0.04233316364439468 0.029948981778198956
0.10018358653125099 -0.04035239725337285 0.047948435061747334
0.10552836030633446 -0.016839188751712118 0.050441315332472585
0.10713875405777115 0.007322473848093906 0.04931316411387202
0.104939467563568 0.03100281805663752 0.04461673250307734
0.09903333701586257 0.05309457729753951 0.0365716204225005
0.08969652651487292 0.0725647654619222 0.025554008371529387
0.07736561494250578 0.0885029781907789 0.012079067644471123
0.06261718201906119 0.10016396237095947 -0.0032231285065979966
0.04614084807633349 0.10700246334245174 -0.0196370663968235
0.02870702817735474 0.10869872040027663 -0.03639524853324013
0.011130908364302049 0.10517341844966459 -0.05271408094453072
-0.0057656715348203685 0.0965913966917345 -0.06783051316422288
-0.021192646223129358 0.08335394092565508 -0.08103771762243157
-0.0344286675100504 0.06608001987067282 -0.09171814011744434
-0.044854833750988185 0.0455773428767344 -0.09937237596383147
-0.051983629000367945 0.022804592332987487 -0.10364252160048801
-0.055481718715415504 -0.0011734032552366386 -0.10432890976336989
-0.05518553610890277 -0.025235459463860636 -0.10139944570484645
-0.05110893035032693 -0.048256461287623925 -0.09499110790842875
-0.043442518994137105 -0.06915997226725312 -0.0854035431271214
-0.03254477491474449 -0.08696856746192465 -0.0730850552342854
-0.018925264513328877 -0.10084953675316759 -0.058611643032773844
-0.003220820959261843 -0.1101538214445127 -0.042660067191087066
0.013834233421103813 -0.11444636352476241 -0.025976205666679193
0.03144242324027368 -0.1135264484970621 -0.00934017728165125
0.04878040911240077 -0.10743709056569492 0.006470135766330392
0.06503748608789169 -0.09646302133969632 0.020715460811043
0.0794534913158157 -0.08111737609927219 0.03272970228593738
0.09135434841395426 -0.06211770016040492 0.041951087612517916
0.10018358653125098 -0.040352397253372876 0.047948435061747334
0.08307441428791344 -0.03837163086235105 0.06594788834529573
0.08841918806299691 -0.014858422360690317 0.06844076861602098
0.0900295818144336 0.009303240239115707 0.06731261739742042
0.08783029532023046 0.032983584447659316 0.06261618578662574
0.08192416477252502 0.05507534368856131 0.05457107370604889
0.07258735427153537 0.074545531852944 0.04355346165507778
0.06025644269916823 0.09048374458180071 0.030078520928019513
0.04550800977572364 0.10214472876198127 0.014776324776950393
0.029031675832995946 0.10898322973347355 -0.001637613113275109
0.01159785593401719 0.11067948679129844 -0.01839579524969174
-0.005978263879035502 0.1071541848406864 -0.03471462766098233
-0.02287484377815792 0.0985721630827563 -0.049831059880674496
-0.03830181846646691 0.08533470731667689 -0.06303826433888318
-0.05153783975338795 0.06806078626169462 -0.07371868683389594
-0.061964005994325735 0.0475581092677562 -0.08137292268028308
-0.0690928012437055 0.024785358724009287 -0.08564306831693962
-0.07259089095875305 0.0008073631357851624 -0.0863294564798215
-0.07229470835224032 -0.023254693072838836 -0.08339999242129806
-0.06821810259366448 -0.046275694896602125 -0.07699165462488036
-0.060551691237474656 -0.06717920587623132 -0.067404089843573
-0.04965394715808204 -0.08498780107090284 -0.05508560195073702
-0.03603443675666643 -0.09886877036214578 -0.04061218974922545
-0.020329993202599393 -0.1081730550534909 -0.024660613907538678
-0.0032749388222337375 -0.1124655971337406 -0.007976752383130802
0.014333250996936133 -0.1115456821060403 0.00865927600189714
0.03167123686906322 -0.10545632417467311 0.02446958904987878
0.047928313844554135 -0.09448225494867452 0.03871491409459139
0.062344319072478144 -0.07913660970825039 0.05072915556948577
0.07424517617061671 -0.06013693376938312 0.05995054089606631
0.08307441428791343 -0.038371630862351076 0.06594788834529573
0.06596524204457589 -0.03639086447132924 0.08394734162884411
0.07131001581965936 -0.012877655969668517 0.08644022189956936
0.07292040957109605 0.011284006630137507 0.0853120706809688
0.0707211230768929 0.03496435083868112 0.08061563907017412
0.06481499252918747 0.05705611007958312 0.07257052698959728
0.05547818202819782 0.0765262982439658 0.06155291493862617
0.04314727045583068 0.0924645109728225 0.048077974211567905
0.02839883753238609 0.10412549515300307 0.032775778060498785
0.011922503589658396 0.11096399612449534 0.01636184017027328
-0.00551131630932036 0.11266025318232023 -0.0003963419661433478
-0.023087436122373052 0.10913495123170819 -0.016715174377433938
-0.03998401602149547 0.1005529294737781 -0.031831606597126104
-0.05541099070980446 0.08731547370769868 -0.04503881105533479
-0.0686470119967255 0.07004155265271642 -0.05571923355034756
-0.07907317823766329 0.04953887565877801 -0.0633734693967347
-0.08620197348704305 0.026766125115031087 -0.06764361503339124
-0.0897000632020906 0.0027881295268069634 -0.06833000319627312
-0.08940388059557787 -0.021273926681817035 -0.06540053913774968
-0.08532727483700203 -0.04429492850558032 -0.05899220134133198
-0.0776608634808122 -0.06519843948520952 -0.04940463656002462
-0.06676311940141959 -0.08300703467988105 -0.03708614866718863
-0.05314360900000398 -0.09688800397112399 -0.02261273646567706
-0.037439165445936944 -0.1061922886624691 -0.006661160623990287
-0.020384111065571288 -0.11048483074271881 0.01002270090041759
-0.0027759212464014173 -0.1095649157150185 0.02665872928544553
0.014562064625725672 -0.10347555778365132 0.04246904233342717
0.030819141601216585 -0.09250148855765272 0.056714367378139785
0.04523514682914059 -0.07715584331722859 0.06872860885303415
0.05713600392727916 -0.058156167378361316 0.07794999417961469
0.06596524204457588 -0.03639086447132927 0.08394734162884411
0.048856069801238355 -0.03441009808030745 0.10194679491239249
0.05420084357632182 -0.010896889578646717 0.10443967518311774
0.055811237327758514 0.013264773021159307 0.10331152396451718
0.05361195083355537 0.036945117229702916 0.0986150923537225
0.04770582028584994 0.05903687647060491 0.09056998027314565
0.03836900978486028 0.0785070646349876 0.07955236822217454
0.026038098212493144 0.09444527736384431 0.06607742749511628
0.011289665289048553 0.10610626154402487 0.05077523134404716
-0.00518666865367914 0.11294476251551715 0.034361293453821655
-0.022620488552657896 0.11464101957334204 0.017603111317405027
-0.04019660836571059 0.11111571762273 0.0012842789061144376
-0.057093188264833006 0.1025336958647999 -0.01383215331357773
-0.072520162953142 0.08929624009872049 -0.027039357771786416
-0.08575618424006304 0.07202231904373822 -0.03771978026679918
-0.09618235048100082 0.0515196420497998 -0.04537401611318632
-0.10331114573038058 0.028746891506052887 -0.049644161749842854
-0.10680923544542814 0.004768895917828763 -0.05033054991272474
-0.1065130528389154 -0.019293160290795235 -0.047401085854201296
-0.10243644708033957 -0.042314162114558525 -0.0409927480577836
-0.09477003572414974 -0.06321767309418772 -0.03140518327647624
-0.08387229164475712 -0.08102626828885924 -0.019086695383640256
-0.07025278124334151 -0.09490723758010218 -0.0046132831821286855
-0.05454833768927448 -0.1042115222714473 0.011338292659558089
-0.037493283308908824 -0.108504064351697 0.028022154183965964
-0.019885093489738954 -0.1075841493239967 0.044658182568993905
-0.002547107617611864 -0.10149479139262951 0.06046849561697555
0.013709969357879048 -0.09052072216663092 0.07471382066168816
0.028125974585803057 -0.07517507692620679 0.08672806213658253
0.040026831683941624 -0.05617540098733952 0.09594944746316307
0.04885606980123834 -0.034410098080307476 0.10194679491239249
0.031746897557900805 -0.03242933168928564 0.11994624819594088
0.03709167133298427 -0.008916123187624917 0.12243912846666613
0.038702065084420964 0.015245539412181108 0.12131097724806557
0.03650277859021782 0.03892588362072472 0.11661454563727089
0.030596648042512387 0.06101764286162672 0.10856943355669404
0.021259837541522733 0.0804878310260094 0.09755182150572293
0.008928925969155593 0.0964260437548661 0.08407688077866467
-0.005819506954288996 0.10808702793504667 0.06877468462759555
-0.02229584089701669 0.11492552890653894 0.05236074673737005
-0.03972966079599544 0.11662178596436383 0.035602564600953415
-0.05730578060904814 0.11309648401375179 0.01928373218966283
-0.07420236050817056 0.1045144622558217 0.004167299969970662
-0.08962933519647955 0.09127700648974228 -0.009039904488238024
-0.10286535648340059 0.07400308543476002 -0.019720326983250793
-0.11329152272433837 0.05350040844082161 -0.02737456282963793
-0.12042031797371813 0.030727657897074687 -0.03164470846629447
-0.12391840768876569 0.006749662308850564 -0.032331096629176354
-0.12362222508225296 -0.017312393899773435 -0.029401632570652907
-0.11954561932367712 -0.04033339572353672 -0.02299329477423521
-0.11187920796748729 -0.061236906703165915 -0.013405729992927853
-0.10098146388809467 -0.07904550189783745 -0.0010872421000918643
-0.08736195348667906 -0.09292647118908039 0.013386170101419705
-0.07165750993261202 -0.1022307558804255 0.02933774594310648
-0.054602455552246375 -0.10652329796067521 0.04602160746751435
-0.0369942657330765 -0.1056033829329749 0.06265763585254229
-0.019656279860949415 -0.09951402500160772 0.07846794890052394
-0.0033992028854585017 -0.08853995577560912 0.09271327394523655
0.011016802342465506 -0.07319431053518499 0.10472751542013092
0.022917659440604074 -0.054194634596317716 0.11394890074671146
0.03174689755790079 -0.03242933168928567 0.11994624819594088
0.014637725314563251 -0.03044856529826384 0.13794570147948929
0.019982499089646718 -0.006935356796603115 0.14043858175021454
0.02159289284108341 0.01722630580320291 0.13931043053161396
0.019393606346880265 0.04090665001174652 0.1346139989208193
0.013487475799174833 0.06299840925264852 0.12656888684024245
0.004150665298185178 0.0824685974170312 0.11555127478927134
-0.00818024627418196 0.09840681014588791 0.10207633406221307
-0.02292867919762655 0.11006779432606847 0.08677413791114395
-0.039405013140354245 0.11690629529756075 0.07036020002091845
-0.056838833039333 0.11860255235538564 0.053602017884501814
-0.0744149528523857 0.1150772504047736 0.037283185473211224
-0.0913115327515081 0.1064952286468435 0.022166753253519057
-0.1067385074398171 0.09325777288076409 0.00895954879531037
-0.11997452872673814 0.07598385182578182 -0.0017208736997023977
-0.13040069496767592 0.05548117483184341 -0.009375109546089534
-0.13752949021705568 0.03270842428809649 -0.01364525518274607
-0.14102757993210324 0.008730428699872365 -0.014331643345627955
-0.1407313973255905 -0.015331627508751633 -0.011402179287104512
-0.13665479156701468 -0.03835262933251492 -0.004993841490686816
-0.12898838021082484 -0.059256140312144115 0.0045937232906205425
-0.11809063613143223 -0.07706473550681564 0.01691221118345653
-0.10447112573001661 -0.09094570479805858 0.0313856233849681
-0.08876668217594959 -0.1002499894894037 0.04733719922665488
-0.07171162779558393 -0.1045425315696534 0.06402106075106276
-0.05410343797641406 -0.1036226165419531 0.0806570891360907
-0.03676545210428697 -0.09753325861058591 0.09646740218407233
-0.020508375128796056 -0.08655918938458732 0.11071272722878495
-0.006092369900872048 -0.07121354414416319 0.12272696870367933
0.005808487197266519 -0.052213868205295916 0.13194835403025987
0.014637725314563237 -0.03044856529826387 0.13794570147948929
-0.00247144692877429 -0.028467798907242044 0.15594515476303766
0.0028733268463091766 -0.004954590405581315 0.15843803503376291
0.0044837205977458685 0.019207072194224708 0.15730988381516234
0.0022844341035427236 0.04288741640276832 0.15261345220436767
-0.0036216964441627086 0.06497917564367031 0.14456834012379083
-0.012958506945152362 0.084449363808053 0.1335507280728197
-0.0252894185175195 0.1003875765369097 0.12007578734576145
-0.04003785144096409 0.11204856071709027 0.10477359119469233
-0.05651418538369179 0.11888706168858254 0.08835965330446682
-0.07394800528267054 0.12058331874640743 0.0716014711680502
-0.09152412509572323 0.11705801679579539 0.0552826387567596
-0.10842070499484566 0.1084759950378653 0.040166206537067435
-0.12384767968315465 0.09523853927178588 0.026959002078858752
-0.1370837009700757 0.07796461821680362 0.016278579583845983
-0.14750986721101347 0.05746194122286521 0.008624343737458847
-0.15463866246039323 0.03468919067911829 0.004354198100802311
-0.1581367521754408 0.010711195090894165 0.003667809937920426
-0.15784056956892806 -0.013350861117729833 0.006597273996443869
-0.1537639638103522 -0.03637186294149312 0.013005611792861565
-0.1460975524541624 -0.057275373921122315 0.022593176574168924
-0.13519980837476978 -0.07508396911579385 0.03491166446700491
-0.12158029797335416 -0.08896493840703679 0.04938507666851648
-0.10587585441928712 -0.0982692230983819 0.06533665251020325
-0.08882080003892147 -0.10256176517863161 0.08202051403461114
-0.0712126102197516 -0.1016418501509313 0.09865654241963907
-0.05387462434762451 -0.09555249221956412 0.11446685546762071
-0.037617547372133596 -0.08457842299356552 0.12871218051233332
-0.023201542144209587 -0.06923277775314139 0.1407264219872277
-0.011300685046071022 -0.050233101814274116 0.14994780731380825
-0.002471446928774304 -0.028467798907242072 0.15594515476303766
0.07699127509501896 -0.008913448759598102 -0.08099753977596774
0.08527125600237948 -0.01306692072258034 -0.07267002699962663
0.09355123690974 -0.017220392685562576 -0.06434251422328553
0.10183121781710051 -0.021373864648544818 -0.05601500144694443
0.11011119872446104 -0.025527336611527052 -0.04768748867060333
0.11839117963182155 -0.02968080857450929 -0.039359975894262225
0.12667116053918206 -0.03383428053749153 -0.031032463117921124
0.1349511414465426 -0.03798775250047377 -0.02270495034158002
0.14323112235390312 -0.04214122446345601 -0.014377437565238928
0.15151110326126363 -0.04629469642643825 -0.006049924788897817
0.07699127509501896 -0.008913448759598102 -0.08099753977596774
0.08601201061530417 -0.009042408980487027 -0.07240879236158003
0.09503274613558939 -0.009171369201375953 -0.06382004494719233
0.10405348165587461 -0.009300329422264877 -0.05523129753280463
0.11307421717615981 -0.009429289643153803 -0.04664255011841693
0.12209495269644503 -0.009558249864042726 -0.03805380270402923
0.13111568821673025 -0.009687210084931652 -0.029465055289641533
0.14013642373701546 -0.009816170305820578 -0.020876307875253828
0.14915715925730066 -0.009945130526709504 -0.012287560460866122
0.1581778947775859 -0.010074090747598427 -0.0036988130464784236
0.07699127509501896 -0.008913448759598102 -0.08099753977596774
0.08577522856347264 -0.005003922397436399 -0.07307828177402957
0.09455918203192633 -0.0010943960352746954 -0.0651590237720914
0.10334313550038002 0.002815130326887008 -0.057239765770153245
0.11212708896883371 0.006724656689048711 -0.04932050776821507
0.1209110424372874 0.010634183051210411 -0.041401249766276904
0.12969499590574107 0.014543709413372118 -0.03348199176433875
0.13847894937419475 0.018453235775533823 -0.02556273376240058
0.14726290284264845 0.022362762137695526 -0.017643475760462404
0.15604685631110213 0.026272288499857233 -0.009724217758524247
0.07699127509501896 -0.008913448759598102 -0.08099753977596774
0.08458656885625292 -0.001389093658277782 -0.07460594567093777
0.09218186261748688 0.006135261443042538 -0.0682143515659078
0.09977715637872084 0.013659616544362855 -0.06182275746087782
0.1073724501399548 0.02118397164568318 -0.05543116335584785
0.11496774390118877 0.028708326747003503 -0.04903956925081788
0.12256303766242273 0.03623268184832381 -0.04264797514578791
0.13015833142365668 0.04375703694964413 -0.03625638104075794
0.13775362518489065 0.05128139205096446 -0.029864786935727968
0.14534891894612462 0.058805747152284794 -0.023473192830697997
0.07699127509501896 -0.008913448759598102 -0.08099753977596774
0.08257484121687796 0.0014103544532539684 -0.07682623796492694
0.08815840733873696 0.011734157666106039 -0.07265493615388614
0.09374197346059596 0.022057960878958106 -0.06848363434284534
0.09932553958245496 0.03238176409181018 -0.06431233253180454
0.10490910570431397 0.042705567304662254 -0.06014103072076374
0.11049267182617296 0.05302937051751431 -0.05596972890972294
0.11607623794803197 0.06335317373036638 -0.05179842709868214
0.12165980406989098 0.07367697694321847 -0.04762712528764134
0.12724337019174997 0.08400078015607051 -0.04345582347660054
0.07699127509501896 -0.008913448759598102 -0.08099753977596774
0.07995804755024458 0.003091058296361365 -0.07949855553455877
0.0829248200054702 0.015095565352320832 -0.0779995712931498
0.08589159246069582 0.027100072408280298 -0.07650058705174083
0.08885836491592145 0.039104579464239765 -0.07500160281033184
0.09182513737114706 0.05110908652019923 -0.07350261856892287
0.09479190982637267 0.0631135935761587 -0.07200363432751392
0.0977586822815983 0.07511810063211818 -0.07050465008610493
0.10072545473682393 0.08712260768807764 -0.06900566584469596
0.10369222719204954 0.09912711474403711 -0.06750668160328699
0.07699127509501896 -0.008913448759598102 -0.08099753977596774
0.07701975805386979 0.0034708875308366097 -0.08233331130588423
0.07704824101272062 0.015855223821271323 -0.08366908283580073
0.07707672397157145 0.028239560111706034 -0.08500485436571723
0.07710520693042229 0.040623896402140744 -0.08634062589563371
0.07713368988927312 0.053008232692575465 -0.08767639742555021
0.07716217284812395 0.06539256898301017 -0.0890121689554667
0.07719065580697479 0.07777690527344489 -0.0903479404853832
0.07721913876582562 0.0901612415638796 -0.09168371201529968
0.07724762172467645 0.10254557785431431 -0.09301948354521618
0.07699127509501896 -0.008913448759598102 -0.08099753977596774
0.07407838198694487 0.0025086817654664893 -0.08502331550531242
0.07116548887887078 0.01393081229053108 -0.0890490912346571
0.06825259577079669 0.025352942815595674 -0.09307486696400179
0.06533970266272261 0.03677507334066026 -0.09710064269334646
0.062426809554648514 0.04819720386572486 -0.10112641842269116
0.05951391644657443 0.059619334390789445 -0.10515219415203583
0.05660102333850034 0.07104146491585404 -0.10917796988138051
0.05368813023042626 0.08246359544091864 -0.1132037456107252
0.050775237122352164 0.09388572596598323 -0.11722952134006989
0.07699127509501896 -0.008913448759598102 -0.08099753977596774
0.07145266308647327 0.0003087109250896112 -0.08727706443811954
0.0659140510779276 0.009530870609777324 -0.09355658910027134
0.06037543906938192 0.018753030294465043 -0.09983611376242316
0.054836827060836243 0.027975189979152753 -0.10611563842457496
0.04929821505229056 0.03719734966384047 -0.11239516308672676
0.04375960304374488 0.04641950934852818 -0.11867468774887857
0.03822099103519921 0.0556416690332159 -0.12495421241103037
0.03268237902665353 0.06486382871790361 -0.13123373707318217
0.02714376701810784 0.07408598840259134 -0.13751326173533399
0.07699127509501896 -0.008913448759598102 -0.08099753977596774
0.06942713873754768 -0.0028906240136744345 -0.08885032943691812
0.061863002380076394 0.0031322007322492334 -0.0967031190978685
0.05429886602260511 0.0091550254781729 -0.10455590875881886
0.046734729665133826 0.015177850224096569 -0.11240869841976925
0.039170593307662545 0.02120067497002024 -0.12026148808071961
0.03160645695019127 0.027223499715943903 -0.12811427774166997
0.02404232059271997 0.03324632446186757 -0.13596706740262038
0.016478184235248695 0.03926914920779124 -0.14381985706357076
0.00891404787777741 0.04529197395371491 -0.15167264672452113
0.07699127509501896 -0.008913448759598102 -0.08099753977596774
0.06822130593262268 -0.006742625467414118 -0.08957262282736662
0.05945133677022641 -0.004571802175230134 -0.09814770587876552
0.050681367607830145 -0.0024009788830461508 -0.1067227889301644
0.041911398445433866 -0.0002301555908621656 -0.1152978719815633
0.0331414292830376 0.001940667701321817 -0.12387295503296218
0.024371460120641328 0.004111490993505801 -0.13244803808436106
0.015601490958245057 0.006282314285689783 -0.14102312113575996
0.006831521795848778 0.00845313757787377 -0.14959820418715886
-0.0019384473665474745 0.010623960870057752 -0.15817328723855775
0.07699127509501896 -0.008913448759598102 -0.08099753977596774
0.0679658353665357 -0.010829869308655878 -0.08936567291307328
0.05894039563805246 -0.012746289857713654 -0.09773380605017881
0.04991495590956921 -0.014662710406771431 -0.10610193918728436
0.04088951618108596 -0.016579130955829205 -0.1144700723243899
0.0318640764526027 -0.018495551504886982 -0.12283820546149544
0.022838636724119454 -0.02041197205394476 -0.13120633859860098
0.01381319699563622 -0.02232839260300253 -0.13957447173570653
0.004787757267152965 -0.02424481315206031 -0.14794260487281205
-0.004237682461330305 -0.026161233701118083 -0.1563107380099176
0.07699127509501896 -0.008913448759598102 -0.08099753977596774
0.06868841123915652 -0.014709439247078562 -0.08825190592841053
0.06038554738329409 -0.020505429734559023 -0.09550627208085333
0.05208268352743165 -0.02630142022203948 -0.10276063823329612
0.043779819671569215 -0.03209741070951994 -0.11001500438573893
0.03547695581570678 -0.0378934011970004 -0.11726937053818173
0.027174091959844347 -0.04368939168448086 -0.12452373669062451
0.01887122810398191 -0.049485382171961335 -0.13177810284306732
0.010568364248119475 -0.05528137265944179 -0.1390324689955101
0.0022655003922570304 -0.06107736314692224 -0.1462868351479529
0.07699127509501896 -0.008913448759598102 -0.08099753977596774
0.0703107312427668 -0.017960923682124104 -0.08635201580804198
0.06363018739051464 -0.027008398604650104 -0.09170649184011623
0.05694964353826248 -0.03605587352717611 -0.09706096787219047
0.05026909968601032 -0.04510334844970211 -0.10241544390426471
0.043588555833758154 -0.05415082337222812 -0.10776991993633896
0.036908011981506 -0.06319829829475411 -0.1131243959684132
0.030227468129253844 -0.07224577321728011 -0.11847887200048744
0.023546924277001682 -0.08129324813980611 -0.12383334803256169
0.01686638042474952 -0.09034072306233212 -0.12918782406463591
0.07699127509501896 -0.008913448759598102 -0.08099753977596774
0.07265699183208685 -0.020231973823276055 -0.08387188512634218
0.06832270856915475 -0.031550498886954007 -0.08674623047671662
0.06398842530622265 -0.042869023950631954 -0.08962057582709106
0.059654142043290545 -0.054187549014309916 -0.09249492117746551
0.05531985878035844 -0.06550607407798786 -0.09536926652783995
0.05098557551742634 -0.0768245991416658 -0.09824361187821438
0.04665129225449423 -0.08814312420534377 -0.10111795722858882
0.04231700899156213 -0.09946164926902172 -0.10399230257896326
0.037982725728630026 -0.11078017433269968 -0.10686664792933771
0.07699127509501896 -0.008913448759598102 -0.08099753977596774
0.07547293926627978 -0.021276486148766864 -0.08108027452586589
0.0739546034375406 -0.033639523537935624 -0.08116300927576404
0.07243626760880142 -0.04600256092710439 -0.0812457440256622
0.07091793178006224 -0.05836559831627315 -0.08132847877556035
0.06939959595132307 -0.07072863570544191 -0.0814112135254585
0.06788126012258389 -0.08309167309461067 -0.08149394827535665
0.06636292429384472 -0.09545471048377942 -0.08157668302525481
0.06484458846510553 -0.10781774787294819 -0.08165941777515297
0.06332625263636636 -0.12018078526211695 -0.08174215252505111
0.07699127509501896 -0.008913448759598102 -0.08099753977596774
0.07845342194692438 -0.020981271540850978 -0.07827969833147623
0.07991556879882981 -0.03304909432210385 -0.0755618568869847
0.08137771565073525 -0.04511691710335673 -0.07284401544249319
0.08283986250264068 -0.057184739884609606 -0.07012617399800168
0.08430200935454611 -0.06925256266586248 -0.06740833255351017
0.08576415620645153 -0.08132038544711535 -0.06469049110901866
0.08722630305835696 -0.09338820822836823 -0.06197264966452714
0.0886884499102624 -0.1054560310096211 -0.05925480822003563
0.09015059676216783 -0.11752385379087397 -0.05653696677554411
0.07699127509501896 -0.008913448759598102 -0.08099753977596774
0.08127545832861906 -0.01937832108302269 -0.07577364242925232
0.08555964156221915 -0.02984319340644728 -0.0705497450825369
0.08984382479581925 -0.04030806572987187 -0.06532584773582148
0.09412800802941935 -0.05077293805329646 -0.06010195038910607
0.09841219126301945 -0.061237810376721054 -0.05487805304239064
0.10269637449661954 -0.07170268270014563 -0.04965415569567523
0.10698055773021964 -0.08216755502357022 -0.044430258348959806
0.11126474096381975 -0.09263242734699481 -0.039206361002244394
0.11554892419741984 -0.10309729967041942 -0.03398246365552897
0.07699127509501896 -0.008913448759598102 -0.08099753977596774
0.08363323698100103 -0.016641339329726744 -0.07383367686166396
0.0902751988669831 -0.024369229899855384 -0.0666698139473602
0.09691716075296518 -0.032097120469984024 -0.059505951033056434
0.10355912263894725 -0.039825011040112664 -0.05234208811875266
0.11020108452492931 -0.047552901610241304 -0.0451782252044489
0.1168430464109114 -0.05528079218036994 -0.038014362290145126
0.12348500829689346 -0.06300868275049858 -0.030850499375841358
0.13012697018287553 -0.07073657332062723 -0.023686636461537593
0.1367689320688576 -0.07846446389075586 -0.01652277354723383
0.07699127509501896 -0.008913448759598102 -0.08099753977596774
0.08527125600237948 -0.013066920722580342 -0.07267002699962663
0.09355123690973999 -0.017220392685562583 -0.06434251422328553
0.10183121781710051 -0.021373864648544825 -0.05601500144694443
0.11011119872446103 -0.025527336611527063 -0.04768748867060333
0.11839117963182155 -0.029680808574509304 -0.039359975894262225
0.12667116053918206 -0.03383428053749155 -0.031032463117921124
0.13495114144654258 -0.037987752500473794 -0.022704950341580026
0.1432311223539031 -0.04214122446345603 -0.014377437565238928
0.1515111032612636 -0.04629469642643828 -0.006049924788897817
-0.07699127509501896 0.008913448759598102 0.08099753977596774
-0.06871129418765844 0.004759976796615864 0.08932505255230884
-0.06043131328029792 0.0006065048336336263 0.09765256532864994
-0.0521513323729374 -0.0035469671293486132 0.10598007810499105
-0.04387135146557688 -0.0077004390923308495 0.11430759088133215
-0.03559137055821636 -0.011853911055313087 0.12263510365767324
-0.02731138965085584 -0.01600738301829533 0.13096261643401436
-0.01903140874349532 -0.02016085498127757 0.13929012921035547
-0.010751427836134803 -0.024314326944259803 0.14761764198669655
-0.00247144692877429 -0.028467798907242044 0.15594515476303766
-0.07699127509501896 0.008913448759598102 0.08099753977596774
-0.06797053957473374 0.008784488538709176 0.08958628719035544
-0.05894980405444853 0.008655528317820252 0.09817503460474314
-0.04992906853416331 0.008526568096931328 0.10676378201913084
-0.0409083330138781 0.008397607876042401 0.11535252943351855
-0.031887597493592885 0.008268647655153479 0.12394127684790625
-0.022866861973307666 0.008139687434264553 0.13253002426229393
-0.013846126453022448 0.008010727213375627 0.14111877167668166
-0.004825390932737242 0.0078817669924867 0.14970751909106936
0.0041953445875479774 0.007752806771597778 0.15829626650545706
-0.07699127509501896 0.008913448759598102 0.08099753977596774
-0.06820732162656527 0.012822975121759806 0.0889167977779059
-0.059423368158111584 0.016732501483921507 0.09683605577984407
-0.0506394146896579 0.02064202784608321 0.10475531378178222
-0.04185546122120421 0.024551554208244914 0.11267457178372041
-0.03307150775275052 0.028461080570406614 0.12059382978565857
-0.024287554284296846 0.032370606932568324 0.12851308778759674
-0.015503600815843158 0.036280133294730024 0.1364323457895349
-0.006719647347389468 0.04018965965689173 0.14435160379147308
0.0020643061210642217 0.04409918601905344 0.15227086179341123
-0.07699127509501896 0.008913448759598102 0.08099753977596774
-0.069395981333785 0.01643780386091842 0.08738913388099771
-0.061800687572551034 0.02396215896223874 0.09378072798602768
-0.054205393811317074 0.03148651406355906 0.10017232209105766
-0.046610100050083106 0.039010869164879385 0.10656391619608763
-0.039014806288849145 0.04653522426619971 0.1129555103011176
-0.031419512527615184 0.05405957936752002 0.11934710440614757
-0.02382421876638123 0.06158393446884034 0.12573869851117753
-0.016228925005147256 0.06910828957016066 0.1321302926162075
-0.008633631243913304 0.076632644671481 0.13852188672123747
-0.07699127509501896 0.008913448759598102 0.08099753977596774
-0.07140770897315996 0.019237251972450173 0.08516884158700853
-0.06582414285130095 0.02956105518530224 0.08934014339804934
-0.060240576729441955 0.03988485839815431 0.09351144520909013
-0.05465701060758295 0.050208661611006386 0.09768274702013094
-0.04907344448572395 0.06053246482385846 0.10185404883117173
-0.04348987836386495 0.07085626803671051 0.10602535064221254
-0.03790631224200595 0.08118007124956257 0.11019665245325333
-0.03232274612014694 0.09150387446241466 0.11436795426429414
-0.02673917999828794 0.10182767767526671 0.11853925607533493
-0.07699127509501896 0.008913448759598102 0.08099753977596774
-0.07402450263979334 0.020917955815557568 0.08249652401737671
-0.07105773018456772 0.03292246287151704 0.08399550825878568
-0.0680909577293421 0.0449269699274765 0.08549449250019465
-0.06512418527411648 0.05693147698343597 0.08699347674160363
-0.06215741281889085 0.06893598403939544 0.0884924609830126
-0.05919064036366524 0.0809404910953549 0.08999144522442157
-0.05622386790843961 0.09294499815131438 0.09149042946583054
-0.05325709545321399 0.10494950520727384 0.09298941370723951
-0.05029032299798838 0.1169540122632333 0.09448839794864848
-0.07699127509501896 0.008913448759598102 0.08099753977596774
-0.07696279213616812 0.021297785050032814 0.07966176824605124
-0.07693430917731729 0.033682121340467525 0.07832599671613476
-0.07690582621846646 0.04606645763090224 0.07699022518621826
-0.07687734325961564 0.05845079392133695 0.07565445365630176
-0.07684886030076479 0.07083513021177167 0.07431868212638527
-0.07682037734191396 0.08321946650220637 0.07298291059646878
-0.07679189438306314 0.09560380279264108 0.07164713906655229
-0.07676341142421231 0.1079881390830758 0.07031136753663579
-0.07673492846536147 0.1203724753735105 0.06897559600671929
-0.07699127509501896 0.008913448759598102 0.08099753977596774
-0.07990416820309304 0.020335579284662692 0.07697176404662305
-0.08281706131116713 0.03175770980972729 0.07294598831727837
-0.08572995441924122 0.04317984033479188 0.06892021258793368
-0.0886428475273153 0.05460197085985647 0.064894436858589
-0.0915557406353894 0.06602410138492107 0.06086866112924432
-0.09446863374346348 0.07744623190998565 0.05684288539989964
-0.09738152685153757 0.08886836243505024 0.05281710967055496
-0.10029441995961165 0.10029049296011483 0.048791333941210276
-0.10320731306768575 0.11171262348517942 0.044765558211865585
-0.07699127509501896 0.008913448759598102 0.08099753977596774
-0.08252988710356464 0.018135608444285814 0.07471801511381593
-0.08806849911211032 0.027357768128973527 0.06843849045166413
-0.09360711112065599 0.03657992781366125 0.06215896578951232
-0.09914572312920167 0.04580208749834896 0.05587944112736052
-0.10468433513774736 0.05502424718303668 0.04959991646520871
-0.11022294714629303 0.06424640686772438 0.043320391803056905
-0.11576155915483871 0.0734685665524121 0.037040867140905105
-0.12130017116338439 0.0826907262370998 0.0307613424787533
-0.12683878317193006 0.09191288592178753 0.024481817816601487
-0.07699127509501896 0.008913448759598102 0.08099753977596774
-0.08455541145249024 0.01493627350552177 0.07314475011501737
-0.09211954780996152 0.020959098251445436 0.06529196045406699
-0.0996836841674328 0.026981922997369102 0.05743917079311661
-0.10724782052490409 0.033004747743292775 0.04958638113216623
-0.11481195688237537 0.03902757248921644 0.04173359147121586
-0.12237609323984665 0.04505039723514011 0.03388080181026549
-0.12994022959731794 0.05107322198106378 0.02602801214931511
-0.1375043659547892 0.05709604672698745 0.018175222488364725
-0.1450685023122605 0.06311887147291112 0.010322432827414348
-0.07699127509501896 0.008913448759598102 0.08099753977596774
-0.08576124425741523 0.011084272051782086 0.07242245672456885
-0.09453121341981151 0.01325509534396607 0.06384737367316995
-0.10330118258220777 0.015425918636150053 0.05527229062177107
-0.11207115174460405 0.017596741928334037 0.04669720757037217
-0.12084112090700032 0.01976756522051802 0.03812212451897329
-0.12961109006939658 0.021938388512702005 0.029547041467574402
-0.13838105923179286 0.024109211804885986 0.02097195841617552
-0.14715102839418914 0.026280035097069974 0.01239687536477661
-0.1559209975565854 0.028450858389253954 0.003821792313377727
-0.07699127509501896 0.008913448759598102 0.08099753977596774
-0.0860167148235022 0.006997028210540326 0.07262940663886219
-0.09504215455198546 0.00508060766148255 0.06426127350175666
-0.1040675942804687 0.003164187112424773 0.055893140364651116
-0.11309303400895196 0.0012477665633669978 0.047525007227545574
-0.12211847373743522 -0.0006686539856907791 0.039156874090440025
-0.13114391346591847 -0.002585074534748556 0.030788740953334493
-0.14016935319440169 -0.004501495083806326 0.022420607816228958
-0.14919479292288496 -0.006417915632864106 0.014052474679123416
-0.15822023265136823 -0.00833433618192188 0.005684341542017867
-0.07699127509501896 0.008913448759598102 0.08099753977596774
-0.08529413895088139 0.003117458272117642 0.07374317362352494
-0.09359700280674382 -0.0026785322153628187 0.06648880747108214
-0.10189986666260627 -0.008474522702843277 0.05923444131863935
-0.1102027305184687 -0.01427051319032374 0.05198007516619655
-0.11850559437433114 -0.0200665036778042 0.044725709013753744
-0.12680845823019357 -0.025862494165284657 0.03747134286131096
-0.135111322086056 -0.03165848465276513 0.030216976708868155
-0.14341418594191843 -0.03745447514024558 0.022962610556425362
-0.1517170497977809 -0.04325046562772603 0.015708244403982562
-0.07699127509501896 0.008913448759598102 0.08099753977596774
-0.08367181894727112 -0.00013402616292789937 0.0756430637438935
-0.09035236279952327 -0.0091815010854539 0.07028858771181926
-0.09703290665177544 -0.018228976007979906 0.06493411167974501
-0.1037134505040276 -0.027276450930505906 0.05957963564767076
-0.11039399435627976 -0.03632392585303191 0.05422515961559652
-0.11707453820853192 -0.04537140077555791 0.04887068358352228
-0.12375508206078407 -0.05441887569808391 0.043516207551448034
-0.13043562591303623 -0.06346635062060992 0.03816173151937379
-0.1371161697652884 -0.07251382554313593 0.03280725548729955
-0.07699127509501896 0.008913448759598102 0.08099753977596774
-0.08132555835795106 -0.0024050763040798506 0.0781231944255933
-0.08565984162088316 -0.013723601367757804 0.07524884907521885
-0.08999412488381527 -0.02504212643143575 0.07237450372484441
-0.09432840814674737 -0.03636065149511371 0.06950015837446998
-0.09866269140967948 -0.047679176558791656 0.06662581302409554
-0.10299697467261157 -0.058997701622469596 0.0637514676737211
-0.10733125793554368 -0.07031622668614758 0.06087712232334665
-0.11166554119847578 -0.08163475174982553 0.05800277697297221
-0.11599982446140789 -0.09295327681350349 0.055128431622597764
-0.07699127509501896 0.008913448759598102 0.08099753977596774
-0.07850961092375813 -0.0034495886295706595 0.08091480502606958
-0.08002794675249732 -0.015812626018739423 0.08083207027617142
-0.08154628258123649 -0.028175663407908186 0.08074933552627328
-0.08306461840997567 -0.04053870079707694 0.08066660077637512
-0.08458295423871484 -0.05290173818624571 0.08058386602647696
-0.08610129006745403 -0.06526477557541448 0.08050113127657882
-0.08761962589619321 -0.07762781296458322 0.08041839652668066
-0.08913796172493238 -0.089990850353752 0.0803356617767825
-0.09065629755367155 -0.10235388774292076 0.08025292702688436
-0.07699127509501896 0.008913448759598102 0.08099753977596774
-0.07552912824311353 -0.003154374021654773 0.08371538122045925
-0.0740669813912081 -0.015222196802907649 0.08643322266495077
-0.07260483453930267 -0.027290019584160528 0.08915106410944228
-0.07114268768739723 -0.0393578423654134 0.09186890555393379
-0.0696805408354918 -0.05142566514666627 0.0945867469984253
-0.06821839398358638 -0.06349348792791916 0.09730458844291683
-0.06675624713168095 -0.07556131070917203 0.10002242988740834
-0.06529410027977552 -0.08762913349042491 0.10274027133189985
-0.0638319534278701 -0.09969695627167778 0.10545811277639136
-0.07699127509501896 0.008913448759598102 0.08099753977596774
-0.07270709186141885 -0.0015514235638264871 0.08622143712268315
-0.06842290862781876 -0.012016295887251076 0.09144533446939858
-0.06413872539421867 -0.022481168210675664 0.09666923181611399
-0.059854542160618564 -0.03294604053410025 0.1018931291628294
-0.05557035892701846 -0.043410912857524846 0.10711702650954483
-0.05128617569341837 -0.053875785180949425 0.11234092385626024
-0.04700199245981827 -0.06434065750437402 0.11756482120297566
-0.04271780922621817 -0.07480552982779862 0.12278871854969108
-0.03843362599261808 -0.08527040215122322 0.1280126158964065
-0.07699127509501896 0.008913448759598102 0.08099753977596774
-0.07034931320903688 0.0011855581894694614 0.0881614026902715
-0.06370735132305481 -0.006542332380659179 0.09532526560457527
-0.05706538943707274 -0.014270222950787817 0.10248912851887904
-0.05042342755109067 -0.021998113520916462 0.10965299143318281
-0.0437814656651086 -0.0297260040910451 0.11681685434748658
-0.037139503779126525 -0.037453894661173735 0.12398071726179034
-0.03049754189314445 -0.045181785231302375 0.13114458017609412
-0.02385558000716239 -0.05290967580143102 0.1383084430903979
-0.01721361812118031 -0.060637566371559655 0.14547230600470165
-0.07699127509501896 0.008913448759598102 0.08099753977596774
-0.06871129418765844 0.004759976796615862 0.08932505255230884
-0.060431313280297924 0.0006065048336336211 0.09765256532864994
-0.052151332372937405 -0.003546967129348622 0.10598007810499105
-0.043871351465576885 -0.00770043909233086 0.11430759088133215
-0.035591370558216366 -0.011853911055313101 0.12263510365767324
-0.027311389650855847 -0.016007383018295348 0.13096261643401436
-0.019031408743495327 -0.02016085498127759 0.13929012921035544
-0.010751427836134817 -0.024314326944259824 0.14761764198669655
-0.002471446928774304 -0.028467798907242072 0.15594515476303766
