# .PCD v0.7 - Point Cloud Data file format
VERSION 0.7
FIELDS x y z
SIZE 4 4 4
TYPE F F F
COUNT 1 1 1
WIDTH 700
HEIGHT 1
VIEWPOINT 0 0 0 1 0 0 0
POINTS 700
DATA ascii
0.1160459688360742 -0.030935298071362687 -0.10839499280609069
0.12626864756567155 -0.009776774750755677 -0.10066666445605926
0.13149475765677648 0.013255064106656824 -0.09330898134485045
0.13147993200993313 0.037083275313952536 -0.08666598055726694
0.12622486385591034 0.060593678198232935 -0.08104828142697106
0.11597527434100144 0.08268695245056515 -0.07671856132167128
0.10121042287932305 0.1023300411218208 -0.07387927314135317
0.0826206975152695 0.118604455217457 -0.07266317884568624
0.0610753331458681 0.13074922122207394 -0.07312714165234413
0.03758176706307945 0.13819646337523364 -0.07524946717614517
0.013238532305711528 0.14059795691086957 -0.07893091783439178
-0.010816108524543415 0.1378414106603237 -0.08399935308594292
-0.03345738715727571 0.13005571766259047 -0.09021777853159722
-0.053626622567592604 0.11760492826906761 -0.09729542750879938
-0.07038072372420279 0.10107122755373782 -0.10490135701761726
-0.08293628747786923 0.0812277129861613 -0.11267992224760207
-0.09070622962197729 0.05900224525303556 -0.120267406133854
-0.09332723629753892 0.03543406252372836 -0.12730902636273458
-0.09067675214544457 0.011625186828508402 -0.13347552459854015
-0.08287871085884463 -0.011311105266780594 -0.13847856223733493
-0.07029774018140007 -0.032302338235620696 -0.1420842027996059
-0.05352211231924361 -0.0503669853544687 -0.14412385054004287
-0.03333623698643845 -0.06466036380146048 -0.1445021337972087
-0.010683983278557506 -0.07451413108636387 -0.1432013644664299
0.013375454597190457 -0.07946753600261255 -0.14028236507591246
0.03771708406588005 -0.07928896284163685 -0.13588162479292215
0.06120271758733345 -0.0739867614859742 -0.13020491734202008
0.08273419304049423 -0.06380885697804185 -0.12351767925440328
0.10130472256368898 -0.0492311568207023 -0.11613259835071732
0.11604596883607418 -0.030935298071362707 -0.1083949928060907
0.1117325264001487 -0.037665637756866405 -0.08426312663976031
0.12195520512974604 -0.016507114436259396 -0.07653479828972887
0.127181315220851 0.0065247244211531046 -0.06917711517852006
0.12716648957400764 0.030352935628448815 -0.06253411439093655
0.12191142141998484 0.05386333851272922 -0.05691641526064067
0.11166183190507595 0.07595661276506144 -0.05258669515534088
0.09689698044339756 0.09559970143631709 -0.04974740697502278
0.07830725507934401 0.11187411553195328 -0.04853131267935585
0.0567618907099426 0.12401888153657023 -0.04899527548601374
0.033268324627153956 0.13146612368972993 -0.05111760100981478
0.008925089869786032 0.13386761722536583 -0.054799051668061385
-0.015129550960468911 0.13111107097481997 -0.05986748691961252
-0.03777082959320121 0.12332537797708676 -0.06608591236526683
-0.0579400650035181 0.1108745885835639 -0.07316356134246899
-0.07469416616012828 0.09434088786823411 -0.08076949085128687
-0.08724972991379472 0.07449737330065757 -0.08854805608127167
-0.09501967205790278 0.05227190556753184 -0.09613553996752361
-0.09764067873346441 0.02870372283822464 -0.1031771601964042
-0.09499019458137006 0.004894847143004682 -0.10934365843220975
-0.08719215329477012 -0.018041444952284314 -0.11434669607100455
-0.07461118261732556 -0.039032677921124415 -0.1179523366332755
-0.057835554755169105 -0.05709732503997242 -0.11999198437371249
-0.03764967942236395 -0.07139070348696419 -0.1203702676308783
-0.014997425714483002 -0.08124447077186758 -0.11906949830009951
0.009062012161264961 -0.08619787568811627 -0.11615049890958207
0.03340364162995455 -0.08601930252714056 -0.11174975862659177
0.05688927515140795 -0.08071710117147791 -0.1060730511756897
0.07842075060456874 -0.07053919666354556 -0.09938581308807289
0.0969912801277635 -0.05596149650620602 -0.09200073218438692
0.11173252640014869 -0.037665637756866426 -0.08426312663976031
0.10741908396422321 -0.04439597744237012 -0.060131260473429926
0.11764176269382055 -0.02323745412176311 -0.05240293212339849
0.1228678727849255 -0.00020561526435061174 -0.04504524901218968
0.12285304713808215 0.0236225959429451 -0.03840224822460617
0.11759797898405935 0.0471329988272255 -0.032784549094310285
0.10734838946915046 0.06922627307955771 -0.028454828989010503
0.09258353800747207 0.08886936175081336 -0.0256155408086924
0.07399381264341852 0.10514377584644956 -0.02439944651302547
0.05244844827401711 0.1172885418510665 -0.024863409319683363
0.02895488219122846 0.1247357840042262 -0.0269857348434844
0.004611647433860539 0.12713727753986212 -0.030667185501731007
-0.019442993396394406 0.12438073128931626 -0.03573562075328214
-0.0420842720291267 0.11659503829158303 -0.041954046198936445
-0.06225350743944359 0.10414424889806018 -0.049031695176138604
-0.07900760859605377 0.08761054818273038 -0.05663762468495649
-0.09156317234972021 0.06776703361515386 -0.06441618991494129
-0.09933311449382827 0.04554156588202812 -0.07200367380119323
-0.1019541211693899 0.021973383152720925 -0.07904529403007382
-0.09930363701729555 -0.0018354925424990346 -0.08521179226587938
-0.09150559573069561 -0.02477178463778803 -0.09021482990467417
-0.07892462505325105 -0.04576301760662813 -0.09382047046694512
-0.062148997191094596 -0.06382766472547614 -0.0958601182073821
-0.04196312185828944 -0.07812104317246792 -0.09623840146454792
-0.019310868150408497 -0.08797481045737131 -0.09493763213376913
0.0047485697253394675 -0.09292821537361999 -0.09201863274325169
0.029090199194029057 -0.09274964221264428 -0.08761789246026139
0.05257583271548246 -0.08744744085698164 -0.08194118500935932
0.07410730816864325 -0.07726953634904929 -0.0752539469217425
0.092677837691838 -0.06269183619170975 -0.06786886601805656
0.1074190839642232 -0.044395977442370144 -0.06013126047342993
0.10310564152829771 -0.05112631712787384 -0.03599939430709954
0.11332832025789505 -0.029967793807266833 -0.028271065957068107
0.118554430349 -0.00693595494985433 -0.020913382845859294
0.11853960470215665 0.01689225625744138 -0.014270382058275783
0.11328453654813385 0.04040265914172178 -0.008652682927979901
0.10303494703322495 0.062495933394054 -0.00432296282268012
0.08827009557154657 0.08213902206530965 -0.0014836746423620168
0.06968037020749301 0.09841343616094585 -0.0002675803466950874
0.04813500583809161 0.1105582021655628 -0.0007315431533529789
0.024641439755302967 0.1180054443187225 -0.0028538686771540176
0.0002982049979350434 0.12040693785435841 -0.0065353193354006234
-0.0237564358323199 0.11765039160381255 -0.011603754586951757
-0.0463977144650522 0.10986469860607932 -0.01782218003260606
-0.0665669498753691 0.09741390921255647 -0.02489982900980822
-0.08332105103197927 0.08088020849722667 -0.0325057585186261
-0.09587661478564571 0.061036693929650145 -0.040284323748610906
-0.10364655692975377 0.038811226196524405 -0.047871807634862845
-0.1062675636053154 0.015243043467217205 -0.05491342786374344
-0.10361707945322106 -0.008565832228002753 -0.061079926099548994
-0.09581903816662111 -0.03150212432329175 -0.06608296373834378
-0.08323806748917656 -0.05249335729213185 -0.06968860430061474
-0.0664624396270201 -0.07055800441097985 -0.07172825204105172
-0.046276564294214936 -0.08485138285797163 -0.07210653529821753
-0.02362431058633399 -0.09470515014287502 -0.07080576596743875
0.00043512728941397233 -0.0996585550591237 -0.0678867665769213
0.024776756758103563 -0.099479981898148 -0.063486026293931
0.04826239027955696 -0.09417778054248535 -0.05780931884302894
0.06979386573271774 -0.083999876034553 -0.05112208075541212
0.0883643952559125 -0.06942217587721346 -0.04373699985172617
0.1031056415282977 -0.05112631712787386 -0.03599939430709955
0.09879219909237222 -0.05785665681337756 -0.011867528140769152
0.10901487782196956 -0.03669813349277055 -0.0041391997907377215
0.11424098791307451 -0.01366629463535805 0.003218483320471092
0.11422616226623115 0.01016191657193766 0.009861484108054604
0.10897109411220836 0.03367231945621806 0.015479183238350486
0.09872150459729946 0.05576559370855028 0.019808903343650267
0.08395665313562108 0.07540868237980593 0.02264819152396837
0.06536692777156752 0.09168309647544212 0.0238642858196353
0.043821563402166114 0.10382786248005907 0.023400323012977408
0.020327997319377473 0.11127510463321877 0.02127799748917637
-0.004015237437990452 0.11367659816885468 0.017596546830929764
-0.028069878268245394 0.11092005191830882 0.01252811157937863
-0.050711156900977696 0.1031343589205756 0.006309686133724325
-0.07088039231129459 0.09068356952705274 -0.0007679628434778331
-0.08763449346790476 0.07414986881172295 -0.008373892352295716
-0.1001900572215712 0.054306354244146426 -0.01615245758228052
-0.10795999936567927 0.03208088651102069 -0.02373994146853246
-0.1105810060412409 0.008512703781713486 -0.03078156169741305
-0.10793052188914655 -0.015296171913506473 -0.036948059933218605
-0.1001324806025466 -0.038232464008795465 -0.041951097572013395
-0.08755150992510205 -0.05922369697763557 -0.04555673813428435
-0.07077588206294559 -0.07728834409648358 -0.04759638587472133
-0.050590006730140434 -0.09158172254347535 -0.04797466913188714
-0.027937753022259485 -0.10143548982837874 -0.04667389980110836
-0.0038783151465115228 -0.10638889474462743 -0.043754900410590915
0.02046331432217807 -0.10621032158365172 -0.03935416012760062
0.043948947843631465 -0.10090812022798908 -0.03367745267669855
0.06548042329679225 -0.09073021572005673 -0.026990214589081733
0.08405095281998701 -0.07615251556271718 -0.01960513368539578
0.0987921990923722 -0.05785665681337758 -0.01186752814076916
0.09447875665644673 -0.06458699649888128 0.012264338025561237
0.10470143538604407 -0.04342847317827427 0.019992666375592667
0.10992754547714902 -0.020396634320861768 0.02735034948680148
0.10991271983030566 0.003431576886433942 0.03399335027438499
0.10465765167628287 0.02694197977071434 0.039611049404680874
0.09440806216137397 0.04903525402304656 0.04394076950998065
0.07964321069969559 0.06867834269430222 0.046780057690298756
0.06105348533564203 0.08495275678993841 0.047996151985965685
0.03950812096624062 0.09709752279455536 0.04753218917930779
0.016014554883451975 0.10454476494771506 0.045409863655506755
-0.008328679873915947 0.10694625848335097 0.04172841299726015
-0.03238332070417089 0.10418971223280511 0.03665997774570902
-0.055024599336903186 0.09640401923507189 0.030441552300054714
-0.07519383474722008 0.08395322984154903 0.023363903322852556
-0.09194793590383026 0.06741952912621924 0.01575797381403467
-0.1045034996574967 0.0475760145586427 0.007979408584049866
-0.11227344180160476 0.025350546825516965 0.00039192469779792885
-0.11489444847716639 0.0017823640962097668 -0.006649695531082661
-0.11224396432507204 -0.02202651159901019 -0.012816193766888216
-0.1044459230384721 -0.04496280369429919 -0.01781923140568301
-0.09186495236102754 -0.06595403666313929 -0.02142487196795396
-0.07508932449887108 -0.08401868378198729 -0.023464519708390943
-0.054903449166065925 -0.09831206222897906 -0.023842802965556752
-0.03225119545818498 -0.10816582951388246 -0.022542033634777973
-0.008191757582437018 -0.11311923443013114 -0.01962303424426053
0.01614987188625257 -0.11294066126915543 -0.015222293961270231
0.039635505407705975 -0.10763845991349279 -0.00954558651036816
0.06116698086086676 -0.09746055540556044 -0.0028583484227513462
0.07973751038406152 -0.0828828552482209 0.00452673248093461
0.09447875665644671 -0.0645869964988813 0.012264338025561228
0.09016531422052124 -0.071317336184385 0.03639620419189161
0.10038799295011858 -0.050158812863777984 0.04412453254192304
0.10561410304122353 -0.027126974006365483 0.05148221565313185
0.10559927739438017 -0.0032987627990697737 0.05812521644071537
0.10034420924035738 0.020211640085210626 0.06374291557101125
0.09009461972544848 0.04230491433754285 0.06807263567631103
0.0753297682637701 0.0619480030087985 0.07091192385662913
0.056740042899716535 0.07822241710443469 0.07212801815229607
0.035194678530315125 0.09036718310905163 0.07166405534563818
0.011701112447526483 0.09781442526221133 0.06954172982183714
-0.012642122309841441 0.10021591879784725 0.06586027916359052
-0.036696763140096386 0.09745937254730139 0.060791843912039394
-0.059338041772828684 0.08967367954956816 0.05457341846638509
-0.07950727718314557 0.0772228901560453 0.04749576948918293
-0.09626137833975575 0.06068918944071552 0.03988983998036505
-0.10881694209342219 0.04084567487313899 0.03211127475038024
-0.11658688423753025 0.01862020714001325 0.024523790864128304
-0.11920789091309188 -0.004947975589293948 0.017482170635247714
-0.11655740676099753 -0.028756851284513905 0.011315672399442157
-0.10875936547439759 -0.0516931433798029 0.006312634760647365
-0.09617839479695303 -0.07268437634864301 0.002706994198376412
-0.07940276693479657 -0.09074902346749102 0.000667346457939431
-0.05921689160199142 -0.10504240191448279 0.00028906320077362146
-0.03656463789411048 -0.11489616919938618 0.001589832531552401
-0.012505200018362512 -0.11984957411563486 0.0045088319220698446
0.011836429450327078 -0.11967100095465916 0.008909572205060142
0.03532206297178048 -0.11436879959899651 0.014586279655962214
0.056853538424941265 -0.10419089509106416 0.021273517743579027
0.07542406794813603 -0.08961319493372462 0.028658598647264985
0.09016531422052122 -0.07131733618438502 0.0363962041918916
0.08585187178459573 -0.07804767586988871 0.060528070358222
0.09607455051419307 -0.0568891525492817 0.06825639870825342
0.10130066060529802 -0.0338573136918692 0.07561408181946223
0.10128583495845467 -0.010029102484573492 0.08225708260704576
0.09603076680443187 0.013481300399706906 0.08787478173734163
0.08578117728952298 0.03557457465203913 0.09220450184264141
0.07101632582784459 0.05521766332329478 0.09504379002295951
0.052426600463791044 0.07149207741893097 0.09625988431862645
0.03088123609438963 0.08363684342354792 0.09579592151196856
0.007387670011600988 0.09108408557670762 0.09367359598816752
-0.016955564745766937 0.09348557911234354 0.0899921453299209
-0.04101020557602188 0.09072903286179768 0.08492371007836978
-0.06365148420875417 0.08294333986406445 0.07870528463271548
-0.08382071961907107 0.07049255047054159 0.07162763565551332
-0.10057482077568125 0.0539588497552118 0.06402170614669543
-0.11313038452934769 0.03411533518763527 0.05624314091671063
-0.12090032667345575 0.01188986745450953 0.04865565703045869
-0.12352133334901738 -0.011678315274797667 0.041614036801578096
-0.12087084919692304 -0.035487190970017624 0.03544753856577254
-0.11307280791032309 -0.05842348306530662 0.03044450092697775
-0.10049183723287854 -0.07941471603414672 0.0268388603647068
-0.08371620937072208 -0.09747936315299473 0.024799212624269817
-0.06353033403791691 -0.1117727415999865 0.024420929367104008
-0.04087808033003597 -0.12162650888488989 0.025721698697882787
-0.016818642454288008 -0.1265799138011386 0.02864069808840023
0.007522987014401584 -0.12640134064016287 0.03304143837139053
0.031008620535854983 -0.12109913928450022 0.0387181458222926
0.052540095989015774 -0.11092123477656787 0.04540538390990941
0.07111062551221052 -0.09634353461922833 0.05279046481359537
0.08585187178459572 -0.07804767586988874 0.06052807035822198
0.08153842934867024 -0.08477801555539244 0.08465993652455239
0.09176110807826758 -0.06361949223478543 0.09238826487458382
0.09698721816937253 -0.040587653377372926 0.09974594798579263
0.09697239252252918 -0.016759442170077212 0.10638894877337614
0.09171732436850638 0.0067509607142031865 0.11200664790367203
0.08146773485359748 0.028844234966535407 0.1163363680089718
0.0667028833919191 0.048487323637791055 0.11917565618928991
0.048113158027865546 0.06476173773342725 0.12039175048495684
0.026567793658464137 0.0769065037380442 0.11992778767829895
0.0030742275756754918 0.0843537458912039 0.11780546215449791
-0.02126900718169243 0.08675523942683981 0.1141240114962513
-0.045323648011947375 0.08399869317629395 0.10905557624470016
-0.06796492664467968 0.07621300017856072 0.10283715079904586
-0.08813416205499656 0.06376221078503787 0.0957595018218437
-0.10488826321160674 0.047228510069708074 0.08815357231302583
-0.11744382696527318 0.02738499550213155 0.08037500708304102
-0.12521376910938126 0.005159527769005811 0.07278752319678908
-0.12783477578494287 -0.018408654960301387 0.06574590296790848
-0.12518429163284853 -0.04221753065552135 0.059579404732102936
-0.11738625034624858 -0.06515382275081034 0.05457636709330814
-0.10480527966880403 -0.08614505571965045 0.05097072653103719
-0.08802965180664757 -0.10420970283849845 0.048931078790600206
-0.06784377647384242 -0.11850308128549022 0.0485527955334344
-0.045191522765961466 -0.12835684857039362 0.049853564864213176
-0.021132084890213503 -0.1333102534866423 0.05277256425473062
0.0032095445784760877 -0.13313168032566658 0.05717330453772092
0.026695178099929488 -0.12782947897000393 0.06285001198862299
0.048226653553090276 -0.1176515744620716 0.0695372500762398
0.06679718307628503 -0.10307387430473205 0.07692233097992576
0.08153842934867023 -0.08477801555539245 0.08465993652455238
0.07722498691274475 -0.09150835524089615 0.10879180269088277
0.08744766564234209 -0.07034983192028914 0.11652013104091422
0.09267377573344704 -0.047317993062876644 0.12387781415212303
0.09265895008660369 -0.023489781855580934 0.13052081493970655
0.08740388193258089 2.062102869946575e-05 0.1361385140700024
0.077154292417672 0.022113895281031686 0.1404682341753022
0.0623894409559936 0.04175698395228734 0.1433075223556203
0.04379971559194005 0.05803139804792353 0.14452361665128724
0.02225435122253864 0.07017616405254049 0.14405965384462935
-0.0012392148602500042 0.07762340620570019 0.1419373283208283
-0.02558244961761793 0.0800248997413361 0.13825587766258168
-0.04963709044787287 0.07726835349079024 0.13318744241103056
-0.07227836908060517 0.06948266049305701 0.12696901696537627
-0.09244760449092206 0.05703187109953415 0.1198913679881741
-0.10920170564753223 0.040498170384204356 0.11228543847935621
-0.12175726940119867 0.02065465581662783 0.10450687324937141
-0.12952721154530675 -0.0015708119164979098 0.09691938936311947
-0.13214821822086836 -0.02513899464580511 0.08987776913423888
-0.12949773406877402 -0.04894787034102507 0.08371127089843333
-0.12169969278217407 -0.07188416243631406 0.07870823325963854
-0.10911872210472952 -0.09287539540515416 0.07510259269736758
-0.09234309424257306 -0.11094004252400216 0.0730629449569306
-0.07215721890976791 -0.12523342097099394 0.07268466169976479
-0.049504965201886963 -0.13508718825589733 0.07398543103054357
-0.025445527326139 -0.140040593172146 0.07690443042106102
-0.0011038978574494083 -0.13986202001117032 0.08130517070405131
0.02238173566400399 -0.13455981865550767 0.08698187815495338
0.04391321111716478 -0.12438191414757531 0.0936691162425702
0.06248374064035953 -0.10980421399023577 0.10105419714625616
0.07722498691274474 -0.09150835524089618 0.10879180269088277
0.01941049096166473 0.030286528584766735 -0.10859339774848674
0.03014776628104356 0.023484103400752354 -0.10857135275488718
0.04088504160042239 0.016681678216737973 -0.10854930776128761
0.051622316919801216 0.009879253032723594 -0.10852726276768805
0.06235959223918005 0.003076827848709214 -0.1085052177740885
0.07309686755855888 -0.0037255973353051705 -0.10848317278048894
0.0838341428779377 -0.010528022519319545 -0.10846112778688938
0.09457141819731653 -0.017330447703333925 -0.10843908279328981
0.10530869351669536 -0.024132872887348306 -0.10841703779969025
0.1160459688360742 -0.030935298071362687 -0.10839499280609069
0.01941049096166473 0.030286528584766735 -0.10859339774848674
0.0316607941347149 0.027163421354634884 -0.10727475107577537
0.04391109730776507 0.024040314124503033 -0.10595610440306402
0.05616140048081523 0.020917206894371185 -0.10463745773035267
0.0684117036538654 0.01779409966423933 -0.1033188110576413
0.08066200682691556 0.014670992434107485 -0.10200016438492995
0.09291230999996572 0.011547885203975638 -0.10068151771221859
0.1051626131730159 0.008424777973843776 -0.09936287103950724
0.11741291634606607 0.005301670743711929 -0.09804422436679588
0.12966321951911625 0.0021785635135800783 -0.09672557769408452
0.01941049096166473 0.030286528584766735 -0.10859339774848674
0.03184631155654759 0.031181176436903883 -0.10612104522456314
0.044282132151430446 0.03207582428904103 -0.10364869270063956
0.0567179527463133 0.03297047214117818 -0.10117634017671596
0.06915377334119616 0.033865119993315325 -0.09870398765279237
0.08158959393607901 0.03475976784545247 -0.09623163512886879
0.09402541453096186 0.03565441569758963 -0.09375928260494519
0.10646123512584474 0.036549063549726764 -0.0912869300810216
0.11889705572072759 0.037443711401863915 -0.088814577557098
0.13133287631561047 0.038338359254001066 -0.0863422250331744
0.01941049096166473 0.030286528584766735 -0.10859339774848674
0.030684214855286662 0.03510198254250209 -0.10523525713182007
0.041957938748908595 0.03991743650023745 -0.1018771165151534
0.053231662642530535 0.0447328904579728 -0.09851897589848672
0.06450538653615245 0.049548344415708157 -0.09516083528182007
0.0757791104297744 0.054363798373443524 -0.0918026946651534
0.08705283432339633 0.05917925233117888 -0.08844455404848672
0.09832655821701825 0.06399470628891422 -0.08508641343182005
0.10960028211064018 0.06881016024664958 -0.08172827281515338
0.12087400600426212 0.07362561420438495 -0.07837013219848671
0.01941049096166473 0.030286528584766735 -0.10859339774848674
0.02830043524030194 0.03850095949231291 -0.10471337568181326
0.03719037951893915 0.046715390399859086 -0.10083335361513977
0.046080323797576365 0.05492982130740526 -0.09695333154846629
0.05497026807621358 0.06314425221495143 -0.0930733094817928
0.06386021235485079 0.0713586831224976 -0.08919328741511931
0.072750156633488 0.07957311403004377 -0.08531326534844583
0.0816401009121252 0.08778754493758995 -0.08143324328177234
0.09053004519076242 0.09600197584513613 -0.07755322121509886
0.09941998946939963 0.1042164067526823 -0.07367319914842538
0.01941049096166473 0.030286528584766735 -0.10859339774848674
0.02495329222102877 0.04100977539326291 -0.10461195482747598
0.03049609348039281 0.05173302220175908 -0.10063051190646523
0.036038894739756855 0.06245626901025524 -0.09664906898545449
0.04158169599912089 0.07317951581875141 -0.09266762606444373
0.047124497258484936 0.08390276262724758 -0.08868618314343298
0.05266729851784898 0.09462600943574374 -0.08470474022242222
0.058210099777213024 0.10534925624423992 -0.08072329730141146
0.06375290103657706 0.1160725030527361 -0.07674185438040071
0.0692957022959411 0.12679574986123227 -0.07276041145938995
0.01941049096166473 0.030286528584766735 -0.10859339774848674
0.02100550067988052 0.04235656111419452 -0.10494198509208241
0.022600510398096314 0.05442659364362232 -0.10129057243567807
0.02419552011631211 0.0664966261730501 -0.09763915977927375
0.0257905298345279 0.07856665870247789 -0.0939877471228694
0.0273855395527437 0.0906366912319057 -0.09033633446646508
0.028980549270959492 0.10270672376133347 -0.08668492181006075
0.030575558989175283 0.11477675629076124 -0.08303350915365641
0.03217056870739107 0.12684678882018907 -0.07938209649725209
0.033765578425606874 0.13891682134961686 -0.07573068384084775
0.01941049096166473 0.030286528584766735 -0.10859339774848674
0.016884865086637824 0.04239537152471122 -0.10566770257551522
0.014359239211610919 0.0545042144646557 -0.10274200740254372
0.01183361333658401 0.06661305740460018 -0.0998163122295722
0.00930798746155711 0.07872190034454467 -0.0968906170566007
0.006782361586530199 0.09083074328448916 -0.09396492188362918
0.004256735711503294 0.10293958622443362 -0.09103922671065766
0.0017311098364763884 0.11504842916437812 -0.08811353153768615
-0.0007945160385505064 0.1271572721043226 -0.08518783636471464
-0.003320141913577429 0.1392661150442671 -0.08226214119174313
0.01941049096166473 0.030286528584766735 -0.10859339774848674
0.013037920246077531 0.041122000914627935 -0.10671046452777752
0.006665349530490336 0.051957473244489134 -0.10482753130706829
0.00029277881490314073 0.06279294557435033 -0.10294459808635907
-0.006079791900684057 0.07362841790421153 -0.10106166486564985
-0.012452362616271246 0.08446389023407273 -0.09917873164494063
-0.018824933331858446 0.09529936256393393 -0.09729579842423142
-0.025197504047445633 0.10613483489379512 -0.09541286520352218
-0.03157007476303284 0.11697030722365633 -0.09352993198281297
-0.037942645478620037 0.12780577955351755 -0.09164699876210375
0.01941049096166473 0.030286528584766735 -0.10859339774848674
0.009881542323173793 0.03867443874792799 -0.10795727151122288
0.0003525936846828595 0.04706234891108925 -0.107321145273959
-0.00917635495380807 0.055450259074250496 -0.10668501903669514
-0.018705303592299008 0.06383816923741176 -0.10604889279943128
-0.028234252230789944 0.07222607940057302 -0.10541276656216741
-0.037763200869280866 0.08061398956373426 -0.10477664032490355
-0.04729214950777181 0.08900189972689554 -0.10414051408763969
-0.056821098146262745 0.09738980989005679 -0.10350438785037581
-0.0663500467847537 0.10577772005321805 -0.10286826161311195
0.01941049096166473 0.030286528584766735 -0.10859339774848674
0.007757773842122896 0.03531791636321333 -0.10927301264299133
-0.0038949432774189378 0.040349304141659936 -0.10995262753749593
-0.015547660396960776 0.04538069192010653 -0.11063224243200052
-0.027200377516502602 0.05041207969855314 -0.11131185732650513
-0.038853094636044444 0.05544346747699974 -0.11199147222100972
-0.05050581175558628 0.06047485525544634 -0.11267108711551432
-0.06215852887512809 0.06550624303389294 -0.11335070201001891
-0.07381124599466994 0.07053763081233953 -0.11403031690452352
-0.08546396311421178 0.07556901859078613 -0.11470993179902812
0.01941049096166473 0.030286528584766735 -0.10859339774848674
0.006896758071510022 0.03141616504267877 -0.11051510695562862
-0.005616974818644684 0.03254580150059081 -0.11243681616277049
-0.01813070770879939 0.03367543795850284 -0.11435852536991237
-0.030644440598954097 0.03480507441641488 -0.11628023457705425
-0.04315817348910881 0.03593471087432692 -0.11820194378419613
-0.05567190637926351 0.037064347332238956 -0.12012365299133801
-0.06818563926941822 0.038193983790150994 -0.12204536219847988
-0.08069937215957293 0.03932362024806303 -0.12396707140562176
-0.09321310504972766 0.04045325670597508 -0.12588878061276362
0.01941049096166473 0.030286528584766735 -0.10859339774848674
0.007391799430117286 0.027392000083813817 -0.11154895425728142
-0.004626892101430157 0.0244974715828609 -0.11450451076607612
-0.016645583632977592 0.021602943081907983 -0.11746006727487081
-0.028664275164525042 0.018708414580955072 -0.12041562378366549
-0.040682966696072485 0.015813886080002157 -0.12337118029246018
-0.052701658227619914 0.01291935757904923 -0.12632673680125486
-0.06472034975916736 0.010024829078096318 -0.12928229331004956
-0.07673904129071482 0.007130300577143408 -0.13223784981884426
-0.08875773282226224 0.004235772076190482 -0.13519340632763893
0.01941049096166473 0.030286528584766735 -0.10859339774848674
0.00918925250538148 0.02368150220126437 -0.11226252115102196
-0.0010319859509017675 0.017076475817762005 -0.11593164455355719
-0.011253224407185016 0.010471449434259641 -0.11960076795609241
-0.021474462863468262 0.0038664230507572733 -0.12326989135862763
-0.03169570131975152 -0.0027386033327450954 -0.12693901476116287
-0.04191693977603476 -0.009343629716247451 -0.1306081381636981
-0.05213817823231801 -0.015948656099749832 -0.13427726156623332
-0.06235941668860125 -0.022553682483252187 -0.13794638496876854
-0.07258065514488451 -0.029158708866754555 -0.14161550837130377
0.01941049096166473 0.030286528584766735 -0.10859339774848674
0.01209433536623962 0.020686761414911402 -0.11257848159178228
0.004778179770814511 0.011086994245056067 -0.11656356543507781
-0.0025379758246105977 0.0014872270752007343 -0.12054864927837336
-0.009854131420035708 -0.0081125400946546 -0.1245337331216689
-0.017170287015460813 -0.01771230726450993 -0.12851881696496442
-0.024486442610885922 -0.027312074434365265 -0.13250390080825997
-0.03180259820631104 -0.0369118416042206 -0.1364889846515555
-0.03911875380173614 -0.04651160877407593 -0.14047406849485106
-0.04643490939716125 -0.05611137594393128 -0.1444591523381466
0.01941049096166473 0.030286528584766735 -0.10859339774848674
0.015792237207712695 0.01873230435714734 -0.11246259636317461
0.012173983453760662 0.007178080129527946 -0.11633179497786249
0.00855572969980863 -0.004376144098091451 -0.12020099359255038
0.004937475945856597 -0.01593036832571084 -0.12407019220723825
0.0013192221919045692 -0.027484592553330238 -0.12793939082192612
-0.002299031562047469 -0.039038816780949635 -0.131808589436614
-0.0059172853159994996 -0.05059304100856902 -0.13567778805130187
-0.009535539069951535 -0.062147265236188416 -0.13954698666598975
-0.013153792823903563 -0.07370148946380782 -0.14341618528067762
0.01941049096166473 0.030286528584766735 -0.10859339774848674
0.01988223298641808 0.018029926776706826 -0.1119274234278632
0.02035397501117143 0.005773324968646915 -0.11526144910723968
0.02082571703592478 -0.0064832768394129945 -0.11859547478661615
0.021297459060678134 -0.018739878647472903 -0.12192950046599262
0.021769201085431483 -0.03099648045553282 -0.1252635261453691
0.022240943110184833 -0.04325308226359272 -0.12859755182474555
0.022712685134938196 -0.05550968407165264 -0.13193157750412202
0.02318442715969154 -0.06776628587971255 -0.1352656031834985
0.023656169184444895 -0.08002288768777246 -0.13859962886287497
0.01941049096166473 0.030286528584766735 -0.10859339774848674
0.023921108196909735 0.018655742182941658 -0.11103095707745274
0.02843172543215474 0.00702495578111658 -0.11346851640641874
0.032942342667399746 -0.004605830620708498 -0.11590607573538474
0.03745295990264475 -0.016236617022533574 -0.11834363506435074
0.041963577137889764 -0.027867403424358644 -0.12078119439331673
0.04647419437313476 -0.03949818982618373 -0.12321875372228272
0.050984811608379775 -0.05112897622800879 -0.12565631305124872
0.055495428843624774 -0.06275976262983389 -0.12809387238021472
0.06000604607886978 -0.07439054903165895 -0.13053143170918072
0.01941049096166473 0.030286528584766735 -0.10859339774848674
0.027471188040524928 0.020541933766059756 -0.10987034335111881
0.035531885119385126 0.010797338947352778 -0.11114728895375088
0.04359258219824532 0.0010527441286458028 -0.11242423455638295
0.05165327927710553 -0.008691850690061178 -0.11370118015901502
0.05971397635596573 -0.018436445508768155 -0.1149781257616471
0.06777467343482592 -0.028181040327475128 -0.11625507136427916
0.07583537051368612 -0.037925635146182114 -0.11753201696691123
0.08389606759254632 -0.04767022996488909 -0.1188089625695433
0.09195676467140654 -0.05741482478359606 -0.12008590817217538
0.01941049096166473 0.030286528584766735 -0.10859339774848674
0.030147766281043556 0.02348410340075235 -0.10857135275488718
0.04088504160042238 0.01668167821673797 -0.10854930776128761
0.05162231691980121 0.009879253032723587 -0.10852726276768807
0.06235959223918004 0.0030768278487092035 -0.1085052177740885
0.07309686755855888 -0.0037255973353051844 -0.10848317278048894
0.08383414287793768 -0.01052802251931956 -0.10846112778688938
0.09457141819731651 -0.017330447703333945 -0.10843908279328983
0.10530869351669535 -0.024132872887348326 -0.10841703779969027
0.11604596883607418 -0.030935298071362707 -0.1083949928060907
-0.01941049096166473 -0.030286528584766735 0.10859339774848674
-0.008673215642285898 -0.037088953768781116 0.1086154427420863
0.0020640596770929317 -0.0438913789527955 0.10863748773568586
0.012801334996471759 -0.05069380413680987 0.10865953272928541
0.02353861031585059 -0.05749622932082425 0.10868157772288498
0.034275885635229424 -0.06429865450483864 0.10870362271648454
0.04501316095460824 -0.07110107968885301 0.1087256677100841
0.055750436273987077 -0.07790350487286739 0.10874771270368366
0.06648771159336592 -0.08470593005688178 0.10876975769728323
0.07722498691274475 -0.09150835524089615 0.10879180269088277
-0.01941049096166473 -0.030286528584766735 0.10859339774848674
-0.00716018778861456 -0.033409635814898586 0.10991204442119809
0.0050901153844356084 -0.03653274304503044 0.11123069109390946
0.01734041855748577 -0.03965585027516228 0.11254933776662081
0.029590721730535945 -0.04277895750529414 0.11386798443933217
0.041841024903586106 -0.04590206473542598 0.11518663111204352
0.05409132807663627 -0.04902517196555783 0.11650527778475489
0.06634163124968645 -0.05214827919568969 0.11782392445746624
0.07859193442273663 -0.055271386425821536 0.1191425711301776
0.0908422375957868 -0.05839449365595339 0.12046121780288896
-0.01941049096166473 -0.030286528584766735 0.10859339774848674
-0.00697467036678187 -0.029391880732629588 0.11106575027241034
0.005461150228100988 -0.02849723288049244 0.11353810279633392
0.01789697082298384 -0.02760258502835529 0.11601045532025751
0.030332791417866704 -0.026707937176218145 0.11848280784418111
0.042768612012749556 -0.025813289324081 0.12095516036810469
0.05520443260763241 -0.024918641471943843 0.12342751289202829
0.0676402532025153 -0.024023993619806706 0.12589986541595188
0.08007607379739815 -0.023129345767669555 0.12837221793987547
0.09251189439228101 -0.022234697915532405 0.13084457046379908
-0.01941049096166473 -0.030286528584766735 0.10859339774848674
-0.008136767068042795 -0.025471074627031378 0.11195153836515341
0.0031369568255791374 -0.02065562066929602 0.11530967898182008
0.014410680719201078 -0.015840166711560664 0.11866781959848675
0.025684404612823 -0.011024712753825308 0.12202596021515341
0.03695812850644494 -0.006209258796089945 0.12538410083182008
0.04823185240006688 -0.0013938048383545917 0.12874224144848675
0.05950557629368879 0.003421649119380762 0.13210038206515343
0.07077930018731074 0.008237103077116116 0.1354585226818201
0.08205302408093268 0.013052557034851484 0.13881666329848677
-0.01941049096166473 -0.030286528584766735 0.10859339774848674
-0.010520546683027515 -0.02207209767722056 0.11247341981516022
-0.001630602404390303 -0.013857666769674383 0.1163534418818337
0.007259341874246907 -0.005643235862128212 0.12023346394850719
0.01614928615288412 0.002571195045417967 0.12411348601518067
0.025039230431521335 0.01078562595296414 0.12799350808185417
0.03392917471015854 0.01900005686051031 0.13187353014852765
0.04281911898879575 0.027214487768056482 0.13575355221520113
0.05170906326743297 0.03542891867560267 0.13963357428187462
0.06059900754607018 0.04364334958314884 0.1435135963485481
-0.01941049096166473 -0.030286528584766735 0.10859339774848674
-0.013867689702300687 -0.019563281776270564 0.1125748406694975
-0.008324888442936645 -0.00884003496777439 0.11655628359050825
-0.002782087183572603 0.0018832118407217735 0.12053772651151899
0.002760714075791438 0.012606458649217953 0.12451916943252975
0.008303515335155479 0.023329705457714116 0.1285006123535405
0.013846316594519523 0.03405295226621028 0.13248205527455126
0.019389117853883565 0.04477619907470646 0.136463498195562
0.024931919113247603 0.05549944588320264 0.14044494111657277
0.030474720372611647 0.06622269269169881 0.1444263840375835
-0.01941049096166473 -0.030286528584766735 0.10859339774848674
-0.017815481243448936 -0.018216496055338944 0.11224481040489107
-0.016220471525233142 -0.006146463525911152 0.1158962230612954
-0.014625461807017346 0.005923569003516636 0.11954763571769973
-0.013030452088801556 0.01799360153294443 0.12319904837410406
-0.011435442370585759 0.030063634062372224 0.1268504610305084
-0.009840432652369965 0.042133666591800005 0.13050187368691274
-0.008245422934154175 0.05420369912122778 0.13415328634331705
-0.006650413215938385 0.0662737316506556 0.1378046989997214
-0.0050554034977225845 0.07834376418008339 0.14145611165612573
-0.01941049096166473 -0.030286528584766735 0.10859339774848674
-0.02193611683669163 -0.01817768564482225 0.11151909292145824
-0.024461742711718536 -0.006068842704877768 0.11444478809442976
-0.026987368586745445 0.006040000235066714 0.11737048326740128
-0.029512994461772347 0.018148843175011198 0.12029617844037278
-0.03203862033679926 0.03025768611495569 0.1232218736133443
-0.03456424621182616 0.04236652905490016 0.1261475687863158
-0.03708987208685307 0.05447537199484465 0.12907326395928734
-0.039615497961879964 0.06658421493478914 0.13199895913225884
-0.04214112383690689 0.07869305787473364 0.13492465430523035
-0.01941049096166473 -0.030286528584766735 0.10859339774848674
-0.025783061677251924 -0.019451056254905535 0.11047633096919596
-0.03215563239283912 -0.008615583925044334 0.11235926418990518
-0.038528203108426314 0.0022198884048168646 0.11424219741061441
-0.044900773824013515 0.013055360734678065 0.11612513063132363
-0.0512733445396007 0.023890833064539263 0.11800806385203284
-0.057645915255187904 0.03472630539440046 0.11989099707274206
-0.06401848597077509 0.045561777724261655 0.1217739302934513
-0.0703910566863623 0.05639725005412286 0.12365686351416051
-0.07676362740194949 0.06723272238398408 0.12553979673486973
-0.01941049096166473 -0.030286528584766735 0.10859339774848674
-0.028939439600155662 -0.021898618421605478 0.1092295239857506
-0.038468388238646595 -0.013510708258444219 0.10986565022301446
-0.047997336877137524 -0.0051227980952829695 0.11050177646027833
-0.05752628551562847 0.0032651120678782947 0.1111379026975422
-0.0670552341541194 0.011653022231039556 0.11177402893480606
-0.07658418279261033 0.020040932394200794 0.11241015517206993
-0.08611313143110126 0.02842884255736207 0.11304628140933379
-0.0956420800695922 0.03681675272052332 0.11368240764659765
-0.10517102870808315 0.04520466288368458 0.11431853388386153
-0.01941049096166473 -0.030286528584766735 0.10859339774848674
-0.03106320808120656 -0.025255140806320135 0.10791378285398213
-0.04271592520074839 -0.020223753027873534 0.10723416795947754
-0.054368642320290234 -0.015192365249426932 0.10655455306497294
-0.06602135943983206 -0.010160977470980331 0.10587493817046835
-0.0776740765593739 -0.005129589692533728 0.10519532327596375
-0.08932679367891573 -9.820191408713063e-05 0.10451570838145915
-0.10097951079845754 0.004933185864359473 0.10383609348695455
-0.11263222791799939 0.009964573642806071 0.10315647859244996
-0.12428494503754123 0.014995961421252669 0.10247686369794536
-0.01941049096166473 -0.030286528584766735 0.10859339774848674
-0.031924223851819436 -0.029156892126854697 0.10667168854134486
-0.04443795674197414 -0.02802725566894266 0.10474997933420298
-0.05695168963212885 -0.026897619211030625 0.10282827012706111
-0.06946542252228355 -0.025767982753118587 0.10090656091991923
-0.08197915541243826 -0.02463834629520655 0.09898485171277735
-0.09449288830259296 -0.023508709837294514 0.09706314250563547
-0.10700662119274766 -0.022379073379382476 0.0951414332984936
-0.11952035408290237 -0.021249436921470438 0.09321972409135172
-0.1320340869730571 -0.020119800463558393 0.09129801488420984
-0.01941049096166473 -0.030286528584766735 0.10859339774848674
-0.03142918249321217 -0.03318105708571965 0.10563784123969205
-0.043447874024759615 -0.036075585586672565 0.10268228473089736
-0.05546656555630705 -0.03897011408762548 0.09972672822210267
-0.0674852570878545 -0.041864642588578395 0.09677117171330799
-0.07950394861940194 -0.04475917108953131 0.09381561520451329
-0.09152264015094937 -0.04765369959048424 0.0908600586957186
-0.10354133168249681 -0.05054822809143715 0.08790450218692392
-0.11556002321404427 -0.05344275659239006 0.08494894567812922
-0.12757871474559168 -0.05633728509334299 0.08199338916933453
-0.01941049096166473 -0.030286528584766735 0.10859339774848674
-0.029631729417947977 -0.0368915549682691 0.10492427434595152
-0.039852967874231225 -0.043496581351771466 0.10125515094341629
-0.05007420633051447 -0.05010160773527383 0.09758602754088107
-0.06029544478679772 -0.056706634118776196 0.09391690413834583
-0.07051668324308097 -0.06331166050227856 0.0902477807358106
-0.08073792169936421 -0.06991668688578091 0.08657865733327538
-0.09095916015564746 -0.0765217132692833 0.08290953393074016
-0.1011803986119307 -0.08312673965278565 0.07924041052820494
-0.11140163706821396 -0.08973176603628802 0.07557128712566971
-0.01941049096166473 -0.030286528584766735 0.10859339774848674
-0.026726646557089836 -0.03988629575462207 0.1046083139051912
-0.03404280215251495 -0.0494860629244774 0.10062323006189566
-0.04135895774794005 -0.059085830094332735 0.09663814621860012
-0.04867511334336516 -0.06868559726418806 0.09265306237530457
-0.05599126893879027 -0.0782853644340434 0.08866797853200904
-0.06330742453421538 -0.08788513160389873 0.0846828946887135
-0.0706235801296405 -0.09748489877375406 0.08069781084541797
-0.0779397357250656 -0.1070846659436094 0.07671272700212241
-0.0852558913204907 -0.11668443311346474 0.07272764315882688
-0.01941049096166473 -0.030286528584766735 0.10859339774848674
-0.02302874471561676 -0.041840752812386126 0.10472419913379886
-0.026646998469568795 -0.05339497704000552 0.10085500051911098
-0.030265252223520826 -0.06494920126762492 0.0969858019044231
-0.03388350597747286 -0.0765034254952443 0.09311660328973523
-0.03750175973142489 -0.0880576497228637 0.08924740467504735
-0.04112001348537692 -0.0996118739504831 0.08537820606035948
-0.04473826723932896 -0.11116609817810248 0.0815090074456716
-0.04835652099328099 -0.12272032240572188 0.07763980883098372
-0.05197477474723302 -0.1342745466333413 0.07377061021629584
-0.01941049096166473 -0.030286528584766735 0.10859339774848674
-0.018938748936911377 -0.042543130392826645 0.10525937206911026
-0.018467006912158027 -0.054799732200886554 0.1019253463897338
-0.017995264887404678 -0.06705633400894646 0.09859132071035732
-0.017523522862651325 -0.07931293581700637 0.09525729503098086
-0.017051780837897976 -0.09156953762506628 0.09192326935160439
-0.016580038813144626 -0.10382613943312619 0.08858924367222791
-0.016108296788391263 -0.1160827412411861 0.08525521799285145
-0.01563655476363792 -0.12833934304924602 0.08192119231347497
-0.015164812738884563 -0.14059594485730592 0.07858716663409851
-0.01941049096166473 -0.030286528584766735 0.10859339774848674
-0.014899873726419722 -0.04191731498659181 0.10615583841952074
-0.010389256491174717 -0.05354810138841689 0.10371827909055474
-0.00587863925592971 -0.06517888779024196 0.10128071976158874
-0.001368022020684706 -0.07680967419206704 0.09884316043262274
0.00314259521456031 -0.08844046059389211 0.09640560110365674
0.007653212449805308 -0.10007124699571719 0.09396804177469074
0.012163829685050318 -0.11170203339754226 0.09153048244572475
0.016674446920295315 -0.12333281979936735 0.08909292311675875
0.02118506415554032 -0.1349636062011924 0.08665536378779276
-0.01941049096166473 -0.030286528584766735 0.10859339774848674
-0.011349793882804528 -0.040031123403473715 0.10731645214585467
-0.0032890968039443282 -0.04977571822218069 0.1060395065432226
0.004771600274915866 -0.05952031304088767 0.10476256094059053
0.012832297353776072 -0.06926490785959465 0.10348561533795846
0.020892994432636272 -0.07900950267830162 0.10220866973532639
0.02895369151149646 -0.08875409749700859 0.10093172413269431
0.03701438859035667 -0.09849869231571558 0.09965477853006224
0.04507508566921687 -0.10824328713442255 0.09837783292743017
0.053135782748077086 -0.11798788195312952 0.0971008873247981
-0.01941049096166473 -0.030286528584766735 0.10859339774848674
-0.0086732156422859 -0.037088953768781116 0.1086154427420863
0.002064059677092928 -0.0438913789527955 0.10863748773568585
0.012801334996471752 -0.05069380413680988 0.10865953272928541
0.023538610315850583 -0.057496229320824266 0.10868157772288498
0.03427588563522942 -0.06429865450483865 0.10870362271648454
0.04501316095460823 -0.07110107968885303 0.10872566771008409
0.05575043627398706 -0.07790350487286742 0.10874771270368365
0.0664877115933659 -0.08470593005688179 0.10876975769728321
0.07722498691274474 -0.09150835524089618 0.10879180269088277
