# .PCD v0.7 - Point Cloud Data file format
VERSION 0.7
FIELDS x y z
SIZE 4 4 4
TYPE F F F
COUNT 1 1 1
WIDTH 700
HEIGHT 1
VIEWPOINT 0 0 0 1 0 0 0
POINTS 700
DATA ascii
0.020328365817191902 -0.038317338616758415 -0.06832398229879932
0.02225898789203719 -0.027011623169408833 -0.07296942595643427
0.02185387416038005 -0.01514024272367376 -0.07643826716433375
0.019131967290061187 -0.0032582898351040585 -0.07856830676295648
0.014220540621154508 0.008078648585072871 -0.07925994646803984
0.00734924700603941 0.01834046989643166 -0.07848084597567645
-0.0011606195027356724 0.02704734273964837 -0.07626743515898124
-0.010911147005257712 0.033792143417568296 -0.07272321064771341
-0.02144641167244176 0.03825949254679947 -0.06801389644089725
-0.032273796237555975 0.04024050184716097 -0.06235969483681666
-0.042887024232109223 0.039642541525501604 -0.05602499001828473
-0.05278983291083192 0.03649357154187699 -0.04930598574209728
-0.06151917794608832 0.03094083423289264 -0.042516855180571925
-0.068666884866 0.02324396942369242 -0.03597505053318894
-0.07389873483909755 0.013762873958303721 -0.02998645931456631
-0.07697009237542256 0.0029408733232073165 -0.02483110139424571
-0.07773734421014518 -0.008716007759689485 -0.020750035578812553
-0.07616461450021293 -0.02066270648664324 -0.01793408797001762
-0.07232544233889876 -0.03234060850298353 -0.016514929148347172
-0.06639934314953229 -0.043203668089482186 -0.016558917403020783
-0.058663414743822126 -0.05274394065329809 -0.01806399589213935
-0.049479380536152376 -0.06051533365259863 -0.020959788818326282
-0.03927667575875279 -0.06615446538801943 -0.025110892122795755
-0.02853236754752266 -0.06939765632705701 -0.030323204828650724
-0.017748847812978214 -0.07009325846594978 -0.036353004986834914
-0.00743034195288538 -0.06820874622178938 -0.042918345843593164
0.0019406681669334683 -0.06383223729262782 -0.049712239357315724
0.009926004528405289 -0.057168372371852426 -0.05641701061817122
0.016152281678331614 -0.04852874637680468 -0.06271915197382014
0.020328365817191895 -0.03831733861675843 -0.06832398229879932
0.02648253866759733 -0.035003085904914855 -0.05770037265561581
0.02841316074244262 -0.023697370457565273 -0.06234581631325076
0.028008047010785478 -0.011825990011830202 -0.06581465752115023
0.025286140140466616 5.5962876739500516e-05 -0.06794469711977297
0.02037471347155994 0.01139290129691643 -0.06863633682485633
0.013503419856444843 0.02165472260827522 -0.06785723633249294
0.00499355334766976 0.03036159545149193 -0.06564382551579771
-0.00475697415485228 0.037106396129411856 -0.062099601004529895
-0.015292238822036328 0.04157374525864303 -0.057390286797713734
-0.026119623387150542 0.04355475455900453 -0.051736085193633145
-0.03673285138170379 0.042956794237345164 -0.04540138037510122
-0.046635660060426486 0.03980782425372055 -0.038682376098913764
-0.05536500509568289 0.0342550869447362 -0.031893245537388405
-0.06251271201559457 0.02655822213553598 -0.025351440890005423
-0.06774456198869212 0.01707712667014728 -0.01936284967138279
-0.07081591952501713 0.006255126035050875 -0.01420749175106219
-0.07158317135973974 -0.005401755047845926 -0.010126425935629034
-0.0700104416498075 -0.01734845377479968 -0.0073104783268341
-0.06617126948849332 -0.02902635579113997 -0.005891319505163653
-0.06024517029912686 -0.039889415377638626 -0.005935307759837263
-0.05250924189341669 -0.04942968794145453 -0.007440386248955832
-0.04332520768574694 -0.05720108094075507 -0.010336179175142762
-0.033122502908347354 -0.06284021267617587 -0.014487282479612236
-0.02237819469711723 -0.06608340361521345 -0.019699595185467204
-0.011594674962572783 -0.06677900575410622 -0.025729395343651398
-0.0012761691024799477 -0.06489449350994582 -0.032294736200409645
0.008094841017338901 -0.060517984580784265 -0.03908862971413221
0.01608017737881072 -0.053854119660008866 -0.04579340097498771
0.022306454528737044 -0.04521449366496112 -0.05209554233063662
0.026482538667597325 -0.03500308590491487 -0.057700372655615804
0.032636711518002764 -0.031688833193071295 -0.04707676301243229
0.034567333592848054 -0.020383117745721713 -0.05172220667006724
0.03416221986119091 -0.008511737299986642 -0.055191047877966706
0.03144031299087205 0.0033702155885830597 -0.05732108747658944
0.026528886321965373 0.01470715400875999 -0.0580127271816728
0.019657592706850274 0.02496897532011878 -0.05723362668930942
0.011147726198075192 0.033675848163335485 -0.0550202158726142
0.0013971986955531523 0.04042064884125541 -0.051475991361346375
-0.009138065971630896 0.044887997970486586 -0.046766677154530215
-0.01996545053674511 0.046869007270848084 -0.041112475550449626
-0.030578678531298358 0.04627104694918872 -0.0347777707319177
-0.04048148721002105 0.0431220769655641 -0.028058766455730244
-0.049210832245277454 0.037569339656579756 -0.02126963589420489
-0.05635853916518914 0.02987247484737954 -0.014727831246821905
-0.06159038913828669 0.02039137938199084 -0.008739240028199273
-0.06466174667461169 0.009569378746894435 -0.003583882107878674
-0.06542899850933431 -0.0020875023360023667 0.0004971837075544831
-0.06385626879940207 -0.014034201062956119 0.0033131313163494167
-0.060017096638087894 -0.02571210307929641 0.004732290138019864
-0.05409099744872143 -0.036575162665795066 0.0046883018833462535
-0.04635506904301126 -0.04611543522961098 0.003183223394227685
-0.03717103483534151 -0.05388682822891152 0.0002874304680407548
-0.02696833005794192 -0.05952595996433232 -0.003863672836428719
-0.016224021846711796 -0.06276915090336989 -0.009075985542283687
-0.005440502112167352 -0.06346475304226266 -0.015105785700467878
0.004878003747925484 -0.061580240798102266 -0.021671126557226125
0.014249013867744333 -0.05720373186894071 -0.028465020070948692
0.022234350229216153 -0.05053986694816531 -0.03516979133180419
0.028460627379142477 -0.04190024095311757 -0.0414719326874531
0.03263671151800276 -0.03168883319307131 -0.047076763012432285
0.0387908843684082 -0.028374580481227738 -0.03645315336924878
0.04072150644325349 -0.017068865033878156 -0.041098597026883725
0.040316392711596344 -0.005197484588143084 -0.044567438234783194
0.03759448584127748 0.0066844683004266174 -0.04669747783340593
0.032683059172370806 0.018021406720603546 -0.04738911753848929
0.025811765557255704 0.028283228031962336 -0.046610017046125905
0.01730189904848062 0.036990100875179045 -0.04439660622943069
0.0075513715459585825 0.04373490155309897 -0.04085238171816286
-0.0029838931212254655 0.048202250682330146 -0.0361430675113467
-0.013811277686339678 0.050183259982691644 -0.03048886590726611
-0.024424505680892928 0.04958529966103228 -0.024154161088734184
-0.03432731435961562 0.04643632967740766 -0.01743515681254673
-0.04305665939487202 0.040883592368423316 -0.010646026251021375
-0.050204366314783706 0.0331867275592231 -0.004104221603638391
-0.05543621628788126 0.023705632093834396 0.0018843696149842405
-0.058507573824206266 0.012883631458737993 0.007039727535304841
-0.05927482565892888 0.0012267503758411915 0.011120793350737998
-0.05770209594899664 -0.010719948351112561 0.013936740959532932
-0.05386292378768246 -0.022397850367452853 0.015355899781203379
-0.047936824598316 -0.033260909953951506 0.015311911526529769
-0.04020089619260583 -0.04280118251776742 0.0138068330374112
-0.03101686198493608 -0.05057257551706796 0.01091104011122427
-0.02081415720753649 -0.05621170725248876 0.006759936806754796
-0.010069848996306365 -0.059454898191526336 0.0015476241008998272
0.0007136707382380791 -0.06015050033041911 -0.004482176057284364
0.011032176598330916 -0.058265988086258706 -0.011047516914042611
0.020403186718149762 -0.05388947915709715 -0.017841410427765176
0.028388523079621582 -0.04722561423632175 -0.02454618168862067
0.03461480022954791 -0.03858598824127401 -0.03084832304426958
0.03879088436840819 -0.028374580481227752 -0.03645315336924877
0.044945057218813624 -0.025060327769384178 -0.025829543726065263
0.04687567929365891 -0.013754612322034596 -0.030474987383700206
0.04647056556200177 -0.0018832318762995249 -0.033943828591599674
0.04374865869168291 0.009998721012270177 -0.03607386819022241
0.03883723202277623 0.021335659432447106 -0.03676550789530577
0.03196593840766113 0.031597480743805896 -0.035986407402942386
0.023456071898886054 0.040304353587022605 -0.03377299658624717
0.013705544396364015 0.04704915426494253 -0.030228772074979347
0.003170279729179966 0.051516503394173706 -0.025519457868163186
-0.007657104835934247 0.053497512694535204 -0.019865256264082594
-0.018270332830487495 0.05289955237287584 -0.013530551445550668
-0.02817314150921019 0.04975058238925122 -0.006811547169363214
-0.036902486544466595 0.044197845080266876 -2.241660783785867e-05
-0.04405019346437828 0.03650098027106666 0.006519388039545125
-0.04928204343747583 0.027019884805677956 0.012507979258167757
-0.05235340097380084 0.01619788417058155 0.017663337178488357
-0.053120652808523454 0.00454100308768475 0.021744402993921514
-0.051547923098591214 -0.007405695639269003 0.024560350602716448
-0.047708750937277035 -0.019083597655609293 0.025979509424386895
-0.04178265174791057 -0.02994665724210795 0.025935521169713285
-0.0340467233422004 -0.03948692980592386 0.024430442680594716
-0.024862689134530647 -0.0472583228052244 0.021534649754407786
-0.01465998435713106 -0.0528974545406452 0.017383546449938312
-0.003915676145900934 -0.056140645479682776 0.012171233744083344
0.006867843588643511 -0.05683624761857555 0.006141433585899152
0.017186349448736347 -0.054951735374415146 -0.0004239072708590947
0.026557359568555195 -0.05057522644525359 -0.00721780078458166
0.03454269593002701 -0.04391136152447819 -0.013922572045437155
0.040768973079953336 -0.03527173552943045 -0.020224713401086065
0.04494505721881362 -0.025060327769384192 -0.025829543726065256
0.05109923006921906 -0.021746075057540618 -0.015205934082881744
0.05302985214406435 -0.010440359610191036 -0.019851377740516686
0.05262473841240721 0.0014310208355440346 -0.02332021894841616
0.04990283154208835 0.013312973724113737 -0.025450258547038893
0.04499140487318167 0.024649912144290666 -0.026141898252122254
0.03812011125806657 0.034911733455649456 -0.02536279775975887
0.029610244749291487 0.043618606298866165 -0.02314938694306365
0.019859717246769448 0.05036340697678609 -0.019605162431795827
0.0093244525795854 0.054830756106017266 -0.014895848224979667
-0.0015029319855288138 0.056811765406378764 -0.009241646620899074
-0.012116159980082062 0.0562138050847194 -0.0029069418023671485
-0.022018968658804757 0.05306483510109478 0.003812062473820305
-0.03074831369406116 0.047512097792110436 0.01060119303534566
-0.03789602061397284 0.03981523298291022 0.017142997682728645
-0.04312787058707039 0.030334137517521516 0.023131588901351276
-0.0461992281233954 0.01951213688242511 0.028286946821671877
-0.046966479958118014 0.00785525579952831 0.03236801263710503
-0.045393750248185774 -0.004091442927425443 0.03518396024589997
-0.041554578086871595 -0.015769344943765733 0.03660311906757041
-0.03562847889750513 -0.02663240453026439 0.0365591308128968
-0.027892550491794964 -0.0361726770940803 0.035054052323778236
-0.018708516284125214 -0.04394407009338084 0.0321582593975913
-0.008505811506725627 -0.04958320182880164 0.02800715609312183
0.0022384967045044994 -0.052826392767839216 0.022794843387266863
0.013022016439048944 -0.05352199490673199 0.01676504322908267
0.02334052229914178 -0.051637482662571586 0.010199702372324424
0.03271153241896063 -0.04726097373341003 0.003405808858601859
0.04069686878043245 -0.04059710881263463 -0.003298962402253636
0.046923145930358776 -0.03195748281758689 -0.009601103757902546
0.051099230069219057 -0.021746075057540632 -0.015205934082881737
0.05725340291962449 -0.018431822345697062 -0.004582324439698233
0.05918402499446978 -0.00712610689834748 -0.009227768097333175
0.058778911262812636 0.004745273547387591 -0.012696609305232648
0.056057004392493774 0.016627226435957293 -0.014826648903855382
0.0511455777235871 0.027964164856134222 -0.015518288608938743
0.044274284108472 0.038225986167493016 -0.014739188116575359
0.03576441759969692 0.046932859010709725 -0.012525777299880138
0.026013890097174877 0.05367765968862965 -0.008981552788612316
0.015478625429990827 0.058145008817860826 -0.004272238581796156
0.004651240864876615 0.060126018118222324 0.0013819630222844362
-0.005961987129676633 0.05952805779656296 0.007716667840816363
-0.015864795808399328 0.05637908781293834 0.014435672117003816
-0.02459414084365573 0.050826350503953996 0.02122480267852917
-0.031741847763567414 0.04312948569475378 0.027766607325912154
-0.036973697736664965 0.033648390229365076 0.033755198544534785
-0.040045055272989974 0.022826389594268668 0.03891055646485539
-0.04081230710771259 0.011169508511371867 0.04299162228028854
-0.03923957739778035 -0.0007771902155818858 0.04580756988908348
-0.03540040523646617 -0.012455092231922177 0.047226728710753924
-0.029474306047099705 -0.023318151818420833 0.04718274045608031
-0.021738377641389535 -0.03285842438223674 0.04567766196696175
-0.012554343433719787 -0.04062981738153728 0.042781869040774814
-0.002351638656320199 -0.04626894911695808 0.03863076573630534
0.008392669554909927 -0.049512140055995656 0.03341845303045037
0.019176189289454373 -0.05020774219488843 0.027388652872266182
0.02949469514954721 -0.048323229950728026 0.020823312015507935
0.03886570526936606 -0.04394672102156647 0.01402941850178537
0.04685104163083788 -0.03728285610079107 0.007324647240929875
0.0530773187807642 -0.028643230105743333 0.0010225058852809646
0.05725340291962448 -0.018431822345697076 -0.004582324439698226
0.06340757577002992 -0.015117569633853502 0.006041285203485287
0.06533819784487521 -0.0038118541865039194 0.0013958415458503448
0.06493308411321806 0.008059526259231151 -0.002072999662049127
0.06221117724289921 0.019941479147800853 -0.004203039260671862
0.05729975057399253 0.031278417567977786 -0.004894678965755223
0.05042845695887743 0.041540238879336576 -0.004115578473391839
0.04191859045010235 0.050247111722553285 -0.001902167656696618
0.03216806294758031 0.05699191240047321 0.0016420568545712038
0.02163279828039626 0.061459261529704386 0.0063513710613873646
0.010805413715282049 0.06344027083006588 0.012005572665467956
0.0001921857207288003 0.06284231050840651 0.018340277483999884
-0.009710622957993895 0.0596933405247819 0.025059281760187336
-0.018439967993250296 0.054140603215797556 0.03184841232171269
-0.02558767491316198 0.04644373840659734 0.03839021696909568
-0.030819524886259532 0.036962642941208636 0.044378808187718305
-0.03389088242258454 0.026140642306112228 0.04953416610803891
-0.034658134257307155 0.014483761223215427 0.05361523192347206
-0.033085404547374915 0.002537062496261674 0.056431179532267
-0.029246232386060736 -0.009140839520078617 0.05785033835393744
-0.023320133196694272 -0.020003899106577273 0.05780635009926383
-0.015584204790984102 -0.029544171670393183 0.05630127161014527
-0.006400170583314352 -0.03731556466969372 0.053405478683958334
0.0038025341940852355 -0.04295469640511452 0.04925437537948886
0.014546842405315362 -0.046197887344152096 0.04404206267363389
0.025330362139859806 -0.04689348948304487 0.0380122625154497
0.03564886799995264 -0.045008977238884466 0.03144692165869146
0.04501987811977149 -0.04063246830972291 0.02465302814496889
0.05300521448124331 -0.03396860338894751 0.017948256884113396
0.059231491631169635 -0.025328977393899773 0.011646115528464484
0.06340757577002991 -0.015117569633853516 0.006041285203485294
0.06956174862043535 -0.011803316922009942 0.016664894846668804
0.07149237069528064 -0.0004976014746603604 0.012019451189033862
0.0710872569636235 0.011373778971074711 0.00855060998113439
0.06836535009330463 0.023255731859644413 0.006420570382511655
0.06345392342439796 0.03459267027982134 0.005728930677428294
0.056582629809282865 0.04485449159118013 0.006508031169791678
0.04807276330050778 0.05356136443439684 0.008721441986486899
0.03832223579798574 0.06030616511231676 0.01226566649775472
0.027786971130801693 0.06477351424154794 0.01697498070457088
0.01695958656568748 0.06675452354190944 0.022629182308651474
0.006346358571134233 0.06615656322025007 0.0289638871271834
-0.0035564501075884625 0.06300759323662546 0.03568289140337085
-0.012285795142844865 0.05745485592764111 0.04247202196489621
-0.01943350206275655 0.04975799111844089 0.049013826612279196
-0.0246653520358541 0.04027689565305219 0.055002417830901824
-0.027736709572179108 0.029454895017955788 0.06015777575122243
-0.028503961406901722 0.017798013935058987 0.06423884156665559
-0.026931231696969482 0.005851315208105234 0.06705478917545052
-0.023092059535655303 -0.005826586808235057 0.06847394799712096
-0.01716596034628884 -0.016689646394733713 0.06842995974244735
-0.00943003194057867 -0.026229918958549623 0.06692488125332878
-0.0002459977329089199 -0.03400131195785017 0.06402908832714185
0.009956707044490667 -0.039640443693270966 0.05987798502267238
0.020701015255720795 -0.04288363463230854 0.05466567231681741
0.03148453499026524 -0.04357923677120132 0.04863587215863322
0.041803040850358075 -0.04169472452704091 0.04207053130187497
0.051174050970176924 -0.03731821559787936 0.03527663778815241
0.059159387331648744 -0.030654350677103957 0.028571866527296912
0.06538566448157507 -0.022014724682056213 0.022269725171648002
0.06956174862043535 -0.011803316922009956 0.01666489484666881
0.07571592147084079 -0.008489064210166384 0.027288504489852324
0.07764654354568608 0.0028166512371831987 0.02264306083221738
0.07724142981402893 0.01468803168291827 0.01917421962431791
0.07451952294371007 0.026569984571487973 0.017044180025695174
0.0696080962748034 0.0379069229916649 0.016352540320611814
0.0627368026596883 0.04816874430302369 0.017131640812975198
0.054226936150913216 0.0568756171462404 0.01934505162967042
0.044476408648391176 0.06362041782416032 0.02288927614093824
0.03394114398120712 0.0680877669533915 0.0275985903477544
0.02311375941609291 0.070068776253753 0.03325279195183499
0.012500531421539665 0.06947081593209363 0.039587496770366916
0.0025977227428169696 0.06632184594846902 0.04630650104655437
-0.006131622292439432 0.06076910863948467 0.05309563160807973
-0.013279329212351117 0.05307224383028445 0.05963743625546271
-0.01851117918544867 0.04359114836489575 0.06562602747408534
-0.02158253672177368 0.032769147729799344 0.07078138539440594
-0.022349788556496292 0.021112266646902546 0.0748624512098391
-0.020777058846564053 0.009165567919948792 0.07767839881863403
-0.016937886685249873 -0.0025123340963914983 0.07909755764030448
-0.011011787495883408 -0.013375393682890155 0.07905356938563086
-0.0032758590901732377 -0.022915666246706063 0.0775484908965123
0.005908175117496512 -0.030687059246006603 0.07465269797032537
0.0161108798948961 -0.036326190981427406 0.0705015946658559
0.026855188106126224 -0.03956938192046498 0.06528928196000093
0.03763870784067067 -0.04026498405935776 0.05925948180181674
0.04795721370076351 -0.03838047181519735 0.05269414094505849
0.05732822382058236 -0.0340039628860358 0.045900247431335923
0.06531356018205417 -0.027340097965260397 0.03919547617048043
0.0715398373319805 -0.018700471970212653 0.03289333481483152
0.07571592147084077 -0.008489064210166397 0.02728850448985233
-0.02769377782682444 -0.014914137203296015 -0.04780624339432583
-0.022357984088600406 -0.017514492915902947 -0.05008599216148955
-0.017022190350376366 -0.02011484862850988 -0.05236574092865327
-0.011686396612152332 -0.022715204341116815 -0.05464548969581699
-0.006350602873928293 -0.02531556005372375 -0.05692523846298072
-0.0010148091357042536 -0.02791591576633068 -0.05920498723014444
0.004320984602519779 -0.030516271478937613 -0.06148473599730816
0.009656778340743822 -0.03311662719154455 -0.06376448476447188
0.014992572078967857 -0.03571698290415148 -0.0660442335316356
0.020328365817191902 -0.038317338616758415 -0.06832398229879932
-0.02769377782682444 -0.014914137203296015 -0.04780624339432583
-0.022134658798457052 -0.015568027621859668 -0.05082260246434669
-0.016575539770089662 -0.01622191804042332 -0.053838961534367555
-0.011016420741722271 -0.016875808458986973 -0.056855320604388415
-0.005457301713354882 -0.017529698877550626 -0.05987167967440928
0.00010181731501250804 -0.018183589296114275 -0.06288803874443014
0.005660936343379901 -0.01883747971467793 -0.065904397814451
0.011220055371747287 -0.019491370133241585 -0.06892075688447187
0.016779174400114682 -0.020145260551805235 -0.07193711595449273
0.022338293428482068 -0.02079915097036889 -0.07495347502451359
-0.02769377782682444 -0.014914137203296015 -0.04780624339432583
-0.022513750313656565 -0.013550703154809777 -0.05123234345833375
-0.017333722800488685 -0.012187269106323537 -0.05465844352234168
-0.012153695287320812 -0.010823835057837298 -0.0580845435863496
-0.00697366777415293 -0.00946040100935106 -0.061510643650357535
-0.0017936402609850573 -0.008096966960864822 -0.06493674371436546
0.003386387252182819 -0.00673353291237858 -0.06836284377837339
0.008566414765350703 -0.005370098863892344 -0.07178894384238131
0.013746442278518583 -0.004006664815406106 -0.07521504390638924
0.018926469791686457 -0.00264323076691987 -0.07864114397039716
-0.02769377782682444 -0.014914137203296015 -0.04780624339432583
-0.023454178186316153 -0.011681127922772396 -0.05127081334896565
-0.019214578545807864 -0.008448118642248776 -0.05473538330360548
-0.014974978905299573 -0.00521510936172516 -0.058199953258245306
-0.010735379264791284 -0.0019821000812015378 -0.06166452321288513
-0.006495779624282992 0.001250909199322079 -0.06512909316752497
-0.002256179983774703 0.004483918479845695 -0.06859366312216478
0.001983419656733586 0.007716927760369315 -0.0720582330768046
0.006223019297241875 0.01094993704089294 -0.07552280303144444
0.01046261893775017 0.014182946321416564 -0.07898737298608427
-0.02769377782682444 -0.014914137203296015 -0.04780624339432583
-0.024854032464191215 -0.010161899411587447 -0.050933843326670565
-0.022014287101557988 -0.005409661619878878 -0.05406144325901531
-0.019174541738924758 -0.0006574238281703148 -0.05718904319136005
-0.01633479637629153 0.00409481396353826 -0.06031664312370479
-0.013495051013658303 0.008847051755246827 -0.06344424305604952
-0.010655305651025076 0.013599289546955386 -0.06657184298839426
-0.00781556028839185 0.018351527338663947 -0.06969944292073901
-0.004975814925758619 0.023103765130372534 -0.07282704285308375
-0.002136069563125389 0.027856002922081093 -0.07595464278542849
-0.02769377782682444 -0.014914137203296015 -0.04780624339432583
-0.026561617215296877 -0.009157649603701008 -0.05025794932199279
-0.02542945660376931 -0.0034011620041060017 -0.05270965524965975
-0.024297295992241744 0.002355325595489005 -0.055161361177326715
-0.023165135380714175 0.008111813195084012 -0.05761306710499368
-0.022032974769186607 0.013868300794679019 -0.06006477303266064
-0.020900814157659042 0.019624788394274024 -0.0625164789603276
-0.019768653546131474 0.025381275993869034 -0.06496818488799457
-0.01863649293460391 0.031137763593464037 -0.06741989081566152
-0.01750433232307634 0.036894251193059044 -0.06987159674332849
-0.02769377782682444 -0.014914137203296015 -0.04780624339432583
-0.028391889135943458 -0.00877720454833887 -0.04931637493791521
-0.02909000044506247 -0.0026402718933817245 -0.050826506481504594
-0.02978811175418148 0.0034966607615754207 -0.05233663802509398
-0.030486223063300497 0.009633593416532566 -0.05384676956868336
-0.031184334372419506 0.015770526071489713 -0.05535690111227275
-0.03188244568153852 0.021907458726446855 -0.056867032655862126
-0.03258055699065753 0.028044391381403997 -0.05837716419945151
-0.03327866829977655 0.03418132403636115 -0.05988729574304089
-0.03397677960889556 0.0403182566913183 -0.06139742728663028
-0.02769377782682444 -0.014914137203296015 -0.04780624339432583
-0.030146509863933937 -0.00906179137046278 -0.04821115436898453
-0.032599241901043435 -0.0032094455376295455 -0.04861606534364323
-0.03505197393815293 0.0026429002952036893 -0.049020976318301934
-0.037504705975262426 0.008495246128036925 -0.04942588729296064
-0.03995743801237192 0.01434759196087016 -0.049830798267619346
-0.042410170049481416 0.020199937793703392 -0.05023570924227805
-0.04486290208659091 0.026052283626536627 -0.05064062021693675
-0.047315634123700406 0.031904629459369865 -0.05104553119159545
-0.0497683661608099 0.0377569752922031 -0.051450442166254155
-0.02769377782682444 -0.014914137203296015 -0.04780624339432583
-0.031635339017644794 -0.009980570672076094 -0.04706205541310846
-0.03557690020846514 -0.005047004140856174 -0.0463178674318911
-0.0395184613992855 -0.00011343760963625439 -0.04557367945067373
-0.04346002259010585 0.004820128921583668 -0.04482949146945637
-0.047401583780926196 0.009753695452803588 -0.04408530348823901
-0.05134314497174655 0.014687261984023507 -0.04334111550702164
-0.0552847061625669 0.019620828515243428 -0.042596927525804275
-0.05922626735338725 0.02455439504646335 -0.04185273954458692
-0.0631678285442076 0.029487961577683266 -0.04110855156336955
-0.02769377782682444 -0.014914137203296015 -0.04780624339432583
-0.03269703885670689 -0.011433978459519262 -0.04599360077226358
-0.03770029988658934 -0.00795381971574251 -0.04418095815020134
-0.042703560916471796 -0.004473660971965758 -0.04236831552813909
-0.04770682194635425 -0.0009935022281890049 -0.040555672906076846
-0.0527100829762367 0.0024866565155877477 -0.0387430302840146
-0.05771334400611915 0.0059668152593645 -0.036930387661952356
-0.0627166050360016 0.009446974003141253 -0.03511774503989011
-0.06771986606588405 0.012927132746918006 -0.03330510241782787
-0.0727231270957665 0.016407291490694757 -0.03149245979576562
-0.02769377782682444 -0.014914137203296015 -0.04780624339432583
-0.03321655772958749 -0.013264515447077388 -0.04512157408556735
-0.038739337632350525 -0.01161489369085876 -0.04243690477680888
-0.04426211753511357 -0.009965271934640132 -0.03975223546805041
-0.04978489743787661 -0.008315650178421506 -0.03706756615929194
-0.055307677340639655 -0.006666028422202877 -0.03438289685053346
-0.0608304572434027 -0.0050164066659842505 -0.03169822754177499
-0.06635323714616573 -0.003366784909765622 -0.029013558233016518
-0.07187601704892878 -0.0017171631535469974 -0.026328888924258043
-0.07739879695169181 -6.754139732836771e-05 -0.023644219615499572
-0.02769377782682444 -0.014914137203296015 -0.04780624339432583
-0.03313759770524407 -0.01527381454844065 -0.04454047297541149
-0.0385814175836637 -0.015633491893585285 -0.041274702556497164
-0.04402523746208333 -0.01599316923872992 -0.03800893213758283
-0.049469057340502956 -0.016352846583874557 -0.0347431617186685
-0.05491287721892259 -0.01671252392901919 -0.031477391299754166
-0.06035669709734222 -0.017072201274163826 -0.028211620880839835
-0.06580051697576184 -0.01743187861930846 -0.024945850461925507
-0.07124433685418147 -0.0177915559644531 -0.021680080043011175
-0.0766881567326011 -0.018151233309597732 -0.01841430962409684
-0.02769377782682444 -0.014914137203296015 -0.04780624339432583
-0.032468715327505275 -0.01724413702848845 -0.04431326876379414
-0.03724365282818611 -0.019574136853680885 -0.04082029413326246
-0.04201859032886694 -0.021904136678873323 -0.03732731950273077
-0.04679352782954778 -0.024234136504065758 -0.03383434487219908
-0.051568465330228616 -0.026564136329258192 -0.030341370241667397
-0.056343402830909446 -0.02889413615445063 -0.026848395611135712
-0.061118340331590276 -0.031224135979643068 -0.02335542098060403
-0.06589327783227111 -0.033554135804835496 -0.019862446350072338
-0.07066821533295194 -0.03588413563002794 -0.016369471719540653
-0.02769377782682444 -0.014914137203296015 -0.04780624339432583
-0.03128239438077855 -0.018961967873804324 -0.04446458255248061
-0.03487101093473266 -0.023009798544312635 -0.0411229217106354
-0.03845962748868677 -0.027057629214820942 -0.03778126086879018
-0.042048244042640875 -0.031105459885329253 -0.03443960002694497
-0.04563686059659499 -0.03515329055583757 -0.031097939185099753
-0.04922547715054909 -0.03920112122634587 -0.027756278343254545
-0.052814093704503205 -0.04324895189685418 -0.024414617501409327
-0.05640271025845731 -0.047296782567362486 -0.021072956659564112
-0.05999132681241143 -0.051344613237870804 -0.017731295817718894
-0.02769377782682444 -0.014914137203296015 -0.04780624339432583
-0.029707191147307833 -0.020241153457406378 -0.04497801714459139
-0.03172060446779122 -0.025568169711516743 -0.04214979089485695
-0.03373401778827461 -0.030895185965627108 -0.039321564645122514
-0.035747431108758 -0.03622220221973747 -0.03649333839538808
-0.03776084442924139 -0.041549218473847835 -0.033665112145653646
-0.039774257749724776 -0.046876234727958196 -0.030836885895919208
-0.04178767107020817 -0.052203250982068565 -0.028008659646184767
-0.04380108439069156 -0.05753026723617893 -0.025180433396450333
-0.04581449771117495 -0.0628572834902893 -0.0223522071467159
-0.02769377782682444 -0.014914137203296015 -0.04780624339432583
-0.027913803339236164 -0.020943074172701928 -0.04579793393531273
-0.028133828851647887 -0.026972011142107843 -0.04378962447629963
-0.02835385436405961 -0.03300094811151376 -0.04178131501728653
-0.028573879876471333 -0.039029885080919674 -0.03977300555827344
-0.028793905388883052 -0.04505882205032558 -0.03776469609926034
-0.02901393090129478 -0.0510877590197315 -0.035756386640247245
-0.029233956413706498 -0.057116695989137406 -0.033748077181234154
-0.02945398192611822 -0.06314563295854334 -0.031739767722221056
-0.02967400743852994 -0.06917456992794924 -0.029731458263207958
-0.02769377782682444 -0.014914137203296015 -0.04780624339432583
-0.0260965723528471 -0.020991666018766623 -0.04683548221805014
-0.02449936687886976 -0.02706919483423723 -0.045864721041774456
-0.02290216140489242 -0.03314672364970783 -0.044893959865498774
-0.021304955930915078 -0.03922425246517844 -0.043923198689223085
-0.019707750456937734 -0.045301781280649045 -0.0429524375129474
-0.018110544982960393 -0.05137931009611965 -0.04198167633667172
-0.016513339508983052 -0.057456838911590244 -0.04101091516039604
-0.014916134035005711 -0.06353436772706086 -0.04004015398412035
-0.013318928561028365 -0.06961189654253147 -0.03906939280784467
-0.02769377782682444 -0.014914137203296015 -0.04780624339432583
-0.024452423362759913 -0.02038166331509917 -0.04797822753714866
-0.02121106889869538 -0.025849189426902324 -0.048150211679971494
-0.017969714434630853 -0.03131671553870547 -0.048322195822794324
-0.014728359970566323 -0.03678424165050863 -0.04849417996561716
-0.011487005506501795 -0.042251767762311786 -0.04866616410843999
-0.008245651042437263 -0.04771929387411493 -0.04883814825126283
-0.005004296578372735 -0.053186819985918087 -0.04901013239408566
-0.0017629421143082035 -0.058654346097721244 -0.049182116536908495
0.0014784123497563213 -0.0641218722095244 -0.049354100679731325
-0.02769377782682444 -0.014914137203296015 -0.04780624339432583
-0.023159525423650677 -0.01917916931980912 -0.04910233570576339
-0.018625273020476913 -0.023444201436322226 -0.05039842801720096
-0.01409102061730315 -0.02770923355283533 -0.05169452032863852
-0.009556768214129386 -0.03197426566934843 -0.05299061264007609
-0.005022515810955622 -0.03623929778586153 -0.05428670495151365
-0.00048826340778185777 -0.04050432990237464 -0.05558279726295121
0.00404598899539191 -0.044769362018887746 -0.05687888957438879
0.00858024139856567 -0.04903439413540085 -0.05817498188582635
0.013114493801739438 -0.05329942625191395 -0.05947107419726391
-0.02769377782682444 -0.014914137203296015 -0.04780624339432583
-0.022357984088600406 -0.01751449291590295 -0.05008599216148955
-0.017022190350376366 -0.020114848628509884 -0.05236574092865327
-0.011686396612152332 -0.022715204341116818 -0.05464548969581699
-0.006350602873928293 -0.025315560053723752 -0.05692523846298071
-0.001014809135704257 -0.027915915766330686 -0.05920498723014444
0.004320984602519779 -0.03051627147893762 -0.06148473599730816
0.009656778340743822 -0.033116627191544554 -0.06376448476447188
0.014992572078967857 -0.03571698290415149 -0.0660442335316356
0.020328365817191895 -0.03831733861675843 -0.06832398229879932
0.02769377782682444 0.014914137203296015 0.04780624339432583
0.03302957156504848 0.012313781490689082 0.0455264946271621
0.03836536530327252 0.009713425778082149 0.04324674585999838
0.04370115904149655 0.007113070065475217 0.04096699709283466
0.049036952779720595 0.004512714352868283 0.038687248325670935
0.05437274651794463 0.0019123586402613507 0.036407499558507216
0.05970854025616867 -0.0006879970723455813 0.03412775079134349
0.0650443339943927 -0.0032883527849525153 0.03184800202417976
0.07038012773261675 -0.005888708497559449 0.029568253257016047
0.07571592147084079 -0.008489064210166384 0.027288504489852324
0.02769377782682444 0.014914137203296015 0.04780624339432583
0.03325289685519183 0.014260246784732363 0.04478988432430496
0.038812015883559224 0.01360635636616871 0.0417735252542841
0.04437113491192662 0.012952465947605058 0.03875716618426324
0.049930253940294 0.012298575529041405 0.03574080711424237
0.055489372968661396 0.011644685110477754 0.03272444804422151
0.06104849199702879 0.010990794691914102 0.02970808897420065
0.06660761102539617 0.010336904273350446 0.026691729904179784
0.07216673005376356 0.009683013854786794 0.02367537083415892
0.07772584908213095 0.009029123436223143 0.02065901176413806
0.02769377782682444 0.014914137203296015 0.04780624339432583
0.03287380533999232 0.016277571251782252 0.0443801433303179
0.0380538328531602 0.017641005300268492 0.04095404326630997
0.04323386036632807 0.01900443934875473 0.037527943202302044
0.04841388787949596 0.02036787339724097 0.03410184313829412
0.05359391539266383 0.021731307445727207 0.030675743074286194
0.058773942905831704 0.02309474149421345 0.02724964301027827
0.06395397041899958 0.024458175542699686 0.023823542946270343
0.06913399793216747 0.025821609591185925 0.020397442882262414
0.07431402544533534 0.02718504363967216 0.01697134281825449
0.02769377782682444 0.014914137203296015 0.04780624339432583
0.031933377467332734 0.018147146483819633 0.044341673439686
0.03617297710784102 0.021380155764343253 0.040877103485046175
0.04041257674834931 0.02461316504486687 0.03741253353040635
0.0446521763888576 0.027846174325390494 0.03394796357576652
0.048891776029365897 0.03107918360591411 0.030483393621126693
0.053131375669874185 0.03431219288643773 0.02701882366648687
0.057370975310382474 0.03754520216696135 0.023554253711847044
0.06161057495089076 0.04077821144748497 0.020089683757207214
0.06585017459139905 0.044011220728008595 0.016625113802567384
0.02769377782682444 0.014914137203296015 0.04780624339432583
0.03053352318945767 0.019666374995004583 0.04467864346198108
0.0333732685520909 0.024418612786713152 0.041551043529636345
0.036213013914724125 0.029170850578421715 0.03842344359729161
0.03905275927735735 0.03392308837013029 0.03529584366494686
0.041892504639990585 0.03867532616183886 0.032168243732602124
0.04473225000262381 0.04342756395354742 0.029040643800257386
0.04757199536525704 0.048179801745255976 0.025913043867912645
0.050411740727890265 0.05293203953696456 0.0227854439355679
0.0532514860905235 0.05768427732867312 0.01965784400322316
0.02769377782682444 0.014914137203296015 0.04780624339432583
0.02882593843835201 0.020670624802891023 0.045354537466658865
0.029958099049879578 0.02642711240248603 0.0429028315389919
0.031090259661407143 0.032183600002081036 0.04045112561132494
0.03222242027293471 0.03794008760167604 0.03799941968365798
0.033354580884462276 0.04369657520127105 0.035547713755991014
0.03448674149598984 0.04945306280086605 0.03309600782832405
0.03561890210751741 0.05520955040046106 0.030644301900657086
0.03675106271904498 0.060966038000056066 0.028192595972990127
0.03788322333057254 0.06672252559965107 0.025740890045323168
0.02769377782682444 0.014914137203296015 0.04780624339432583
0.02699566651770543 0.02105106985825316 0.04629611185073644
0.026297555208586416 0.027188002513210307 0.04478598030714706
0.025599443899467403 0.03332493516816745 0.043275848763557674
0.02490133259034839 0.039461867823124594 0.041765717219968294
0.02420322128122938 0.04559880047808174 0.04025558567637891
0.023505109972110364 0.051735733133038884 0.03874545413278952
0.02280699866299135 0.057872665787996026 0.037235322589200134
0.02210888735387234 0.06400959844295318 0.035725191045610755
0.021410776044753325 0.07014653109791033 0.03421505950202137
0.02769377782682444 0.014914137203296015 0.04780624339432583
0.025241045789714946 0.02076648303612925 0.047401332419667125
0.02278831375260545 0.026618828868962486 0.046996421445008416
0.020335581715495956 0.03247117470179572 0.04659151047034971
0.01788284967838646 0.03832352053462895 0.04618659949569101
0.015430117641276967 0.04417586636746219 0.04578168852103231
0.012977385604167472 0.05002821220029542 0.045376777546373606
0.010524653567057977 0.055880558033128656 0.044971866571714904
0.008071921529948482 0.06173290386596189 0.0445669555970562
0.005619189492838983 0.06758524969879513 0.0441620446223975
0.02769377782682444 0.014914137203296015 0.04780624339432583
0.023752216636004093 0.019847703734515935 0.04855043137554319
0.01981065544518374 0.024781270265735858 0.04929461935676055
0.015869094254363388 0.029714836796955777 0.050038807337977914
0.011927533063543041 0.034648403328175696 0.05078299531919528
0.007985971872722689 0.03958196985939562 0.05152718330041264
0.004044410681902337 0.044515536390615534 0.05227137128163001
0.00010284949108198785 0.04944910292183546 0.05301555926284737
-0.003838711699738361 0.05438266945305538 0.05375974724406474
-0.007780272890558717 0.059316235984275295 0.0545039352252821
0.02769377782682444 0.014914137203296015 0.04780624339432583
0.022690516796941992 0.01839429594707277 0.04961888601638807
0.01768725576705954 0.02187445469084952 0.05143152863845032
0.012683994737177092 0.025354613434626274 0.05324417126051256
0.00768073370729464 0.028834772178403027 0.0550568138825748
0.0026774726774121873 0.032314930922179776 0.05686945650463705
-0.0023257883524702583 0.03579508966595653 0.05868209912669929
-0.007329049382352711 0.03927524840973328 0.06049474174876154
-0.012332310412235164 0.04275540715351003 0.06230738437082378
-0.017335571442117618 0.046235565897286786 0.06412002699288603
0.02769377782682444 0.014914137203296015 0.04780624339432583
0.0221709979240614 0.016563758959514643 0.0504909127030843
0.016648218021298358 0.01821338071573327 0.05317558201184277
0.011125438118535317 0.0198630024719519 0.05586025132060125
0.005602658215772273 0.021512624228170525 0.05854492062935972
7.987831300922982e-05 0.023162245984389155 0.06122958993811819
-0.00544290158975381 0.02481186774060778 0.06391425924687666
-0.010965681492516846 0.026461489496826408 0.06659892855563514
-0.0164884613952799 0.028111111253045034 0.06928359786439361
-0.022011241298042935 0.029760733009263664 0.07196826717315208
0.02769377782682444 0.014914137203296015 0.04780624339432583
0.022249957948404814 0.01455445985815138 0.051072013813240155
0.016806138069985186 0.014194782513006744 0.05433778423215449
0.011362318191565557 0.01383510516786211 0.057603554651068825
0.005918498313145932 0.013475427822717472 0.06086932506998315
0.000474678434726301 0.01311575047757284 0.06413509548889748
-0.00496914144369333 0.012756073132428205 0.06740086590781182
-0.010412961322112948 0.012396395787283571 0.07066663632672615
-0.01585678120053258 0.01203671844213893 0.07393240674564047
-0.02130060107895222 0.011677041096994299 0.07719817716455481
0.02769377782682444 0.014914137203296015 0.04780624339432583
0.022918840326143608 0.01258413737810358 0.05129921802485751
0.018143902825462774 0.010254137552911144 0.0547921926553892
0.013368965324781943 0.007924137727718708 0.05828516728592088
0.00859402782410111 0.005594137902526274 0.06177814191645257
0.003819090323420272 0.0032641380773338374 0.06527111654698425
-0.000955847177260558 0.0009341382521413996 0.06876409117751595
-0.005730784677941388 -0.0013958615730510367 0.07225706580804762
-0.010505722178622225 -0.0037258613982434677 0.07575004043857932
-0.015280659679303055 -0.006055861223435905 0.079243015069111
0.02769377782682444 0.014914137203296015 0.04780624339432583
0.024105161272870334 0.010866306532787706 0.05114790423617104
0.020516544718916226 0.006818475862279397 0.05448956507801626
0.01692792816496212 0.0027706451917710877 0.057831225919861465
0.01333931161100801 -0.0012771854787372214 0.06117288676170669
0.009750695057053898 -0.005325016149245535 0.0645145476035519
0.006162078503099798 -0.00937284681975384 0.06785620844539711
0.002573461949145683 -0.013420677490262154 0.07119786928724232
-0.0010151546048084246 -0.017468508160770457 0.07453953012908754
-0.004603771158762539 -0.021516338831278774 0.07788119097093275
0.02769377782682444 0.014914137203296015 0.04780624339432583
0.025680364506341053 0.009587120949185651 0.050634469644060265
0.023666951185857665 0.004260104695075287 0.0534626958937947
0.021653537865374276 -0.0010669115590350767 0.05629092214352913
0.019640124544890884 -0.006393927813145441 0.05911914839326357
0.017626711224407496 -0.011720944067255804 0.06194737464299801
0.015613297903924107 -0.017047960321366167 0.06477560089273245
0.013599884583440715 -0.022374976575476536 0.06760382714246689
0.011586471262957329 -0.027701992829586897 0.07043205339220132
0.00957305794247394 -0.03302900908369726 0.07326027964193575
0.02769377782682444 0.014914137203296015 0.04780624339432583
0.027473752314412722 0.008885200233890101 0.049814552853338925
0.027253726802001 0.0028562632644841862 0.05182286231235202
0.027033701289589276 -0.0031726737049217273 0.053831171771365115
0.026813675777177554 -0.009201610674327643 0.05583948123037821
0.02659365026476583 -0.015230547643733551 0.057847790689391304
0.026373624752354108 -0.02125948461313947 0.05985610014840441
0.026153599239942385 -0.027288421582545377 0.0618644096074175
0.025933573727530666 -0.0333173585519513 0.06387271906643059
0.025713548215118943 -0.03934629552135721 0.0658810285254437
0.02769377782682444 0.014914137203296015 0.04780624339432583
0.029290983300801786 0.008836608387825408 0.04877700457060151
0.030888188774779127 0.0027590795723548022 0.04974776574687719
0.03248539424875647 -0.003318449243115804 0.05071852692315288
0.03408259972273381 -0.009395978058586411 0.05168928809942856
0.03567980519671115 -0.015473506874057017 0.05266004927570425
0.03727701067068849 -0.021551035689527622 0.053630810451979934
0.03887421614466583 -0.027628564504998215 0.054601571628255616
0.04047142161864317 -0.03370609332046884 0.055572332804531305
0.04206862709262052 -0.03978362213593944 0.05654309398080699
0.02769377782682444 0.014914137203296015 0.04780624339432583
0.030935132290888973 0.00944661109149286 0.04763425925150299
0.0341764867549535 0.003979084979689708 0.04746227510868016
0.03741784121901803 -0.001488441132113443 0.04729029096585732
0.040659195683082565 -0.0069559672439166 0.04711830682303449
0.04390055014714709 -0.012423493355719758 0.046946322680211656
0.04714190461121162 -0.0178910194675229 0.046774338537388827
0.05038325907527615 -0.023358545579326057 0.04660235439456599
0.053624613539340685 -0.028826071691129215 0.04643037025174316
0.05686596800340521 -0.03429359780293237 0.04625838610892032
0.02769377782682444 0.014914137203296015 0.04780624339432583
0.032228030229998206 0.01064910508678291 0.04651015108288826
0.036762282633171973 0.006384072970269806 0.045214058771450696
0.041296535036345734 0.002119040853756702 0.04391796646001313
0.0458307874395195 -0.0021459912627564046 0.042621874148575566
0.05036503984269326 -0.006411023379269504 0.041325781837138
0.05489929224586703 -0.010676055495782611 0.040029689525700435
0.0594335446490408 -0.014941087612295718 0.038733597214262866
0.06396779705221456 -0.019206119728808823 0.037437504902825304
0.06850204945538832 -0.023471151845321923 0.036141412591387735
0.02769377782682444 0.014914137203296015 0.04780624339432583
0.03302957156504848 0.01231378149068908 0.0455264946271621
0.03836536530327252 0.009713425778082147 0.04324674585999838
0.04370115904149655 0.007113070065475213 0.04096699709283466
0.049036952779720595 0.004512714352868278 0.038687248325670935
0.05437274651794463 0.0019123586402613438 0.036407499558507216
0.05970854025616867 -0.00068799707234559 0.034127750791343496
0.0650443339943927 -0.0032883527849525258 0.03184800202417977
0.07038012773261675 -0.005888708497559459 0.02956825325701605
0.07571592147084077 -0.008489064210166397 0.02728850448985233
