# .PCD v0.7 - Point Cloud Data file format
VERSION 0.7
FIELDS x y z
SIZE 4 4 4
TYPE F F F
COUNT 1 1 1
WIDTH 700
HEIGHT 1
VIEWPOINT 0 0 0 1 0 0 0
POINTS 700
DATA ascii
0.014631965271517888 -0.0025780640175813085 -0.17754879065118687
0.017488828965848607 0.02444536949146665 -0.1756157130080153
0.015792390094393413 0.051042458740607095 -0.16996935519176554
0.009621972253325131 0.07596955339709176 -0.16087373461844945
-0.0007339026770347287 0.09806109021925925 -0.14875415239701906
-0.014791005494670884 0.11628409349828477 -0.1341773067222003
-0.031892041695178286 0.12978647585425448 -0.11782479469674732
-0.051237385832257835 0.13793688089502343 -0.10046124160845861
-0.07192247111486544 0.14035420473940982 -0.08289854790153932
-0.09298008594500744 0.13692541601111263 -0.06595792561419292
-0.11342559965708428 0.12781084106024207 -0.050431499416426384
-0.13230300275347567 0.11343666728137841 -0.03704526774086396
-0.14872960884612102 0.09447501506467453 -0.026425155902927027
-0.16193732809098954 0.07181251019342075 -0.019067748528750966
-0.1713085822155168 0.04650882620783188 -0.01531706980998129
-0.17640518179224088 0.019747135248049077 -0.015348497314927653
-0.17698881548941767 -0.007221215760131352 -0.019160561528387948
-0.1730321932440294 -0.03313521669673626 -0.02657501456454583
-0.16472032231480077 -0.056783157679313384 -0.03724516484000323
-0.15244185654840142 -0.07705928727031608 -0.050672087986900025
-0.1367709233575336 -0.0930155161853686 -0.0662279560018406
-0.11844027816121105 -0.10390574889447772 -0.08318539378555184
-0.09830704155576493 -0.10922077021978986 -0.10075149039410586
-0.07731262130838058 -0.10871205567135533 -0.11810487467340079
-0.056438693176203515 -0.10240339217606331 -0.13443412166143817
-0.0366612988389895 -0.09058976582737782 -0.14897569391771193
-0.01890520727495163 -0.07382356866346071 -0.1610496436853154
-0.004000673591146003 -0.052888769429407054 -0.1700914064923468
0.0073553827825721535 -0.0287642560700429 -0.17567819955914699
0.014631965271517888 -0.0025780640175813397 -0.17754879065118687
0.032385188119085834 -0.005984161744329853 -0.1561704886572087
0.03524205181341655 0.021039271764718107 -0.15423741101403715
0.03354561294196136 0.04763636101385855 -0.1485910531977874
0.027375195100893073 0.07256345567034321 -0.13949543262447128
0.017019320170533214 0.0946549924925107 -0.12737585040304092
0.0029622173528970593 0.11287799577153622 -0.11279900472822213
-0.014138818847610342 0.12638037812750594 -0.09644649270276917
-0.03348416298468989 0.13453078316827488 -0.07908293961448047
-0.05416924826729749 0.13694810701266127 -0.061520245907561166
-0.07522686309743949 0.13351931828436409 -0.04457962362021477
-0.09567237680951633 0.12440474333349354 -0.02905319742244824
-0.11454977990590773 0.11003056955462986 -0.015666965746885815
-0.13097638599855307 0.09106891733792598 -0.005046853908948878
-0.1441841052434216 0.0684064124666722 0.0023105534652271835
-0.15355535936794887 0.04310272848108333 0.006061232183996859
-0.15865195894467293 0.01634103752130053 0.006029804679050496
-0.15923559264184972 -0.010627313486879897 0.0022177404655902015
-0.15527897039646146 -0.03654131442348481 -0.0051967125705676825
-0.14696709946723283 -0.06018925540606193 -0.015866862846025086
-0.13468863370083348 -0.08046538499706463 -0.02929378599292188
-0.11901770050996567 -0.09642161391211715 -0.04484965400786245
-0.10068705531364311 -0.10731184662122627 -0.06180709179157369
-0.08055381870819699 -0.11262686794653841 -0.0793731884001277
-0.05955939846081264 -0.11211815339810388 -0.09672657267942264
-0.03868547032863557 -0.10580948990281186 -0.11305581966746003
-0.018908075991421556 -0.09399586355412637 -0.12759739192373376
-0.0011519844273836883 -0.07722966639020926 -0.13967134169133724
0.01375254925642194 -0.0562948671561556 -0.14871310449836864
0.025108605630140095 -0.032170353796791444 -0.15429989756516885
0.032385188119085834 -0.005984161744329884 -0.1561704886572087
0.050138410966653765 -0.009390259471078397 -0.13479218666323056
0.052995274660984484 0.017633174037969563 -0.132859109020059
0.05129883578952929 0.04423026328711001 -0.12721275120380926
0.04512841794846101 0.06915735794359468 -0.11811713063049316
0.03477254301810115 0.09124889476576216 -0.10599754840906277
0.020715440200464993 0.10947189804478767 -0.09142070273424399
0.003614403999957591 0.1229742804007574 -0.07506819070879103
-0.015730940137121955 0.13112468544152636 -0.057704637620502326
-0.03641602541972956 0.13354200928591275 -0.04014194391358303
-0.05747364024987155 0.13011322055761554 -0.02320132162623663
-0.07791915396194839 0.12099864560674499 -0.007674895428470101
-0.0967965570583398 0.10662447182788132 0.005711336247092323
-0.11322316315098513 0.08766281961117743 0.01633144808502926
-0.12643088239585365 0.06500031473992367 0.02368885545920532
-0.13580213652038092 0.03969663075433479 0.027439534177974997
-0.140898736097105 0.012934939794551988 0.027408106673028634
-0.14148236979428178 -0.01403341121362844 0.02359604245956834
-0.13752574754889352 -0.03994741215023335 0.016181589423410456
-0.12921387661966488 -0.06359535313281048 0.0055114391479530525
-0.11693541085326555 -0.08387148272381317 -0.007915483998943741
-0.10126447766239773 -0.0998277116388657 -0.02347135201388431
-0.08293383246607516 -0.11071794434797481 -0.04042878979759555
-0.06280059586062904 -0.11603296567328696 -0.05799488640614957
-0.0418061756132447 -0.11552425112485243 -0.0753482706854445
-0.020932247481067635 -0.1092155876295604 -0.0916775176734819
-0.0011548531438536206 -0.09740196128087492 -0.10621908992975564
0.016601238420184246 -0.0806357641169578 -0.11829303969735912
0.031505772103989874 -0.05970096488290414 -0.1273348025043905
0.04286182847770803 -0.035576451523539984 -0.1329215955711907
0.050138410966653765 -0.009390259471078428 -0.13479218666323056
0.0678916338142217 -0.012796357197826938 -0.11341388466925244
0.07074849750855242 0.014227076311221021 -0.11148080702608087
0.06905205863709722 0.04082416556036146 -0.10583444920983112
0.06288164079602894 0.06575126021684613 -0.09673882863651502
0.05252576586566908 0.08784279703901363 -0.08461924641508464
0.038468663048032925 0.10606580031803914 -0.07004240074026587
0.021367626847525523 0.11956818267400887 -0.05368988871481291
0.002022282710445975 0.12771858771477781 -0.036326335626524195
-0.01866280257216163 0.1301359115591642 -0.018763641919604897
-0.03972041740230362 0.126707122830867 -0.001823019632258496
-0.06016593111438046 0.11759254787999646 0.013703406565508032
-0.07904333421077187 0.10321837410113278 0.027089638241070458
-0.0954699403034172 0.0842567218844289 0.03770975007900739
-0.10867765954828573 0.06159421701317512 0.04506715745318345
-0.118048913672813 0.036290533027586246 0.04881783617195313
-0.12314551324953706 0.009528842067803446 0.048786408667006766
-0.12372914694671384 -0.017439508940376984 0.04497434445354647
-0.1197725247013256 -0.043353509876981895 0.03755989141738859
-0.11146065377209696 -0.06700145085955901 0.026889741141931187
-0.09918218800569761 -0.0872775804505617 0.013462817995034392
-0.08351125481482981 -0.10323380936561423 -0.002093050019906178
-0.06518060961850725 -0.11412404207472335 -0.019050487803617417
-0.045047373013061116 -0.11943906340003549 -0.036616584412171437
-0.02405295276567677 -0.11893034885160096 -0.05396996869146637
-0.003179024633499705 -0.11262168535630894 -0.07029921567950376
0.01659836970371431 -0.10080805900762345 -0.0848407879357775
0.03435446126775218 -0.08404186184370634 -0.09691473770338098
0.049258994951557805 -0.06310706260965268 -0.10595650051041237
0.06061505132527596 -0.03898254925028853 -0.11154329357721257
0.0678916338142217 -0.01279635719782697 -0.11341388466925244
0.08564485666178963 -0.01620245492457548 -0.0920355826752743
0.08850172035612035 0.010820978584472478 -0.09010250503210274
0.08680528148466515 0.03741806783361292 -0.08445614721585298
0.08063486364359687 0.06234516249009759 -0.07536052664253688
0.07027898871323701 0.08443669931226508 -0.0632409444211065
0.05622188589560086 0.10265970259129059 -0.04866409874628772
0.039120849695093454 0.11616208494726032 -0.03231158672083476
0.01977550555801391 0.12431248998802927 -0.014948033632546055
-0.0009095797245936948 0.12672981383241566 0.0026146600743732424
-0.021967194554735687 0.12330102510411846 0.019555282361719644
-0.04241270826681253 0.11418645015324791 0.035081708559486176
-0.061290111363203933 0.09981227637438424 0.0484679402350486
-0.07771671745584927 0.08085062415768035 0.059088052072985536
-0.0909244367007178 0.05818811928642658 0.0664454594471616
-0.10029569082524507 0.032884435300837705 0.07019613816593127
-0.10539229040196912 0.0061227443410549025 0.07016471066098491
-0.10597592409914591 -0.020845606667125524 0.06635264644752462
-0.10201930185375767 -0.046759607603730435 0.05893819341136673
-0.09370743092452903 -0.07040754858630756 0.04826804313590933
-0.08142896515812968 -0.09068367817731025 0.034841119989012535
-0.06575803196726186 -0.10663990709236278 0.019285251974071962
-0.04742738677093931 -0.1175301398014719 0.002327814190360722
-0.02729415016549318 -0.12284516112678404 -0.015238282418193293
-0.006299729918108836 -0.12233644657834951 -0.032591666697488225
0.014574198214068232 -0.11602778308305749 -0.04892091368552562
0.03435159255128224 -0.104214156734372 -0.06346248594179936
0.05210768411532011 -0.08744795957045488 -0.07553643570940284
0.06701221779912574 -0.06651316033640123 -0.08457819851643424
0.0783682741728439 -0.04238864697703707 -0.09016499158323443
0.08564485666178963 -0.01620245492457551 -0.0920355826752743
0.10339807950935757 -0.019608552651324027 -0.07065728068129616
0.10625494320368829 0.007414880857723934 -0.0687242030381246
0.1045585043322331 0.034011970106864374 -0.06307784522187485
0.09838808649116482 0.05893906476334904 -0.053982224648558744
0.08803221156080496 0.08103060158551653 -0.04186264242712836
0.0739751087431688 0.09925360486454204 -0.02728579675230958
0.0568740725426614 0.11275598722051178 -0.010933284726856621
0.03752872840558185 0.12090639226128072 0.006430268361432089
0.016843643122974244 0.12332371610566711 0.023992962068351387
-0.004213971707167748 0.11989492737736991 0.040933584355697786
-0.02465948541924459 0.11078035242649936 0.056460010553464314
-0.04353688851563599 0.09640617864763569 0.06984624222902674
-0.05996349460828132 0.0774445264309318 0.08046635406696367
-0.07317121385314986 0.05478202155967803 0.08782376144113974
-0.08254246797767713 0.02947833757408916 0.09157444015990941
-0.08763906755440118 0.002716646614306359 0.09154301265496305
-0.08822270125157797 -0.02425170439387407 0.08773094844150275
-0.08426607900618972 -0.05016570533047898 0.08031649540534487
-0.07595420807696109 -0.0738136463130561 0.06964634512988747
-0.06367574231056174 -0.0940897759040588 0.056219421982990674
-0.048004809119693924 -0.11004600481911132 0.040663553968050103
-0.029674163923371365 -0.12093623752822044 0.023706116184338866
-0.009540927317925243 -0.12625125885353258 0.00614001957578485
0.011453492929459103 -0.12574254430509804 -0.011213364703510083
0.03232742106163617 -0.11943388080980603 -0.027542611691547477
0.05210481539885019 -0.10762025446112054 -0.04208418394782122
0.06986090696288805 -0.09085405729720343 -0.0541581337154247
0.08476544064669368 -0.06991925806314978 -0.0631998965224561
0.09612149702041184 -0.04579474470378562 -0.0687866895892563
0.10339807950935757 -0.01960855265132406 -0.07065728068129616
0.12115130235692549 -0.023014650378072567 -0.04927897868731803
0.12400816605125621 0.004008783130975392 -0.04734590104414647
0.12231172717980102 0.030605872380115834 -0.041699543227896714
0.11614130933873273 0.0555329670366005 -0.03260392265458061
0.10578543440837287 0.077624503858768 -0.020484340433150228
0.09172833159073672 0.09584750713779351 -0.005907494758331451
0.07462729539022932 0.10934988949376324 0.010445017267121508
0.055281951253149775 0.11750029453453219 0.02780857035541022
0.03459686597054217 0.11991761837891858 0.04537126406232952
0.01353925114040018 0.11648882965062138 0.06231188634967592
-0.006906262571676661 0.10737425469975083 0.07783831254744245
-0.025783665668068063 0.09300008092088716 0.09122454422300487
-0.042210271760713396 0.07403842870418327 0.10184465606094181
-0.05541799100558193 0.05137592383292949 0.10920206343511787
-0.06478924513010921 0.02607223984734062 0.11295274215388755
-0.06988584470683326 -0.000689451112442183 0.11292131464894119
-0.07046947840401005 -0.02765780212062261 0.10910925043548089
-0.0665128561586218 -0.05357180305722752 0.10169479739932301
-0.05820098522939316 -0.07721974403980464 0.0910246471238656
-0.04592251946299381 -0.09749587363080733 0.0775977239769688
-0.030251586272126 -0.11345210254585986 0.062041855962028235
-0.011920941075803437 -0.12434233525496897 0.045084418178316994
0.008212295529642685 -0.12965735658028113 0.02751832156976298
0.02920671577702703 -0.1291486420318466 0.010164937290468046
0.050080643909204095 -0.12283997853655457 -0.0061643096975693475
0.0698580382464181 -0.11102635218786908 -0.02070588195384309
0.08761412981045598 -0.09426015502395196 -0.03277983172144657
0.1025186634942616 -0.07332535578989831 -0.041821594528477966
0.11387471986797976 -0.04920084243053416 -0.04740838759527816
0.12115130235692549 -0.0230146503780726 -0.04927897868731803
0.13890452520449342 -0.02642074810482111 -0.027900676693339885
0.14176138889882414 0.0006026854042268483 -0.025967599050168322
0.14006495002736896 0.02719977465336729 -0.02032124123391857
0.13389453218630068 0.052126869309851956 -0.011225620660602467
0.12353865725594082 0.07421840613201945 0.0008939615608279173
0.10948155443830467 0.09244140941104496 0.015470807235646693
0.09238051823779726 0.1059437917670147 0.03182331926109965
0.07303517410071772 0.11409419680778364 0.049186872349388365
0.05235008881811011 0.11651152065217003 0.06674956605630766
0.03129247398796812 0.11308273192387283 0.08369018834365406
0.010846960275891278 0.10396815697300228 0.09921661454142058
-0.008030442820500125 0.08959398319413861 0.11260284621698301
-0.024457048913145457 0.07063233097743472 0.12322295805491995
-0.03766476815801399 0.047969826106180946 0.130580365429096
-0.047036022282541265 0.022666142120592075 0.13433104414786567
-0.052132621859265316 -0.0040955488391907265 0.1342996166429193
-0.052716255556442104 -0.031063899847371155 0.13048755242945903
-0.04875963331105386 -0.05697790078397607 0.12307309939330115
-0.04044776238182522 -0.08062584176655319 0.11240294911784374
-0.028169296615425873 -0.10090197135755588 0.09897602597094694
-0.01249836342455806 -0.1168582002726084 0.08342015795600638
0.005832281771764501 -0.12774843298171754 0.06646272017229514
0.025965518377210624 -0.13306345430702968 0.04889662356374112
0.046959938624594966 -0.13255473975859514 0.03154323928444619
0.06783386675677204 -0.12624607626330311 0.015213992296408796
0.08761126109398605 -0.11443244991461762 0.0006724200401350547
0.10536735265802391 -0.09766625275070051 -0.011401529727468426
0.12027188634182955 -0.07673145351664686 -0.02044329253449982
0.1316279427155477 -0.052606940157282706 -0.026030085601300018
0.13890452520449342 -0.026420748104821142 -0.027900676693339885
0.15665774805206137 -0.029826845831569655 -0.0065223746993617465
0.1595146117463921 -0.0028034123225216946 -0.004589297056190184
0.1578181728749369 0.023793676926618747 0.0010570607600595692
0.15164775503386863 0.048720771583103416 0.010152681333375671
0.14129188010350877 0.0708123084052709 0.022272263554806056
0.1272347772858726 0.08903531168429642 0.03684910922962483
0.1101337410853652 0.10253769404026615 0.05320162125507779
0.09078839694828565 0.1106880990810351 0.0705651743433665
0.07010331166567804 0.11310542292542149 0.0881278680502858
0.04904569683553605 0.10967663419712428 0.1050684903376322
0.028600183123459213 0.10056205924625373 0.12059491653539872
0.009722780027067808 0.08618788546739006 0.13398114821096116
-0.006703826065577523 0.06722623325068618 0.1446012600488981
-0.019911545310446057 0.044563728379432406 0.15195866742307415
-0.02928279943497333 0.01926004439384353 0.1557093461418438
-0.034379399011697384 -0.00750164656593927 0.15567791863689745
-0.03496303270887417 -0.0344699975741197 0.15186585442343717
-0.031006410463485925 -0.06038399851072461 0.14445140138727927
-0.022694539534257287 -0.08403193949330173 0.13378125111182188
-0.01041607376785794 -0.10430806908430443 0.12035432796492508
0.005254859423009873 -0.12026429799935695 0.10479845994998452
0.023585504619332436 -0.13115453070846605 0.08784102216627328
0.043718741224778555 -0.1364695520337782 0.07027492555771926
0.0647131614721629 -0.13596083748534368 0.05292154127842433
0.08558708960433997 -0.12965217399005166 0.036592294290386934
0.10536448394155398 -0.11783854764136617 0.022050722034113193
0.12312057550559186 -0.10107235047744906 0.009976772266509712
0.13802510918939748 -0.0801375512433954 0.0009350094594783167
0.14938116556311565 -0.056013037884031246 -0.00465178360732188
0.15665774805206137 -0.029826845831569686 -0.0065223746993617465
0.17441097089962931 -0.0332329435583182 0.014855927294616402
0.17726783459396003 -0.0062095100492702395 0.016789004937787965
0.17557139572250485 0.020387579199870203 0.022435362754037718
0.16940097788143657 0.04531467385635487 0.031530983327353816
0.1590451029510767 0.06740621067852236 0.0436505655487842
0.14498800013344054 0.08562921395754787 0.058227411223602976
0.12788696393293314 0.0991315963135176 0.07457992324905593
0.1085416197958536 0.10728200135428655 0.09194347633734465
0.08785653451324599 0.10969932519867294 0.10950617004426394
0.066798919683104 0.10627053647037574 0.12644679233161035
0.046353405971027155 0.09715596151950519 0.1419732185293769
0.027476002874635752 0.08278178774064152 0.1553594502049393
0.01104939678199042 0.06382013552393763 0.16597956204287623
-0.002158322462878115 0.04115763065268386 0.1733369694170523
-0.011529576587405388 0.015853946667094988 0.17708764813582198
-0.01662617616412944 -0.010907744292687814 0.17705622063087562
-0.017209809861306227 -0.037876095300868245 0.1732441564174153
-0.013253187615917983 -0.06379009623747316 0.16582970338125744
-0.004941316686689345 -0.08743803722005028 0.15515955310580004
0.007337149079710004 -0.10771416681105297 0.14173262995890323
0.023008082270577816 -0.1236703957261055 0.12617676194396266
0.04133872746690038 -0.1345606284352146 0.10921932416025143
0.0614719640723465 -0.13987564976052674 0.09165322755169741
0.08246638431973084 -0.13936693521209223 0.07429984327240248
0.10334031245190792 -0.1330582717168002 0.05797059628436508
0.12311770678912193 -0.12124464536811472 0.04342902402809134
0.1408737983531598 -0.1044784482041976 0.03135507426048786
0.15577833203696542 -0.08354364897014395 0.022313311453456466
0.1671343884106836 -0.05941913561077979 0.01672651838665627
0.17441097089962931 -0.03323294355831823 0.014855927294616402
-0.07988950281405571 0.015327439770368444 -0.09620235897290164
-0.0693871174712142 0.013337939349485139 -0.10524085138159998
-0.0588847321283727 0.011348438928601833 -0.11427934379029835
-0.04838234678553118 0.009358938507718528 -0.12331783619899671
-0.03787996144268967 0.007369438086835223 -0.13235632860769506
-0.027377576099848165 0.005379937665951916 -0.14139482101639342
-0.01687519075700665 0.00339043724506861 -0.15043331342509178
-0.006372805414165142 0.0014009368241853042 -0.15947180583379014
0.004129579928676366 -0.0005885635966979996 -0.1685102982424885
0.014631965271517888 -0.0025780640175813085 -0.17754879065118687
-0.07988950281405571 0.015327439770368444 -0.09620235897290164
-0.06910583569402098 0.01791072638117703 -0.1047458774850267
-0.05832216857398625 0.020494012991985614 -0.11328939599715178
-0.047538501453951526 0.023077299602794196 -0.12183291450927684
-0.03675483433391678 0.02566058621360278 -0.13037643302140192
-0.025971167213882054 0.028243872824411362 -0.13891995153352701
-0.01518750009384734 0.030827159435219947 -0.14746347004565208
-0.0044038329738125825 0.03341044604602854 -0.15600698855777717
0.006379834146222146 0.03599373265683712 -0.16455050706990224
0.01716350126625686 0.0385770192676457 -0.1730940255820273
-0.07988950281405571 0.015327439770368444 -0.09620235897290164
-0.06999313157511908 0.022203574224766064 -0.10332508079131617
-0.06009676033618243 0.02907970867916368 -0.11044780260973071
-0.05020038909724579 0.0359558431335613 -0.11757052442814524
-0.040304017858309144 0.04283197758795892 -0.12469324624655978
-0.030407646619372494 0.049708112042356534 -0.13181596806497434
-0.020511275380435866 0.056584246496754156 -0.13893868988338887
-0.010614904141499223 0.06346038095115177 -0.1460614117018034
-0.0007185329025625744 0.07033651540554939 -0.15318413352021795
0.009177838336374061 0.077212649859947 -0.16030685533863248
-0.07988950281405571 0.015327439770368444 -0.09620235897290164
-0.07195285283797735 0.025751286206001967 -0.10113242666816409
-0.06401620286189899 0.036175132641635487 -0.10606249436342656
-0.056079552885820616 0.046598979077269016 -0.11099256205868901
-0.048142902909742255 0.05702282551290253 -0.11592262975395148
-0.04020625293366389 0.06744667194853605 -0.12085269744921394
-0.03226960295758552 0.07787051838416958 -0.1257827651444764
-0.02433295298150715 0.08829436481980311 -0.13071283283973886
-0.016396303005428797 0.09871821125543662 -0.13564290053500133
-0.008459653029350422 0.10914205769107015 -0.1405729682302638
-0.07988950281405571 0.015327439770368444 -0.09620235897290164
-0.07477263327555667 0.028169412683294606 -0.09840552321234819
-0.0696557637370576 0.04101138559622077 -0.10060868745179474
-0.06453889419855856 0.05385335850914693 -0.1028118516912413
-0.059422024660059504 0.0666953314220731 -0.10501501593068785
-0.05430515512156046 0.07953730433499927 -0.1072181801701344
-0.04918828558306141 0.09237927724792541 -0.10942134440958096
-0.044071416044562356 0.10522125016085158 -0.11162450864902751
-0.038954546506063295 0.11806322307377774 -0.11382767288847406
-0.03383767696756425 0.13090519598670391 -0.11603083712792062
-0.07988950281405571 0.015327439770368444 -0.09620235897290164
-0.07814690592404373 0.0291959121317311 -0.0954398727255728
-0.07640430903403175 0.04306438449309376 -0.09467738647824397
-0.07466171214401977 0.056932856854456405 -0.09391490023091514
-0.0729191152540078 0.07080132921581907 -0.09315241398358631
-0.07117651836399581 0.08466980157718171 -0.09238992773625748
-0.06943392147398383 0.09853827393854436 -0.09162744148892865
-0.06769132458397185 0.11240674629990703 -0.09086495524159982
-0.06594872769395987 0.12627521866126967 -0.09010246899427099
-0.0642061308039479 0.14014369102263233 -0.08933998274694216
-0.07988950281405571 0.015327439770368444 -0.09620235897290164
-0.08171001598474029 0.02871954740829331 -0.09255684945488864
-0.08353052915542487 0.04211165504621818 -0.08891133993687564
-0.08535104232610945 0.05550376268414304 -0.08526583041886265
-0.08717155549679403 0.06889587032206791 -0.08162032090084965
-0.08899206866747861 0.08228797795999278 -0.07797481138283666
-0.0908125818381632 0.09568008559791763 -0.07432930186482366
-0.09263309500884777 0.10907219323584251 -0.07068379234681066
-0.09445360817953234 0.12246430087376738 -0.06703828282879767
-0.09627412135021693 0.13585640851169226 -0.06339277331078468
-0.07988950281405571 0.015327439770368444 -0.09620235897290164
-0.08507584519522082 0.02679194002232599 -0.09006887370638954
-0.09026218757638593 0.038256440274283536 -0.08393538843987744
-0.09544852995755104 0.04972094052624108 -0.07780190317336536
-0.10063487233871617 0.061185440778198624 -0.07166841790685326
-0.10582121471988128 0.07264994103015616 -0.06553493264034116
-0.11100755710104639 0.0841144412821137 -0.05940144737382907
-0.1161938994822115 0.09557894153407125 -0.05326796210731698
-0.1213802418633766 0.1070434417860288 -0.047134476840804886
-0.12656658424454173 0.11850794203798633 -0.04100099157429279
-0.07988950281405571 0.015327439770368444 -0.09620235897290164
-0.08787965373430852 0.023621976144009005 -0.08824555625734673
-0.09586980465456131 0.03191651251764957 -0.08028875354179181
-0.10385995557481412 0.04021104889129013 -0.0723319508262369
-0.11185010649506691 0.04850558526493069 -0.064375148110682
-0.1198402574153197 0.05680012163857125 -0.05641834539512709
-0.12783040833557252 0.06509465801221181 -0.04846154267957219
-0.1358205592558253 0.07338919438585237 -0.04050473996401727
-0.1438107101760781 0.08168373075949294 -0.03254793724846237
-0.1518008610963309 0.0899782671331335 -0.024591134532907465
-0.07988950281405571 0.015327439770368444 -0.09620235897290164
-0.08981760544122118 0.019553170546615505 -0.08728448184504921
-0.09974570806838665 0.02377890132286256 -0.07836660471719678
-0.1096738106955521 0.02800463209910962 -0.06944872758934435
-0.11960191332271758 0.03223036287535668 -0.06053085046149192
-0.12953001594988303 0.036456093651603745 -0.05161297333363948
-0.13945811857704848 0.0406818244278508 -0.04269509620578706
-0.14938622120421396 0.04490755520409786 -0.03377721907793462
-0.15931432383137945 0.049133285980344915 -0.02485934195008221
-0.1692424264585449 0.05335901675659198 -0.01594146482222977
-0.07988950281405571 0.015327439770368444 -0.09620235897290164
-0.09067969317809585 0.015026441450646834 -0.08728979779467541
-0.10146988354213599 0.014725443130925222 -0.07837723661644919
-0.11226007390617612 0.014424444811203613 -0.06946467543822298
-0.12305026427021624 0.014123446491481999 -0.06055211425999675
-0.1338404546342564 0.01382244817176039 -0.051639553081770526
-0.14463064499829653 0.013521449852038781 -0.04272699190354431
-0.15542083536233664 0.013220451532317165 -0.0338144307253181
-0.16621102572637678 0.012919453212595553 -0.024901869547091875
-0.1770012160904169 0.012618454892873946 -0.015989308368865664
-0.07988950281405571 0.015327439770368444 -0.09620235897290164
-0.09037249636197266 0.010532330193090146 -0.0882609280405979
-0.1008554899098896 0.005737220615811846 -0.08031949710829417
-0.11133848345780656 0.0009421110385335476 -0.07237806617599044
-0.12182147700572349 -0.0038529985387447526 -0.0644366352436867
-0.13230447055364045 -0.008648108116023057 -0.05649520431138296
-0.1427874641015574 -0.01344321769330135 -0.04855377337907923
-0.15327045764947433 -0.018238327270579644 -0.0406123424467755
-0.16375345119739126 -0.02303343684785795 -0.032670911514471775
-0.17423644474530822 -0.027828546425136252 -0.024729480582168045
-0.07988950281405571 0.015327439770368444 -0.09620235897290164
-0.0889293045345283 0.006557843462022748 -0.09009263555203262
-0.09796910625500088 -0.002211752846322949 -0.0839829121311636
-0.10700890797547345 -0.010981349154668644 -0.07787318871029458
-0.11604870969594604 -0.019750945463014345 -0.07176346528942557
-0.1250885114164186 -0.02852054177136004 -0.06565374186855655
-0.1341283131368912 -0.03729013807970573 -0.05954401844768754
-0.14316811485736378 -0.04605973438805143 -0.05343429502681852
-0.15220791657783636 -0.05482933069639713 -0.047324571605949495
-0.16124771829830892 -0.06359892700474283 -0.041214848185080484
-0.07988950281405571 0.015327439770368444 -0.09620235897290164
-0.08650650992369482 0.0035336785652715476 -0.09258642639824517
-0.09312351703333394 -0.008260082639825351 -0.08897049382358871
-0.09974052414297303 -0.020053843844922255 -0.08535456124893225
-0.10635753125261214 -0.03184760505001914 -0.08173862867427578
-0.11297453836225126 -0.043641366255116054 -0.07812269609961932
-0.11959154547189035 -0.05543512746021295 -0.07450676352496285
-0.12620855258152947 -0.06722888866530986 -0.07089083095030639
-0.13282555969116858 -0.07902264987040673 -0.06727489837564993
-0.1394425668008077 -0.09081641107550366 -0.06365896580099346
-0.07988950281405571 0.015327439770368444 -0.09620235897290164
-0.08336665991908783 0.0017875506941527365 -0.09547205964589654
-0.08684381702411996 -0.011752338382062973 -0.09474176031889146
-0.09032097412915208 -0.025292227458278676 -0.09401146099188638
-0.09379813123418419 -0.038832116534494386 -0.0932811616648813
-0.09727528833921632 -0.05237200561071008 -0.09255086233787621
-0.10075244544424844 -0.06591189468692579 -0.09182056301087113
-0.10422960254928056 -0.0794517837631415 -0.09109026368386605
-0.10770675965431269 -0.09299167283935722 -0.09035996435686097
-0.1111839167593448 -0.10653156191557292 -0.08962966502985588
-0.07988950281405571 0.015327439770368444 -0.09620235897290164
-0.07985000598849909 0.001508679897467553 -0.09843683215739053
-0.07981050916294248 -0.01231007997543334 -0.10067130534187944
-0.07977101233738586 -0.026128839848334234 -0.10290577852636835
-0.07973151551182923 -0.03994759972123512 -0.10514025171085727
-0.07969201868627261 -0.053766359594136004 -0.10737472489534616
-0.079652521860716 -0.06758511946703691 -0.10960919807983507
-0.07961302503515938 -0.08140387933993778 -0.11184367126432398
-0.07957352820960276 -0.09522263921283869 -0.11407814444881288
-0.07953403138404613 -0.10904139908573957 -0.11631261763330179
-0.07988950281405571 0.015327439770368444 -0.09620235897290164
-0.07633763215181581 0.002727286153163086 -0.10115946482792137
-0.0727857614895759 -0.009872867464042274 -0.10611657068294113
-0.069233890827336 -0.022473021081247633 -0.11107367653796087
-0.06568202016509608 -0.03507317469845299 -0.11603078239298062
-0.06213014950285618 -0.04767332831565835 -0.12098788824800036
-0.058578278840616275 -0.06027348193286371 -0.1259449941030201
-0.05502640817837637 -0.07287363555006907 -0.13090209995803986
-0.05147453751613646 -0.08547378916727442 -0.1358592058130596
-0.04792266685389655 -0.09807394278447977 -0.14081631166807934
-0.07988950281405571 0.015327439770368444 -0.09620235897290164
-0.07321015861433802 0.005311314564810442 -0.1033449181616384
-0.06653081441462033 -0.004704810640747562 -0.11048747735037519
-0.05985147021490265 -0.014720935846305565 -0.11763003653911197
-0.05317212601518496 -0.02473706105186357 -0.12477259572784874
-0.04649278181546727 -0.03475318625742157 -0.13191515491658554
-0.03981343761574958 -0.04476931146297957 -0.1390577141053223
-0.033134093416031886 -0.054785436668537565 -0.14620027329405907
-0.026454749216314202 -0.06480156187409558 -0.15334283248279584
-0.01977540501659651 -0.07481768707965357 -0.16048539167153264
-0.07988950281405571 0.015327439770368444 -0.09620235897290164
-0.07080649566160338 0.008980745558675658 -0.10475636437903096
-0.06172348850915105 0.0026340513469828705 -0.1133103697851603
-0.05264048135669872 -0.0037126428647099195 -0.12186437519128965
-0.04355747420424638 -0.010059337076402705 -0.13041838059741898
-0.03447446705179405 -0.016406031288095497 -0.13897238600354833
-0.025391459899341724 -0.022752725499788285 -0.14752639140967766
-0.016308452746889385 -0.029099419711481066 -0.15608039681580702
-0.007225445594437052 -0.03544611392317385 -0.16463440222193634
0.0018575615580152664 -0.04179280813486664 -0.1731884076280657
-0.07988950281405571 0.015327439770368444 -0.09620235897290164
-0.0693871174712142 0.013337939349485135 -0.10524085138159998
-0.0588847321283727 0.011348438928601826 -0.11427934379029835
-0.04838234678553118 0.009358938507718517 -0.12331783619899671
-0.03787996144268967 0.007369438086835209 -0.13235632860769506
-0.027377576099848165 0.005379937665951898 -0.14139482101639342
-0.01687519075700665 0.003390437245068589 -0.15043331342509178
-0.006372805414165142 0.00140093682418528 -0.15947180583379014
0.004129579928676366 -0.0005885635966980273 -0.1685102982424885
0.014631965271517888 -0.0025780640175813397 -0.17754879065118687
0.07988950281405571 -0.015327439770368444 0.09620235897290164
0.09039188815689722 -0.01731694019125175 0.08716386656420327
0.10089427349973873 -0.019306440612135056 0.07812537415550491
0.11139665884258025 -0.02129594103301836 0.06908688174680655
0.12189904418542176 -0.023285441453901667 0.060048389338108195
0.13240142952826325 -0.025274941874784976 0.05100989692940984
0.1429038148711048 -0.02726444229566828 0.04197140452071148
0.1534062002139463 -0.029253942716551587 0.03293291211201312
0.1639085855567878 -0.03124344313743489 0.023894419703314764
0.17441097089962931 -0.0332329435583182 0.014855927294616402
0.07988950281405571 -0.015327439770368444 0.09620235897290164
0.09067316993409044 -0.012744153159559861 0.08765884046077656
0.10145683705412518 -0.010160866548751276 0.07911532194865148
0.1122405041741599 -0.007577579937942694 0.07057180343652641
0.12302417129419464 -0.004994293327134109 0.06202828492440133
0.13380783841422939 -0.002411006716325528 0.05348476641227626
0.1445915055342641 0.0001722798944830572 0.04494124790015119
0.15537517265429884 0.0027555665052916454 0.0363977293880261
0.16615883977433357 0.005338853116100227 0.027854210875901033
0.1769425068943683 0.007922139726908809 0.01931069236377597
0.07988950281405571 -0.015327439770368444 0.09620235897290164
0.08978587405299236 -0.008451305315970827 0.08907963715448709
0.099682245291929 -0.00157517086157321 0.08195691533607255
0.10957861653086563 0.005300963592824409 0.07483419351765802
0.11947498776980228 0.012177098047222026 0.06771147169924348
0.12937135900873895 0.01905323250161964 0.060588749880828935
0.13926773024767555 0.025929366956017264 0.053466028062414406
0.14916410148661222 0.03280550141041487 0.04634330624399987
0.15906047272554885 0.03968163586481249 0.03922058442558532
0.1689568439644855 0.0465577703192101 0.032097862607170784
0.07988950281405571 -0.015327439770368444 0.09620235897290164
0.08782615279013407 -0.004903593334734924 0.09127229127763917
0.09576280276621245 0.005520253100898597 0.08634222358237671
0.10369945274229081 0.015944099536532124 0.08141215588711424
0.11163610271836917 0.02636794597216564 0.07648208819185179
0.11957275269444755 0.03679179240779916 0.07155202049658932
0.1275094026705259 0.04721563884343269 0.06662195280132686
0.13544605264660428 0.05763948527906622 0.061691885106064395
0.14338270262268263 0.06806333171469972 0.05676181741080193
0.151319352598761 0.07848717815033325 0.05183174971553947
0.07988950281405571 -0.015327439770368444 0.09620235897290164
0.08500637235255476 -0.0024854668574422834 0.09399919473345508
0.09012324189105382 0.01035650605548388 0.09179603049400853
0.09524011142955287 0.023198478968410038 0.08959286625456198
0.10035698096805193 0.0360404518813362 0.08738970201511542
0.10547385050655098 0.04888242479426237 0.08518653777566887
0.11059072004505002 0.061724397707188516 0.08298337353622232
0.11570758958354907 0.07456637062011469 0.08078020929677576
0.12082445912204813 0.08740834353304085 0.0785770450573292
0.1259413286605472 0.10025031644596702 0.07637388081788266
0.07988950281405571 -0.015327439770368444 0.09620235897290164
0.08163209970406769 -0.0014589674090057902 0.09696484522023047
0.08337469659407967 0.012409504952356865 0.0977273314675593
0.08511729348409165 0.026277977313719513 0.09848981771488811
0.08685989037410363 0.04014644967508217 0.09925230396221695
0.08860248726411561 0.05401492203644481 0.10001479020954578
0.09034508415412759 0.06788339439780747 0.1007772764568746
0.09208768104413957 0.08175186675917014 0.10153976270420344
0.09383027793415155 0.09562033912053279 0.10230224895153227
0.09557287482416353 0.10948881148189545 0.1030647351988611
0.07988950281405571 -0.015327439770368444 0.09620235897290164
0.07806898964337114 -0.001935332132443579 0.09984786849091462
0.07624847647268655 0.011456775505481288 0.10349337800892762
0.07442796330200198 0.024848883143406147 0.10713888752694062
0.07260745013131739 0.038240990781331016 0.11078439704495362
0.07078693696063282 0.05163309841925588 0.1144299065629666
0.06896642378994823 0.06502520605718073 0.1180754160809796
0.06714591061926366 0.07841731369510561 0.1217209255989926
0.06532539744857908 0.09180942133303048 0.1253664351170056
0.0635048842778945 0.10520152897095536 0.12901194463501858
0.07988950281405571 -0.015327439770368444 0.09620235897290164
0.0747031604328906 -0.003862939518410901 0.10233584423941372
0.06951681805172549 0.007601560733546643 0.10846932950592582
0.06433047567056038 0.019066060985504184 0.11460281477243792
0.059144133289395266 0.030530561237461732 0.12073630003895
0.05395779090823015 0.04199506148941927 0.1268697853054621
0.048771448527065046 0.05345956174137681 0.1330032705719742
0.04358510614589993 0.06492406199333435 0.13913675583848628
0.03839876376473482 0.0763885622452919 0.14527024110499837
0.0332124213835697 0.08785306249724943 0.15140372637151048
0.07988950281405571 -0.015327439770368444 0.09620235897290164
0.07189935189380292 -0.007032903396727884 0.10415916168845654
0.06390920097355011 0.0012616329769126772 0.11211596440401145
0.055919050053297316 0.009556169350553239 0.12007276711956635
0.04792889913304452 0.0178507057241938 0.12802956983512126
0.039938748212791725 0.02614524209783436 0.13598637255067617
0.03194859729253892 0.03443977847147492 0.14394317526623107
0.023958446372286113 0.04273431484511548 0.151899977981786
0.01596829545203332 0.05102885121875604 0.15985678069734088
0.007978144531780543 0.05932338759239661 0.1678135834128958
0.07988950281405571 -0.015327439770368444 0.09620235897290164
0.06996140018689025 -0.011101708994121386 0.10512023610075406
0.06003329755972479 -0.006875978217874328 0.11403811322860649
0.05010519493255933 -0.0026502474416272683 0.12295599035645892
0.040177092305393854 0.0015754833346197886 0.13187386748431135
0.030248989678228387 0.005801214110866852 0.1407917446121638
0.020320887051062934 0.01002694488711391 0.1497096217400162
0.010392784423897461 0.014252675663360966 0.15862749886786864
0.0004646817967319946 0.018478406439608023 0.16754537599572106
-0.009463420830433472 0.022704137215855087 0.1764632531235735
0.07988950281405571 -0.015327439770368444 0.09620235897290164
0.06909931245001558 -0.015628438090090055 0.10511492015112785
0.05830912208597545 -0.01592943640981167 0.11402748132935407
0.04751893172193531 -0.016230434729533276 0.1229400425075803
0.03672874135789518 -0.01653143304925489 0.1318526036858065
0.025938550993855038 -0.0168324313689765 0.14076516486403273
0.015148360629814908 -0.017133429688698108 0.14967772604225896
0.0043581702657747995 -0.017434428008419725 0.15859028722048515
-0.006432020098265351 -0.017735426328141336 0.16750284839871138
-0.017222210462305473 -0.018036424647862943 0.1764154095769376
0.07988950281405571 -0.015327439770368444 0.09620235897290164
0.06940650926613877 -0.020122549347646745 0.10414378990520537
0.058923515718221825 -0.024917658924925045 0.11208522083750909
0.048440522170304874 -0.029712768502203342 0.12002665176981284
0.03795752862238794 -0.03450787807948164 0.12796808270211657
0.027474535074470986 -0.03930298765675995 0.1359095136344203
0.016991541526554035 -0.04409809723403824 0.14385094456672404
0.0065085479786370914 -0.048893206811316536 0.15179237549902777
-0.003974445569279839 -0.053688316388594844 0.15973380643133148
-0.014457439117196783 -0.058483425965873144 0.1676752373636352
0.07988950281405571 -0.015327439770368444 0.09620235897290164
0.07084970109358313 -0.02409703607871414 0.10231208239377065
0.06180989937311055 -0.03286663238705984 0.10842180581463967
0.05277009765263797 -0.041636228695405536 0.11453152923550868
0.04373029593216539 -0.05040582500375124 0.12064125265637769
0.03469049421169281 -0.05917542131209693 0.12675097607724672
0.025650692491220234 -0.06794501762044262 0.13286069949811571
0.016610890770747663 -0.07671461392878832 0.13897042291898473
0.007571089050275065 -0.08548421023713403 0.14508014633985378
-0.0014687126701974915 -0.09425380654547973 0.15118986976072277
0.07988950281405571 -0.015327439770368444 0.09620235897290164
0.0732724957044166 -0.027121200975465342 0.0998182915475581
0.0666554885947775 -0.03891496218056224 0.10343422412221456
0.06003848148513839 -0.05070872338565915 0.10705015669687101
0.05342147437549928 -0.06250248459075604 0.11066608927152748
0.04680446726586017 -0.07429624579585295 0.11428202184618394
0.04018746015622107 -0.08609000700094985 0.1178979544208404
0.03357045304658196 -0.09788376820604676 0.12151388699549687
0.02695344593694285 -0.10967752941114363 0.12512981957015334
0.020336438827303738 -0.12147129061624055 0.1287457521448098
0.07988950281405571 -0.015327439770368444 0.09620235897290164
0.0764123457090236 -0.028867328846584155 0.09693265829990672
0.07293518860399147 -0.04240721792279986 0.0976629576269118
0.06945803149895935 -0.05594710699901557 0.09839325695391689
0.06598087439392723 -0.06948699607523127 0.09912355628092197
0.06250371728889512 -0.08302688515144697 0.09985385560792705
0.05902656018386299 -0.09656677422766269 0.10058415493493213
0.05554940307883087 -0.1101066633038784 0.10131445426193722
0.052072245973798746 -0.12364655238009412 0.1020447535889423
0.04859508886876663 -0.13718644145630982 0.10277505291594738
0.07988950281405571 -0.015327439770368444 0.09620235897290164
0.07992899963961234 -0.029146199643269338 0.09396788578841272
0.07996849646516895 -0.04296495951617023 0.09173341260392381
0.08000799329072557 -0.056783719389071126 0.08949893941943492
0.08004749011628219 -0.07060247926197201 0.087264466234946
0.08008698694183881 -0.0844212391348729 0.0850299930504571
0.08012648376739544 -0.0982399990077738 0.08279551986596818
0.08016598059295205 -0.11205875888067468 0.08056104668147929
0.08020547741850867 -0.12587751875357558 0.07832657349699038
0.08024497424406529 -0.13969627862647646 0.07609210031250146
0.07988950281405571 -0.015327439770368444 0.09620235897290164
0.08344137347629561 -0.027927593387573803 0.09124525311788188
0.08699324413853553 -0.040527747004779166 0.08628814726286214
0.09054511480077543 -0.053127900621984525 0.08133104140784239
0.09409698546301534 -0.06572805423918988 0.07637393555282264
0.09764885612525524 -0.07832820785639524 0.0714168296978029
0.10120072678749516 -0.0909283614736006 0.06645972384278315
0.10475259744973506 -0.10352851509080596 0.06150261798776341
0.10830446811197497 -0.11612866870801132 0.056545512132743656
0.11185633877421487 -0.12872882232521665 0.05158840627772391
0.07988950281405571 -0.015327439770368444 0.09620235897290164
0.0865688470137734 -0.02534356497592645 0.08905979978416485
0.0932481912134911 -0.03535969018148445 0.08191724059542808
0.09992753541320878 -0.045375815387042454 0.0747746814066913
0.10660687961292648 -0.05539194059260046 0.06763212221795452
0.11328622381264417 -0.06540806579815846 0.060489563029217736
0.11996556801236184 -0.07542419100371646 0.05334700384048096
0.12664491221207955 -0.08544031620927446 0.046204444651744184
0.13332425641179724 -0.09545644141483248 0.039061885463007415
0.14000360061151493 -0.10547256662039046 0.031919326274270625
0.07988950281405571 -0.015327439770368444 0.09620235897290164
0.08897250996650805 -0.021674133982061233 0.0876483535667723
0.09805551711896038 -0.02802082819375402 0.07909434816064295
0.10713852427141271 -0.03436752240544681 0.07054034275451361
0.11622153142386504 -0.040714216617139594 0.061986337348384275
0.12530453857631738 -0.04706091082883239 0.053432331942254926
0.1343875457287697 -0.05340760504052518 0.0448783265361256
0.14347055288122204 -0.05975429925221796 0.03632432112999624
0.15255356003367437 -0.06610099346391074 0.027770315723866925
0.1616365671861267 -0.07244768767560353 0.01921631031773757
0.07988950281405571 -0.015327439770368444 0.09620235897290164
0.09039188815689722 -0.017316940191251753 0.08716386656420327
0.10089427349973873 -0.019306440612135062 0.07812537415550491
0.11139665884258025 -0.02129594103301837 0.06908688174680655
0.12189904418542176 -0.02328544145390168 0.060048389338108195
0.13240142952826325 -0.025274941874784993 0.05100989692940984
0.1429038148711048 -0.027264442295668302 0.04197140452071148
0.1534062002139463 -0.02925394271655161 0.03293291211201312
0.1639085855567878 -0.031243443137434917 0.023894419703314764
0.17441097089962931 -0.03323294355831823 0.014855927294616402
