# .PCD v0.7 - Point Cloud Data file format
VERSION 0.7
FIELDS x y z
SIZE 4 4 4
TYPE F F F
COUNT 1 1 1
WIDTH 700
HEIGHT 1
VIEWPOINT 0 0 0 1 0 0 0
POINTS 700
DATA ascii
0.05363675519474156 -0.05618044534334778 -0.14402866189397986
0.036894225544091795 -0.040595439484560666 -0.15416947106455592
0.016861333964399053 -0.027011577919067838 -0.16051002918519147
-0.0055252037990300784 -0.016064026916293966 -0.1627538588051898
-0.029218618121227308 -0.008264681793799758 -0.16079604094535727
-0.053111031281825385 -0.003978231261163493 -0.1547281209928614
-0.07608526059594473 -0.0034051049812436483 -0.14483382814067225
-0.09706705663487895 -0.006572101701905212 -0.13157580852584153
-0.11507533393543899 -0.013331136176354064 -0.1155739924103282
-0.12926804546581327 -0.02336616346469224 -0.09757660693095248
-0.13898155580890745 -0.03620795684404879 -0.0784251898300727
-0.14376167201686976 -0.05125604832863328 -0.059015240086054625
-0.14338488116853346 -0.06780680588537898 -0.040254345376318855
-0.13786880158519382 -0.08508633448577825 -0.023019744286255812
-0.1274713590174857 -0.1022866625772931 -0.008117307607953506
-0.1126787263239477 -0.11860352193515597 0.003756143282379434
-0.09418259056849922 -0.13327395435067982 0.012045419017503866
-0.07284781050208664 -0.1456119867091293 0.016362922276913654
-0.04967197672871048 -0.15504070633016137 0.016506771406759012
-0.025738765477524635 -0.16111923676356577 0.012470240181605216
-0.0021672671067807037 -0.16356335268207783 0.004442072315258177
0.019940341317544123 -0.1622587699417877 -0.007202343985519411
0.039550332596370384 -0.15726648938169177 -0.021918528756342363
0.05574576533244007 -0.14881994449225877 -0.03901836955319165
0.06776935909094524 -0.13731408632485823 -0.057702296825514594
0.07505890399100283 -0.12328691601955491 -0.0770966708997511
0.07727354901483342 -0.10739432846974474 -0.09629463239948842
0.07430973982252385 -0.0903794434059145 -0.11439850598200049
0.06630606083786918 -0.07303785794296226 -0.13056177463957952
0.05363675519474157 -0.056180445343347804 -0.14402866189397984
0.061075525994986286 -0.03764877245512476 -0.12782952165917102
0.044332996344336524 -0.02206376659633764 -0.13797033082974708
0.024300104764643782 -0.008479905030844814 -0.14431088895038263
0.00191356700121465 0.0024676459719290577 -0.14655471857038097
-0.02177984732098258 0.010266991094423266 -0.14459690071054843
-0.04567226048158066 0.014553441627059531 -0.13852898075805256
-0.0686464897957 0.015126567906979376 -0.1286346879058634
-0.08962828583463422 0.011959571186317812 -0.11537666829103267
-0.10763656313519426 0.00520053671186896 -0.09937485217551935
-0.12182927466556856 -0.004834490576469215 -0.08137746669614362
-0.1315427850086627 -0.017676283955825763 -0.062226049595263844
-0.13632290121662502 -0.03272437544041026 -0.04281609985124578
-0.13594611036828871 -0.049275132997155954 -0.024055205141510008
-0.1304300307849491 -0.06655466159755523 -0.006820604051446967
-0.120032588217241 -0.08375498968907008 0.00808183262685534
-0.10523995552370297 -0.10007184904693295 0.019955283517188283
-0.08674381976825449 -0.1147422814624568 0.028244559252312715
-0.0654090397018419 -0.1270803138209063 0.0325620625117225
-0.04223320592846575 -0.13650903344193835 0.03270591164156786
-0.018299994677279906 -0.14258756387534272 0.028669380416414064
0.005271503693464024 -0.14503167979385478 0.020641212550067026
0.027379112117788852 -0.14372709705356468 0.008996796249289436
0.04698910339661511 -0.13873481649346872 -0.005719388521533518
0.0631845361326848 -0.13028827160403572 -0.022819229318382803
0.07520812989118997 -0.1187824134366352 -0.04150315659070575
0.08249767479124756 -0.10475524313133189 -0.060897530664942245
0.08471231981507815 -0.08886265558152172 -0.08009549216467957
0.08174851062276858 -0.07184777051769148 -0.09819936574719165
0.0737448316381139 -0.05450618505473923 -0.11436263440477067
0.0610755259949863 -0.037648772455124775 -0.127829521659171
0.06851429679523101 -0.019117099566901746 -0.11163038142436217
0.051771767144581246 -0.0035320937081146277 -0.12177119059493824
0.031738875564888504 0.010051767857378201 -0.1281117487155738
0.009352337801459373 0.02099931886015207 -0.13035557833557213
-0.014341076520737857 0.02879866398264628 -0.1283977604757396
-0.038233489681335935 0.033085114515282545 -0.12232984052324372
-0.06120771899545527 0.03365824079520239 -0.11243554767105457
-0.0821895150343895 0.030491244074540826 -0.09917752805622383
-0.10019779233494953 0.023732209600091973 -0.08317571194071051
-0.11439050386532383 0.0136971823117538 -0.0651783264613348
-0.12410401420841799 0.0008553889323972499 -0.04602690936045501
-0.1288841304163803 -0.01419270255218724 -0.026616959616436942
-0.128507339568044 -0.030743460108932943 -0.007856064906701172
-0.12299125998470438 -0.048022988709332214 0.00937853618336187
-0.11259381741699627 -0.06522331680084706 0.02428097286166418
-0.09780118472345824 -0.08154017615870993 0.036154423751997115
-0.07930504896800976 -0.09621060857423377 0.04444369948712155
-0.057970268901597184 -0.10854864093268327 0.04876120274653133
-0.03479443512822103 -0.11797736055371533 0.04890505187637669
-0.010861223877035184 -0.12405589098711971 0.0448685206512229
0.012710274493708748 -0.1265000069056318 0.03684035278487586
0.034817882918033574 -0.12519542416534166 0.025195936484098274
0.054427874196859835 -0.12020314360524571 0.01047975171327532
0.07062330693292952 -0.11175659871581271 -0.006620089083573966
0.0826469006914347 -0.1002507405484122 -0.02530401635589691
0.08993644559149229 -0.08622357024310887 -0.04469839043013341
0.09215109061532288 -0.07033098269329871 -0.06389635192987073
0.08918728142301331 -0.053316097629468456 -0.08200022551238281
0.08118360243835863 -0.03597451216651622 -0.09816349416996183
0.06851429679523102 -0.019117099566901764 -0.11163038142436216
0.07595306759547574 -0.0005854266786787302 -0.09543124118955333
0.05921053794482597 0.014999579180108387 -0.1055720503601294
0.039177646365133226 0.028583440745601214 -0.11191260848076495
0.0167911086017041 0.039530991748375086 -0.11415643810076329
-0.006902305720493131 0.047330336870869294 -0.11219862024093075
-0.03079471888109121 0.05161678740350556 -0.10613070028843488
-0.053768948195210546 0.052189913683425404 -0.09623640743624573
-0.07475074423414477 0.04902291696276384 -0.08297838782141499
-0.0927590215347048 0.04226388248831499 -0.06697657170590167
-0.1069517330650791 0.032228855199976814 -0.04897918622652595
-0.11666524340817326 0.019387061820620263 -0.02982776912564617
-0.12144535961613558 0.004338970336035774 -0.010417819381628104
-0.12106856876779927 -0.012211787220709926 0.008343075328107666
-0.11555248918445965 -0.029491315821109202 0.025577676418170707
-0.10515504661675154 -0.04669164391262405 0.040480113096473015
-0.09036241392321351 -0.06300850327048692 0.052353563986805955
-0.07186627816776503 -0.07767893568601077 0.06064283972193039
-0.05053149810135246 -0.09001696804446024 0.06496034298134018
-0.027355664327976304 -0.09944568766549232 0.06510419211118554
-0.0034224530767904588 -0.1055242180988967 0.06106766088603174
0.020149045293953474 -0.10796833401740877 0.0530394930196847
0.042256653718278296 -0.10666375127711865 0.04139507671890711
0.06186664499710456 -0.1016714707170227 0.026678891948084156
0.07806207773317425 -0.0932249258275897 0.009579051151234872
0.09008567149167943 -0.08171906766018917 -0.009104876121088073
0.09737521639173702 -0.06769189735488586 -0.028499250195324573
0.09958986141556761 -0.05179930980507569 -0.04769721169506189
0.09662605222325804 -0.03478442474124544 -0.06580108527757397
0.08862237323860336 -0.017442839278293203 -0.08196435393515299
0.07595306759547575 -0.0005854266786787475 -0.09543124118955332
0.08339183839572047 0.01794624620954429 -0.07923210095474449
0.0666493087450707 0.03353125206833141 -0.08937291012532056
0.046616417165377955 0.047115113633824236 -0.09571346824595611
0.024229879401948824 0.05806266463659811 -0.09795729786595445
0.0005364650797515949 0.06586200975909232 -0.0959994800061219
-0.023355948080846484 0.07014846029172858 -0.08993156005362604
-0.04633017739496582 0.07072158657164843 -0.08003726720143689
-0.06731197343390004 0.06755458985098686 -0.06677924758660615
-0.08532025073446008 0.06079555537653801 -0.05077743147109283
-0.09951296226483437 0.050760528088199836 -0.03278004599171711
-0.10922647260792853 0.037918734708843285 -0.013628628890837326
-0.11400658881589085 0.022870643224258795 0.005781320853180738
-0.11362979796755454 0.006319885667513094 0.024542215562916508
-0.10811371838421492 -0.01095964293288618 0.041776816652979554
-0.09771627581650681 -0.02815997102440103 0.05667925333128186
-0.08292364312296878 -0.044476830382263896 0.0685527042216148
-0.0644275073675203 -0.059147262797787745 0.07684197995673923
-0.04309272730110773 -0.07148529515623724 0.08115948321614902
-0.01991689352773158 -0.0809140147772693 0.08130333234599438
0.004016317723454268 -0.08699254521067368 0.07726680112084058
0.0275878160941982 -0.08943666112918575 0.06923863325449355
0.049695424518523025 -0.08813207838889563 0.05759421695371596
0.06930541579734929 -0.08313979782879968 0.042878032182893
0.08550084853341898 -0.07469325293936668 0.025778191386043713
0.09752444229192415 -0.06318739477196617 0.007094264113720769
0.10481398719198175 -0.049160224466662836 -0.012300109960515728
0.10702863221581234 -0.03326763691685267 -0.031498071460253046
0.10406482302350277 -0.016252751853022423 -0.049601945042765126
0.09606114403884809 0.0010888336099298193 -0.06576521370034415
0.08339183839572048 0.017946246209544273 -0.07923210095474448
0.09083060919596518 0.03647791909776731 -0.06303296071993565
0.07408807954531542 0.05206292495655443 -0.07317376989051172
0.054055187965622684 0.06564678652204727 -0.07951432801114727
0.03166865020219355 0.07659433752482113 -0.0817581576311456
0.007975235879996323 0.08439368264731534 -0.07980033977131307
-0.015917177280601755 0.0886801331799516 -0.0737324198188172
-0.03889140659472109 0.08925325945987145 -0.06383812696662805
-0.059873202633655316 0.08608626273920988 -0.05058010735179731
-0.07788147993421536 0.07932722826476103 -0.03457829123628399
-0.09207419146458966 0.06929220097642286 -0.016580905756908265
-0.10178770180768382 0.05645040759706631 0.0025705113439715177
-0.10656781801564613 0.04140231611248182 0.021980461087989584
-0.10619102716730983 0.024851558555736116 0.04074135579772535
-0.1006749475839702 0.007572029955336842 0.057975956887788394
-0.0902775050162621 -0.009628298136178007 0.0728783935660907
-0.07548487232272406 -0.025945157494040874 0.08475184445642364
-0.05698873656727558 -0.04061558990956472 0.09304112019154807
-0.035653956500863004 -0.05295362226801421 0.09735862345095786
-0.01247812272748685 -0.062382341889046275 0.09750247258080322
0.011455088523698996 -0.06846087232245066 0.09346594135564942
0.03502658689444293 -0.07090498824096272 0.08543777348930238
0.057134195318767754 -0.0696004055006726 0.0737933571885248
0.07674418659759401 -0.06460812494057666 0.05907717241770184
0.0929396193336637 -0.05616158005114366 0.04197733162085256
0.10496321309216887 -0.04465572188374314 0.023293404348529615
0.11225275799222646 -0.030628551578439814 0.003899030274293116
0.11446740301605705 -0.014735964028629648 -0.015298931225444205
0.11150359382374748 0.002278921035200599 -0.033402804807956286
0.10349991483909281 0.01962050649815284 -0.04956607346553531
0.0908306091959652 0.0364779190977673 -0.06303296071993564
0.09826937999620991 0.05500959198599032 -0.04683382048512681
0.08152685034556015 0.07059459784477744 -0.05697462965570288
0.061493958765867406 0.08417845941027027 -0.06331518777633843
0.039107421002438275 0.09512601041304414 -0.06555901739633677
0.015414006680241045 0.10292535553553835 -0.06360119953650423
-0.008478406480357033 0.10721180606817461 -0.05753327958400836
-0.031452635794476366 0.10778493234809446 -0.04763898673181921
-0.052434431833410594 0.10461793562743289 -0.03438096711698847
-0.07044270913397063 0.09785890115298404 -0.018379151001475153
-0.08463542066434493 0.08782387386464587 -0.00038176552209943183
-0.09434893100743909 0.07498208048528932 0.018769651578780352
-0.0991290472154014 0.059933989000704825 0.03817960132279842
-0.0987522563670651 0.04338323144395913 0.05694049603253419
-0.09323617678372548 0.026103702843559853 0.07417509712259723
-0.08283873421601737 0.008903374752045005 0.08907753380089954
-0.06804610152247934 -0.0074134846058178635 0.10095098469123248
-0.04954996576703086 -0.02208391702134171 0.10924026042635691
-0.028215185700618282 -0.0344219493797912 0.1135577636857667
-0.005039351927242128 -0.04385066900082327 0.11370161281561206
0.018893859323943718 -0.04992919943422765 0.10966508159045826
0.04246535769468765 -0.052373315352739716 0.10163691372411122
0.06457296611901248 -0.0510687326124496 0.08999249742333364
0.08418295739783874 -0.04607645205235365 0.07527631265251068
0.10037839013390842 -0.03762990716292065 0.058176471855661396
0.1124019838924136 -0.026124048995520125 0.03949254458333845
0.11969152879247119 -0.012096878690216802 0.02009817050910195
0.12190617381630178 0.0037957088595933627 0.0009002090093646301
0.11894236462399221 0.02081059392342361 -0.01720366457314745
0.11093868563933754 0.03815217938637585 -0.03336693323072647
0.09826937999620992 0.05500959198599031 -0.0468338204851268
0.10570815079645464 0.07354126487421335 -0.03063468025031797
0.08896562114580488 0.08912627073300046 -0.04077548942089403
0.06893272956611213 0.1027101322984933 -0.047116047541529586
0.046546191802683004 0.11365768330126716 -0.04935987716152792
0.022852777480485774 0.12145702842376137 -0.04740205930169538
-0.0010396356801123047 0.12574347895639765 -0.041334139349199515
-0.024013864994231637 0.1263166052363175 -0.031439846497010364
-0.044995661033165865 0.12314960851565591 -0.01818182688217963
-0.0630039383337259 0.11639057404120706 -0.002180010766666306
-0.0771966498641002 0.10635554675286889 0.015817374712709414
-0.08691016020719436 0.09351375337351234 0.0349687918135892
-0.09169027641515667 0.07846566188892785 0.05437874155760727
-0.09131348556682037 0.06191490433218215 0.07313963626734303
-0.08579740598348075 0.044635375731782875 0.09037423735740607
-0.07539996341577264 0.02743504764026803 0.10527667403570838
-0.060607330722234606 0.011118188282405161 0.11715012492604132
-0.04211119496678613 -0.0035522441331186875 0.12543940066116577
-0.020776414900373553 -0.01589027649156817 0.12975690392057554
0.0023994188730026003 -0.025318996112600238 0.1299007530504209
0.026332630124188447 -0.03139752654600462 0.1258642218252671
0.04990412849493238 -0.03384164246451669 0.11783605395892006
0.0720117369192572 -0.03253705972422657 0.10619163765814248
0.09162172819808347 -0.027544779164130624 0.09147545288731952
0.10781716093415315 -0.019098234274697624 0.07437561209047024
0.11984075469265833 -0.007592376107297101 0.0556916848181473
0.1271302995927159 0.006434794198006221 0.0362973107439108
0.1293449446165465 0.02232738174781639 0.017099349244173476
0.12638113542423693 0.03934226681164663 -0.0010045243383386031
0.11837745643958227 0.05668385227459888 -0.017167792995917624
0.10570815079645465 0.07354126487421334 -0.030634680250317955
0.11314692159669937 0.09207293776243636 -0.01443554001550913
0.0964043919460496 0.10765794362122348 -0.0245763491860852
0.07637150036635686 0.1212418051867163 -0.030916907306720753
0.053984962602927726 0.13218935618949018 -0.03316073692671909
0.030291548280730496 0.13998870131198438 -0.031202919066886547
0.00639913512013242 0.14427515184462064 -0.025134999114390683
-0.016575094193986915 0.14484827812454049 -0.01524070626220153
-0.03755689023292114 0.14168128140387892 -0.0019826866473707915
-0.05556516753348118 0.13492224692943008 0.014019129468142532
-0.06975787906385547 0.12488721964109191 0.032016514947518254
-0.07947138940694963 0.11204542626173536 0.051167932048398035
-0.08425150561491195 0.09699733477715086 0.0705778817924161
-0.08387471476657564 0.08044657722040517 0.08933877650215187
-0.07835863518323602 0.0631670486200059 0.10657337759221491
-0.06796119261552791 0.045966720528491045 0.12147581427051722
-0.053168559921989884 0.029649861170628174 0.13334926516085016
-0.034672424166541406 0.014979428755104328 0.1416385408959746
-0.01333764410012883 0.002641396396654843 0.14595604415538438
0.009838189673247325 -0.006787323224377225 0.14609989328522974
0.03377140092443317 -0.012865853657781605 0.14206336206007594
0.0573428992951771 -0.015309969576293674 0.13403519419372892
0.07945050771950193 -0.014005386836003554 0.12239077789295132
0.0990604989983282 -0.009013106275907611 0.10767459312212836
0.11525593173439788 -0.0005665613864746115 0.09057475232527908
0.12727952549290306 0.010939296780925914 0.07189082505295613
0.13456907039296065 0.024966467086229235 0.05249645097871963
0.13678371541679124 0.0408590546360394 0.03329848947898231
0.13381990622448167 0.05787393969986965 0.015194615896470235
0.125816227239827 0.07521552516282189 -0.0009686527611087858
0.11314692159669938 0.09207293776243634 -0.014435540015509117
0.1205856923969441 0.1106046106506594 0.001763600219299716
0.10384316274629433 0.12618961650944652 -0.008377208951276352
0.08381027116660159 0.13977347807493934 -0.014717767071911905
0.061423733403172455 0.1507210290777132 -0.01696159669191024
0.037730319080975225 0.15852037420020743 -0.015003778832077699
0.013837905920377147 0.1628068247328437 -0.008935858879581834
-0.009136323393742186 0.16337995101276354 0.0009584339726073172
-0.030118119432676414 0.16021295429210197 0.014216453587438055
-0.04812639673323645 0.1534539198176531 0.030218269702951377
-0.06231910826361075 0.14341889252931495 0.0482156551823271
-0.0720326186067049 0.13057709914995838 0.06736707228320689
-0.07681273481466722 0.1155290076653739 0.08677702202722495
-0.07643594396633091 0.0989782501086282 0.10553791673696072
-0.07091986438299129 0.08169872150822892 0.12277251782702377
-0.06052242181528319 0.06449839341671407 0.13767495450532607
-0.045729789121745155 0.0481815340588512 0.149548405395659
-0.027233653366296677 0.03351110164332735 0.15783768113078345
-0.005898873299884102 0.021173069284877867 0.16215518439019322
0.017276960473492052 0.011744349663845799 0.16229903352003858
0.0412101717246779 0.005665819230441419 0.15826250229488478
0.06478167009542184 0.00322170331192935 0.15023433442853776
0.08688927851974666 0.00452628605221947 0.13858991812776017
0.10649926979857292 0.009518566612315413 0.12387373335693722
0.12269470253464261 0.017965111501748413 0.10677389256008793
0.13471829629314777 0.029470969669148937 0.08808996528776498
0.14200784119320536 0.04349813997445226 0.06869559121352849
0.14422248621703596 0.05939072752426243 0.04949762971379116
0.1412586770247264 0.07640561258809267 0.03139375613127908
0.1332549980400717 0.09374719805104492 0.015230487473700061
0.12058569239694411 0.11060461065065937 0.0017636002192997298
-0.033474468601101266 -0.08339252799700358 -0.07289613105663979
-0.023795443734896508 -0.0803689632577085 -0.08079974559412202
-0.014116418868691749 -0.0773453985184134 -0.08870336013160425
-0.004437394002486995 -0.07432183377911832 -0.09660697466908648
0.005241630863717767 -0.07129826903982323 -0.10451058920656871
0.014920655729922523 -0.06827470430052814 -0.11241420374405094
0.024599680596127278 -0.06525113956123306 -0.12031781828153318
0.03427870546233203 -0.06222757482193796 -0.1282214328190154
0.0439577303285368 -0.05920401008264287 -0.13612504735649764
0.05363675519474156 -0.05618044534334778 -0.14402866189397986
-0.033474468601101266 -0.08339252799700358 -0.07289613105663979
-0.026787921471205577 -0.07781044090638474 -0.0823525035134992
-0.02010137434130989 -0.07222835381576588 -0.0918088759703586
-0.013414827211414203 -0.06664626672514704 -0.101265248427218
-0.006728280081518511 -0.06106417963452818 -0.1107216208840774
-4.17329516228186e-05 -0.05548209254390933 -0.1201779933409368
0.00664481417827286 -0.049900005453290486 -0.1296343657977962
0.013331361308168567 -0.04431791836267163 -0.13909073825465562
0.020017908438064246 -0.03873583127205278 -0.14854711071151502
0.026704455567959952 -0.03315374418143393 -0.15800348316837443
-0.033474468601101266 -0.08339252799700358 -0.07289613105663979
-0.030504990341507554 -0.07585682430633499 -0.08288051674643879
-0.02753551208191384 -0.06832112061566639 -0.0928649024362378
-0.024566033822320126 -0.0607854169249978 -0.10284928812603679
-0.02159655556272641 -0.0532497132343292 -0.1128336738158358
-0.018627077303132688 -0.0457140095436606 -0.12281805950563479
-0.015657599043538983 -0.03817830585299202 -0.1328024451954338
-0.012688120783945267 -0.03064260216232341 -0.14278683088523278
-0.009718642524351555 -0.023106898471654813 -0.1527712165750318
-0.0067491642647578435 -0.015571194780986217 -0.1627556022648308
-0.033474468601101266 -0.08339252799700358 -0.07289613105663979
-0.0345438482574391 -0.07471981812965951 -0.08232656686618234
-0.035613227913776926 -0.06604710826231543 -0.0917570026757249
-0.03668260757011476 -0.057374398394971354 -0.10118743848526746
-0.037751987226452594 -0.048701688527627275 -0.11061787429481001
-0.03882136688279042 -0.040028978660283196 -0.12004831010435257
-0.039890746539128254 -0.031356268792939124 -0.12947874591389513
-0.04096012619546609 -0.02268355892559505 -0.13890918172343766
-0.042029505851803914 -0.014010849058250965 -0.14833961753298022
-0.04309888550814175 -0.00533813919090688 -0.15777005334252278
-0.033474468601101266 -0.08339252799700358 -0.07289613105663979
-0.038466822294471424 -0.07452263463806967 -0.08075068293767365
-0.04345917598784158 -0.06565274127913577 -0.08860523481870751
-0.04845152968121173 -0.056782847920201864 -0.09645978669974137
-0.05344388337458189 -0.04791295456126795 -0.10431433858077524
-0.05843623706795205 -0.03904306120233404 -0.1121688904618091
-0.0634285907613222 -0.030173167843400135 -0.12002344234284296
-0.06842094445469236 -0.021303274484466228 -0.1278779942238768
-0.07341329814806252 -0.012433381125532314 -0.13573254610491067
-0.07840565184143267 -0.0035634877665984143 -0.14358709798594455
-0.033474468601101266 -0.08339252799700358 -0.07289613105663979
-0.04184879734447811 -0.07528664172249637 -0.07832363643692519
-0.05022312608785495 -0.06718075544798915 -0.08375114181721059
-0.05859745483123179 -0.05907486917348194 -0.08917864719749599
-0.06697178357460865 -0.05096898289897472 -0.09460615257778139
-0.07534611231798549 -0.042863096624467495 -0.1000336579580668
-0.08372044106136232 -0.034757210349960294 -0.1054611633383522
-0.09209476980473918 -0.026651324075453064 -0.1108886687186376
-0.10046909854811602 -0.01854543780094585 -0.116316174098923
-0.10884342729149288 -0.01043955152643862 -0.1217436794792084
-0.033474468601101266 -0.08339252799700358 -0.07289613105663979
-0.04432328393404117 -0.07692904736055059 -0.07530843551179972
-0.055172099266981064 -0.07046556672409761 -0.07772073996695963
-0.06602091459992097 -0.06400208608764461 -0.08013304442211956
-0.07686972993286087 -0.05753860545119162 -0.08254534887727949
-0.08771854526580077 -0.05107512481473862 -0.08495765333243943
-0.09856736059874067 -0.044611644178285635 -0.08736995778759934
-0.10941617593168057 -0.03814816354183264 -0.08978226224275927
-0.12026499126462047 -0.03168468290537965 -0.0921945666979192
-0.13111380659756036 -0.02522120226892665 -0.09460687115307913
-0.033474468601101266 -0.08339252799700358 -0.07289613105663979
-0.04562213304556596 -0.07927187141679994 -0.07203182396819742
-0.05776979749003066 -0.07515121483659629 -0.07116751687975503
-0.06991746193449536 -0.07103055825639265 -0.07030320979131266
-0.08206512637896005 -0.066909901676189 -0.06943890270287029
-0.09421279082342475 -0.06278924509598535 -0.06857459561442791
-0.10636045526788944 -0.0586685885157817 -0.06771028852598554
-0.11850811971235413 -0.05454793193557806 -0.06684598143754317
-0.13065578415681883 -0.05042727535537441 -0.0659816743491008
-0.14280344860128352 -0.04630661877517077 -0.06511736726065842
-0.033474468601101266 -0.08339252799700358 -0.07289613105663979
-0.04560459422409831 -0.08206123255208901 -0.06884887350873412
-0.05773471984709535 -0.08072993710717444 -0.06480161596082844
-0.06986484547009239 -0.07939864166225988 -0.06075435841292277
-0.08199497109308944 -0.0780673462173453 -0.05670710086501709
-0.09412509671608647 -0.07673605077243073 -0.05265984331711142
-0.10625522233908351 -0.07540475532751616 -0.04861258576920575
-0.11838534796208056 -0.07407345988260158 -0.04456532822130007
-0.1305154735850776 -0.07274216443768701 -0.04051807067339439
-0.14264559920807462 -0.07141086899277244 -0.03647081312548872
-0.033474468601101266 -0.08339252799700358 -0.07289613105663979
-0.044272568073087076 -0.0849948602060118 -0.06610450620425773
-0.055070667545072886 -0.08659719241502 -0.059312881351875665
-0.06586876701705871 -0.0881995246240282 -0.0525212564994936
-0.07666686648904451 -0.0898018568330364 -0.04572963164711154
-0.08746496596103033 -0.09140418904204461 -0.03893800679472947
-0.09826306543301615 -0.09300652125105281 -0.03214638194234742
-0.10906116490500195 -0.09460885346006102 -0.025354757089965346
-0.11985926437698775 -0.09621118566906924 -0.01856313223758329
-0.13065736384897358 -0.09781351787807745 -0.01177150738520122
-0.033474468601101266 -0.08339252799700358 -0.07289613105663979
-0.04177040029450963 -0.0877548503023426 -0.06409611683545449
-0.050066331987917996 -0.09211717260768164 -0.055296102614269205
-0.058362263681326354 -0.09647949491302066 -0.04649608839308391
-0.06665819537473472 -0.10084181721835969 -0.037696074171898616
-0.07495412706814308 -0.10520413952369871 -0.028896059950713322
-0.08325005876155143 -0.10956646182903773 -0.020096045729528035
-0.09154599045495979 -0.11392878413437675 -0.01129603150834275
-0.09984192214836818 -0.11829110643971578 -0.0024960172871574485
-0.10813785384177653 -0.1226534287450548 0.006303996934027839
-0.033474468601101266 -0.08339252799700358 -0.07289613105663979
-0.038369239592308195 -0.0900421150884852 -0.0630413455538062
-0.04326401058351513 -0.09669170217996681 -0.05318656005097259
-0.04815878157472206 -0.10334128927144844 -0.04333177454813899
-0.05305355256592899 -0.10999087636293005 -0.03347698904530539
-0.05794832355713592 -0.11664046345441166 -0.023622203542471784
-0.06284309454834285 -0.12329005054589327 -0.013767418039638187
-0.06773786553954977 -0.1299396376373749 -0.003912632536804595
-0.07263263653075672 -0.1365892247288565 0.005942152966029004
-0.07752740752196365 -0.14323881182033812 0.01579693846886262
-0.033474468601101266 -0.08339252799700358 -0.07289613105663979
-0.03443765450301215 -0.09160879393429114 -0.06305449319414212
-0.035400840404923035 -0.09982505987157868 -0.05321285533164446
-0.03636402630683392 -0.10804132580886623 -0.0433712174691468
-0.037327212208744805 -0.11625759174615377 -0.03352957960664913
-0.03829039811065569 -0.12447385768344131 -0.023687941744151474
-0.039253584012566574 -0.13269012362072888 -0.013846303881653811
-0.04021676991447746 -0.1409063895580164 -0.004004666019156148
-0.04117995581638834 -0.14912265549530396 0.005836971843341523
-0.042143141718299235 -0.1573389214325915 0.015678609705839182
-0.033474468601101266 -0.08339252799700358 -0.07289613105663979
-0.030401693275874914 -0.09228511287729035 -0.06413413500562525
-0.02732891795064856 -0.10117769775757711 -0.055372138954610704
-0.02425614262542221 -0.11007028263786388 -0.04661014290359616
-0.02118336730019586 -0.11896286751815063 -0.03784814685258162
-0.0181105919749695 -0.1278554523984374 -0.029086150801567075
-0.01503781664974315 -0.13674803727872417 -0.02032415475055254
-0.011965041324516795 -0.14564062215901094 -0.011562158699537995
-0.008892265999290449 -0.15453320703929768 -0.0028001626485234608
-0.005819490674064087 -0.16342579191958445 0.005961833402491087
-0.033474468601101266 -0.08339252799700358 -0.07289613105663979
-0.026698714934247664 -0.09199778226583923 -0.06616327504561259
-0.019922961267394058 -0.10060303653467487 -0.0594304190345854
-0.013147207600540459 -0.10920829080351051 -0.052697563023558214
-0.00637145393368685 -0.11781354507234615 -0.045964707012531025
0.0004042997331667527 -0.1264187993411818 -0.03923185100150383
0.007180053400020348 -0.13502405361001743 -0.03249899499047664
0.013955807066873972 -0.14362930787885309 -0.025766138979449446
0.020731560733727568 -0.1522345621476887 -0.019033282968422258
0.027507314400581184 -0.16083981641652437 -0.012300426957395064
-0.033474468601101266 -0.08339252799700358 -0.07289613105663979
-0.023729994639074745 -0.0907779388300823 -0.06892202450541977
-0.013985520677048224 -0.09816334966316101 -0.06494791795419977
-0.004241046715021704 -0.10554876049623972 -0.060973811402979756
0.005503427247004817 -0.11293417132931845 -0.05699970485175975
0.015247901209031335 -0.12031958216239716 -0.05302559830053974
0.02499237517105786 -0.12770499299547586 -0.04905149174931973
0.034736849133084384 -0.13509040382855458 -0.04507738519809972
0.0444813230951109 -0.1424758146616333 -0.04110327864687971
0.05422579705713743 -0.149861225494712 -0.037129172095659704
-0.033474468601101266 -0.08339252799700358 -0.07289613105663979
-0.02181723929877971 -0.08875777153410494 -0.07211143007466832
-0.010160009996458157 -0.09412301507120628 -0.07132672909269684
0.0014972193058633975 -0.09948825860830764 -0.07054202811072537
0.013154448608184953 -0.10485350214540899 -0.0697573271287539
0.024811677910506508 -0.11021874568251033 -0.06897262614678243
0.03646890721282806 -0.11558398921961169 -0.06818792516481095
0.04812613651514961 -0.12094923275671304 -0.06740322418283949
0.05978336581747117 -0.1263144762938144 -0.06661852320086802
0.07144059511979271 -0.13167971983091575 -0.06583382221889654
-0.033474468601101266 -0.08339252799700358 -0.07289613105663979
-0.021167725633940617 -0.08615619685055158 -0.07538587017120373
-0.008860982666779964 -0.08891986570409958 -0.07787560928576766
0.003445760300380684 -0.09168353455764758 -0.08036534840033159
0.015752503267541337 -0.09444720341119557 -0.08285508751489552
0.028059246234701983 -0.09721087226474358 -0.08534482662945947
0.040365989201862636 -0.09997454111829157 -0.08783456574402339
0.05267273216902329 -0.10273820997183956 -0.09032430485858733
0.06497947513618393 -0.10550187882538756 -0.09281404397315127
0.07728621810334459 -0.10826554767893556 -0.0953037830877152
-0.033474468601101266 -0.08339252799700358 -0.07289613105663979
-0.021851838528385677 -0.08325513576397568 -0.07839050840239334
-0.010229208455670085 -0.08311774353094778 -0.0838848857481469
0.0013934216170455032 -0.08298035129791986 -0.08937926309390046
0.013016051689761096 -0.08284295906489196 -0.09487364043965402
0.02463868176247669 -0.08270556683186406 -0.10036801778540758
0.036261311835192274 -0.08256817459883616 -0.10586239513116112
0.047883941907907866 -0.08243078236580824 -0.1113567724769147
0.05950657198062346 -0.08229339013278034 -0.11685114982266824
0.07112920205333904 -0.08215599789975243 -0.1223455271684218
-0.033474468601101266 -0.08339252799700358 -0.07289613105663979
-0.023795443734896508 -0.0803689632577085 -0.08079974559412202
-0.014116418868691746 -0.0773453985184134 -0.08870336013160425
-0.004437394002486988 -0.07432183377911833 -0.09660697466908648
0.005241630863717774 -0.07129826903982324 -0.10451058920656871
0.01492065572992253 -0.06827470430052815 -0.11241420374405094
0.024599680596127292 -0.06525113956123307 -0.12031781828153316
0.03427870546233205 -0.06222757482193798 -0.12822143281901538
0.043957730328536816 -0.059204010082642894 -0.1361250473564976
0.05363675519474157 -0.056180445343347804 -0.14402866189397984
0.033474468601101266 0.08339252799700358 0.07289613105663979
0.04315349346730603 0.08641609273629867 0.06499251651915755
0.05283251833351078 0.08943965747559376 0.05708890198167533
0.06251154319971554 0.09246322221488885 0.04918528744419309
0.07219056806592031 0.09548678695418394 0.041281672906710865
0.08186959293212506 0.09851035169347903 0.033378058369228636
0.09154861779832982 0.10153391643277412 0.0254744438317464
0.10122764266453457 0.10455748117206921 0.01757082929426417
0.11090666753073934 0.1075810459113643 0.009667214756781945
0.1205856923969441 0.1106046106506594 0.001763600219299716
0.033474468601101266 0.08339252799700358 0.07289613105663979
0.04016101573099696 0.08897461508762243 0.06343975859978038
0.046847562860892644 0.09455670217824129 0.05398338614292098
0.05353410999078833 0.10013878926886013 0.04452701368606158
0.06022065712068402 0.105720876359479 0.03507064122920217
0.06690720425057972 0.11130296345009784 0.02561426877234277
0.0735937513804754 0.11688505054071668 0.016157896315483374
0.0802802985103711 0.12246713763133554 0.006701523858623959
0.08696684564026678 0.1280492247219544 -0.002754848598235443
0.09365339277016249 0.13363131181257323 -0.012211221055094845
0.033474468601101266 0.08339252799700358 0.07289613105663979
0.03644394686069498 0.09092823168767218 0.06291174536684078
0.0394134251202887 0.09846393537834078 0.052927359677041784
0.04238290337988241 0.10599963906900937 0.04294297398724279
0.04535238163947612 0.11353534275967797 0.03295858829744378
0.04832185989906985 0.12107104645034657 0.022974202607644788
0.05129133815866355 0.12860675014101516 0.012989816917845788
0.054260816418257266 0.13614245383168377 0.0030054312280467874
0.05723029467785098 0.14367815752235236 -0.0069789544617522205
0.06019977293744469 0.15121386121302097 -0.016963340151551216
0.033474468601101266 0.08339252799700358 0.07289613105663979
0.03240508894476343 0.09206523786434766 0.06346569524709723
0.031335709288425606 0.10073794773169174 0.054035259437554675
0.030266329632087773 0.10941065759903582 0.04460482362801212
0.029196949975749942 0.1180833674663799 0.035174387818469564
0.028127570319412112 0.126756077333724 0.025743952008927005
0.02705819066307428 0.13542878720106805 0.016313516199384454
0.025988811006736445 0.14410149706841213 0.006883080389841903
0.02491943135039862 0.15277420693575622 -0.0025473554197006556
0.023850051694060785 0.1614469168031003 -0.011977791229243214
0.033474468601101266 0.08339252799700358 0.07289613105663979
0.028482114907731112 0.0922624213559375 0.06504157917560592
0.023489761214360954 0.1011323147148714 0.05718702729457206
0.0184974075209908 0.11000220807380531 0.049332475413538204
0.013505053827620642 0.11887210143273923 0.04147792353250434
0.008512700134250484 0.12774199479167314 0.03362337165147048
0.0035203464408803302 0.13661188815060704 0.025768819770436623
-0.0014720072524898244 0.14548178150954094 0.017914267889402764
-0.006464360945859982 0.15435167486847487 0.010059716008368894
-0.011456714639230134 0.16322156822740877 0.0022051641273350357
0.033474468601101266 0.08339252799700358 0.07289613105663979
0.025100139857724423 0.0914984142715108 0.06746862567635438
0.01672581111434758 0.09960430054601802 0.06204112029606898
0.00835148237097074 0.10771018682052523 0.05661361491578358
-2.2846372406105256e-05 0.11581607309503246 0.05118610953549818
-0.008397175115782952 0.12392195936953967 0.045758604155212775
-0.016771503859159785 0.13202784564404688 0.040331098774927375
-0.025145832602536645 0.1401337319185541 0.03490359339464197
-0.03352016134591348 0.14823961819306133 0.02947608801435657
-0.04189449008929034 0.15634550446756856 0.02404858263407117
0.033474468601101266 0.08339252799700358 0.07289613105663979
0.022625653268161367 0.08985600863345658 0.07048382660147987
0.011776837935221468 0.09631948926990958 0.06807152214631994
0.0009280226022815661 0.10278296990636256 0.06565921769116001
-0.00992079273065833 0.10924645054281555 0.06324691323600008
-0.020769608063598233 0.11570993117926855 0.06083460878084015
-0.031618423396538135 0.12217341181572154 0.05842230432568023
-0.04246723872947803 0.12863689245217452 0.0560099998705203
-0.05331605406241793 0.13510037308862752 0.05359769541536037
-0.06416486939535783 0.1415638537250805 0.051185390960200444
0.033474468601101266 0.08339252799700358 0.07289613105663979
0.021326804156636573 0.08751318457720723 0.07376043814508217
0.009179139712171876 0.09163384115741088 0.07462474523352454
-0.002968524732292816 0.09575449773761453 0.07548905232196691
-0.015116189176757514 0.09987515431781817 0.07635335941040929
-0.02726385362122221 0.10399581089802182 0.07721766649885166
-0.0394115180656869 0.10811646747822547 0.07808197358729403
-0.05155918251015159 0.11223712405842912 0.0789462806757364
-0.06370684695461629 0.11635778063863277 0.07981058776417878
-0.07585451139908099 0.1204784372188364 0.08067489485262117
0.033474468601101266 0.08339252799700358 0.07289613105663979
0.021344342978104225 0.08472382344191816 0.07694338860454546
0.009214217355107183 0.08605511888683273 0.08099064615245113
-0.00291590826788985 0.0873864143317473 0.08503790370035681
-0.0150460338908869 0.08871770977666188 0.08908516124826249
-0.027176159513883934 0.09004900522157645 0.09313241879616815
-0.03930628513688097 0.09138030066649101 0.09717967634407383
-0.051436410759878017 0.09271159611140559 0.10122693389197951
-0.06356653638287506 0.09404289155632016 0.10527419143988519
-0.07569666200587209 0.09537418700123473 0.10932144898779085
0.033474468601101266 0.08339252799700358 0.07289613105663979
0.022676369129115456 0.08179019578799537 0.07968775590902184
0.011878269657129646 0.08018786357898718 0.0864793807614039
0.0010801701851438298 0.07858553136997896 0.09327100561378597
-0.009717929286841974 0.07698319916097077 0.10006263046616803
-0.020516028758827798 0.07538086695196256 0.10685425531855011
-0.03131412823081361 0.07377853474295436 0.11364588017093216
-0.04211222770279941 0.07217620253394615 0.12043750502331423
-0.052910327174785214 0.07057387032493793 0.1272291298756963
-0.06370842664677105 0.06897153811592974 0.13402075472807837
0.033474468601101266 0.08339252799700358 0.07289613105663979
0.025178536907692905 0.07903020569166457 0.08169614527782508
0.01688260521428454 0.07466788338632553 0.09049615949901037
0.008586673520876182 0.07030556108098651 0.09929617372019567
0.0002907418274678143 0.06594323877564749 0.10809618794138096
-0.008005189865940551 0.06158091647030846 0.11689620216256626
-0.016301121559348902 0.05721859416496944 0.12569621638375153
-0.024597053252757253 0.05285627185963042 0.13449623060493682
-0.03289298494616564 0.048493949554291385 0.14329624482612213
-0.04118891663957399 0.044131627248952365 0.15209625904730742
0.033474468601101266 0.08339252799700358 0.07289613105663979
0.028579697609894338 0.07674294090552197 0.08275091655947339
0.023684926618687405 0.07009335381404036 0.09260570206230699
0.018790155627480477 0.06344376672255875 0.10246048756514059
0.013895384636273544 0.05679417963107713 0.11231527306797419
0.009000613645066616 0.05014459253959551 0.12217005857080779
0.004105842653859688 0.043495005448113896 0.1320248440736414
-0.000788928337347241 0.036845418356632284 0.14187962957647499
-0.0056836993285541764 0.03019583126515067 0.15173441507930857
-0.010578470319761106 0.02354624417366906 0.16158920058214218
0.033474468601101266 0.08339252799700358 0.07289613105663979
0.03251128269919038 0.07517626205971605 0.08273776891913745
0.0315480967972795 0.06695999612242849 0.09257940678163512
0.030584910895368612 0.058743730185140945 0.10242104464413278
0.029621724993457728 0.0505274642478534 0.11226268250663045
0.028658539091546843 0.04231119831056586 0.1221043203691281
0.02769535318963596 0.034094932373278306 0.13194595823162578
0.026732167287725074 0.02587866643599076 0.14178759609412342
0.02576898138581419 0.017662400498703212 0.1516292339566211
0.024805795483903298 0.009446134561415673 0.16147087181911876
0.033474468601101266 0.08339252799700358 0.07289613105663979
0.03654724392632762 0.07449994311671683 0.08165812710765433
0.03962001925155397 0.06560735823643006 0.09042012315866887
0.042692794576780324 0.0567147733561433 0.09918211920968341
0.04576556990200668 0.047822188475856536 0.10794411526069796
0.048838345227233036 0.03892960359556977 0.1167061113117125
0.05191112055245938 0.030037018715283012 0.12546810736272704
0.05498389587768574 0.021144433834996243 0.13423010341374159
0.05805667120291209 0.012251848954709488 0.1429920994647561
0.06112944652813845 0.003359264074422719 0.15175409551577065
0.033474468601101266 0.08339252799700358 0.07289613105663979
0.04025022226795487 0.07478727372816794 0.07962898706766698
0.04702597593480848 0.0661820194593323 0.08636184307869417
0.053801729601662074 0.05757676519049667 0.09309469908972136
0.06057748326851568 0.04897151092166102 0.09982755510074855
0.06735323693536929 0.04036625665282537 0.10656041111177575
0.07412899060222289 0.031761002383989746 0.11329326712280294
0.08090474426907651 0.02315574811515409 0.12002612313383013
0.08768049793593011 0.014550493846318457 0.12675897914485731
0.09445625160278372 0.0059452395774828035 0.1334918351558845
0.033474468601101266 0.08339252799700358 0.07289613105663979
0.04321894256312779 0.07600711716392487 0.0768702376078598
0.05296341652515431 0.06862170633084616 0.0808443441590798
0.06270789048718083 0.06123629549776745 0.08481845071029982
0.07245236444920736 0.05385088466468873 0.08879255726151983
0.08219683841123387 0.04646547383161002 0.09276666381273983
0.09194131237326039 0.039080062998531305 0.09674077036395985
0.10168578633528692 0.03169465216545259 0.10071487691517986
0.11143026029731344 0.024309241332373874 0.10468898346639986
0.12117473425933997 0.01692383049929516 0.10866309001761987
0.033474468601101266 0.08339252799700358 0.07289613105663979
0.04513169790342282 0.07802728445990223 0.07368083203861125
0.056788927205744376 0.07266204092280089 0.07446553302058273
0.06844615650806593 0.06729679738569953 0.0752502340025542
0.08010338581038749 0.061931553848598185 0.07603493498452568
0.09176061511270904 0.05656631031149684 0.07681963596649714
0.1034178444150306 0.05120106677439549 0.07760433694846862
0.11507507371735215 0.045835823237294133 0.0783890379304401
0.1267323030196737 0.04047057970019278 0.07917373891241157
0.13838953232199525 0.03510533616309143 0.07995843989438303
0.033474468601101266 0.08339252799700358 0.07289613105663979
0.04578121156826192 0.08062885914345559 0.07040639194207585
0.05808795453542257 0.07786519028990758 0.06791665282751191
0.07039469750258322 0.07510152143635959 0.06542691371294798
0.08270144046974387 0.0723378525828116 0.06293717459838405
0.09500818343690452 0.0695741837292636 0.06044743548382011
0.10731492640406518 0.0668105148757156 0.057957696369256184
0.11962166937122583 0.0640468460221676 0.05546795725469224
0.13192841233838648 0.06128317716861961 0.052978218140128305
0.14423515530554712 0.05851950831507161 0.05048847902556437
0.033474468601101266 0.08339252799700358 0.07289613105663979
0.04509709867381686 0.08352992023003149 0.06740175371088623
0.05671972874653245 0.0836673124630594 0.061907376365132674
0.06834235881924804 0.0838047046960873 0.05641299901937912
0.07996498889196363 0.08394209692911521 0.05091862167362556
0.09158761896467922 0.08407948916214311 0.045424244327872
0.10321024903739481 0.08421688139517101 0.03992986698211846
0.1148328791101104 0.08435427362819893 0.034435489636364884
0.126455509182826 0.08449166586122683 0.02894111229061134
0.13807813925554158 0.08462905809425475 0.02344673494485778
0.033474468601101266 0.08339252799700358 0.07289613105663979
0.04315349346730603 0.08641609273629867 0.06499251651915756
0.05283251833351079 0.08943965747559376 0.05708890198167533
0.06251154319971555 0.09246322221488884 0.0491852874441931
0.07219056806592031 0.09548678695418393 0.04128167290671087
0.08186959293212506 0.09851035169347902 0.03337805836922864
0.09154861779832983 0.10153391643277411 0.025474443831746407
0.10122764266453459 0.1045574811720692 0.017570829294264186
0.11090666753073936 0.10758104591136428 0.009667214756781959
0.12058569239694411 0.11060461065065937 0.0017636002192997298
