# .PCD v0.7 - Point Cloud Data file format
VERSION 0.7
FIELDS x y z
SIZE 4 4 4
TYPE F F F
COUNT 1 1 1
WIDTH 700
HEIGHT 1
VIEWPOINT 0 0 0 1 0 0 0
POINTS 700
DATA ascii
0.04274555475199087 -0.04875510375122517 -0.028513585722679684
0.04932377528395451 -0.04045638078108944 -0.03078495751899356
0.053928429742288786 -0.031119644396492518 -0.033772168449474144
0.05634420960222786 -0.02118147001374098 -0.037335539851058655
0.05645815568246744 -0.011106555621484802 -0.041308452437411866
0.05426493999093748 -0.0013659930192427658 -0.0455051372315711
0.04986711485578978 0.007584759911562059 -0.04972936191684159
0.04347031769251228 0.015327175911932587 -0.053783606441828634
0.0353736556269304 0.021499228214768875 -0.057478298838513006
0.025955719578437196 0.025812318514133705 -0.06064067939678138
0.015656881769376116 0.028064771501284346 -0.0631228787164627
0.004958704409362734 0.02815126497796334 -0.06480883191613505
-0.005638577618418872 0.026067754605331752 -0.06561970569798416
-0.01563944718438265 0.021911663012758393 -0.06551758450519224
-0.024576274742792288 0.015877324423947962 -0.06450724341123468
-0.03203118416958704 0.008246897804627562 -0.06263592484275146
-0.03765559218550669 -0.0006228265770934312 -0.05999112957618366
-0.04118650772280735 -0.010317110267116382 -0.056696525298717174
-0.04245882909529562 -0.020382659334518247 -0.05290616404467667
-0.04141306396967759 -0.030348819891961608 -0.04879727889361713
-0.03809811116094269 -0.03974958534837233 -0.044561996748504244
-0.03266897417812194 -0.04814538635920901 -0.040398354695265475
-0.02537951343247967 -0.05514364460046753 -0.036501040008754496
-0.016570576006828402 -0.060417129294792045 -0.033052286792158395
-0.006654058024760807 -0.06371925815893321 -0.030213354912871308
0.0039063551542997555 -0.06489562731725641 -0.02811698967032254
0.014616870347156663 -0.06389123105535886 -0.026861214773311052
0.024976675767274532 -0.060753033826140654 -0.026504748860327543
0.034501358427305485 -0.0556277742441843 -0.027064259881279716
0.042745554751990864 -0.04875510375122518 -0.02851358572267968
0.04116411406853716 -0.0446979690770461 -0.018270449316159357
0.0477423346005008 -0.03639924610691037 -0.020541821112473234
0.05234698905883507 -0.027062509722313447 -0.02352903204295382
0.05476276891877414 -0.017124335339561907 -0.02709240344453833
0.054876714999013726 -0.0070494209473057285 -0.03106531603089154
0.05268349930748377 0.0026911416549363063 -0.035262000825050765
0.04828567417233607 0.01164189458574113 -0.03948622551032126
0.041888877009058564 0.01938431058611166 -0.04354047003530831
0.03379221494347669 0.02555636288894795 -0.047235162431992675
0.02437427889498348 0.02986945318831278 -0.05039754299026106
0.014075441085922399 0.03212190617546342 -0.05287974230994237
0.0033772637259090158 0.032208399652142415 -0.05456569550961472
-0.00722001830187259 0.030124889279510826 -0.05537656929146383
-0.017220887867836366 0.025968797686937467 -0.05527444809867191
-0.026157715426246005 0.019934459098127036 -0.054264107004714346
-0.03361262485304076 0.012304032478806634 -0.05239278843623113
-0.0392370328689604 0.003434308097085641 -0.049747993169663336
-0.042767948406261067 -0.006259975592937309 -0.04645338889219684
-0.044040269778749336 -0.016325524660339173 -0.04266302763815634
-0.0429945046531313 -0.026291685217782534 -0.03855414248709681
-0.0396795518443964 -0.03569245067419326 -0.03431886034198391
-0.03425041486157565 -0.04408825168502994 -0.030155218288745143
-0.026960954115933387 -0.05108650992628846 -0.026257903602234168
-0.01815201669028212 -0.056359994620612974 -0.022809150385638067
-0.008235498708214526 -0.05966212348475414 -0.01997021850635098
0.002324914470846037 -0.060838492643077335 -0.01787385326380221
0.013035429663702944 -0.05983409638117979 -0.016618078366790724
0.023395235083820815 -0.05669589915196158 -0.016261612453807216
0.03291991774385177 -0.05157063957000523 -0.01682112347475939
0.04116411406853715 -0.04469796907704611 -0.018270449316159353
0.039582673385083436 -0.04064083440286703 -0.00802731290963902
0.04616089391704708 -0.0323421114327313 -0.0102986847059529
0.05076554837538135 -0.023005375048134373 -0.013285895636433483
0.05318132823532042 -0.013067200665382833 -0.016849267038017996
0.053295274315560005 -0.002992286273126654 -0.020822179624371204
0.05110205862403005 0.006748276329115381 -0.02501886441853043
0.04670423348888235 0.015699029259920207 -0.029243089103800926
0.040307436325604844 0.023441445260290735 -0.03329733362878797
0.032210774260022966 0.029613497563127023 -0.036992026025472344
0.022792838211529762 0.03392658786249185 -0.04015440658374072
0.01249400040246868 0.03617904084964249 -0.04263660590342204
0.0017958230424552967 0.036265534326321486 -0.04432255910309439
-0.00880145898532631 0.0341820239536899 -0.045133432884943495
-0.018802328551290083 0.03002593236111654 -0.04503131169215157
-0.027739156109699722 0.02399159377230611 -0.04402097059819401
-0.03519406553649448 0.01636116715298571 -0.0421496520297108
-0.04081847355241412 0.007491442771264715 -0.039504856763143
-0.04434938908971479 -0.002202840918758234 -0.03621025248567651
-0.045621710462203056 -0.012268389986160099 -0.03241989123163601
-0.04457594533658502 -0.02223455054360346 -0.02831100608057647
-0.04126099252785012 -0.03163531600001418 -0.024075723935463582
-0.03583185554502937 -0.04003111701085087 -0.01991208188222481
-0.028542394799387104 -0.04702937525210939 -0.016014767195713833
-0.019733457373735837 -0.052302859946433904 -0.01256601397911773
-0.009816939391668245 -0.055604988810575066 -0.009727082099830643
0.000743473787392318 -0.056781357968898265 -0.007630716857281876
0.011453988980249226 -0.05577696170700072 -0.006374941960270389
0.021813794400367098 -0.05263876447778251 -0.00601847604728688
0.03133847706039805 -0.04751350489582616 -0.006577987068239053
0.03958267338508343 -0.04064083440286704 -0.008027312909639017
0.038001232701629716 -0.036583699728687954 0.0022158234968813074
0.04457945323359336 -0.028284976758552228 -5.554829943257152e-05
0.04918410769192763 -0.0189482403739553 -0.0030427592299131553
0.0515998875518667 -0.00901006599120376 -0.006606130631497667
0.051713833632106285 0.001064848401052418 -0.010579043217850874
0.04952061794057633 0.010805411003294454 -0.014775728012010103
0.04512279280542863 0.019756163934099277 -0.0189999526972806
0.03872599564215112 0.027498579934469806 -0.023054197222267644
0.030629333576569245 0.0336706322373061 -0.026748889618952013
0.02121139752807604 0.03798372253667093 -0.029911270177220395
0.010912559719014963 0.04023617552382157 -0.03239346949690171
0.00021438235900157865 0.04032266900050056 -0.03407942269657406
-0.010382899668780027 0.038239158627868974 -0.03489029647842317
-0.020383769234743804 0.034083067035295615 -0.034788175285631245
-0.029320596793153443 0.02804872844648518 -0.033777834191673684
-0.0367755062199482 0.02041830182716478 -0.03190651562319047
-0.04239991423586784 0.011548577445443789 -0.029261720356622674
-0.04593082977316851 0.0018542937554208378 -0.02596711607915618
-0.04720315114565678 -0.008211255311981027 -0.02217675482511568
-0.04615738602003874 -0.01817741586942439 -0.01806786967405614
-0.04284243321130384 -0.02757818132583511 -0.013832587528943252
-0.03741329622848309 -0.03597398233667179 -0.009668945475704481
-0.030123835482840824 -0.04297224057793031 -0.005771630789193504
-0.021314898057189557 -0.048245725272254826 -0.0023228775725974028
-0.011398380075121962 -0.05154785413639599 0.0005160543066896842
-0.0008379668960614001 -0.05272422329471919 0.002612419549238453
0.009872548296795508 -0.051719827032821644 0.00386819444624994
0.020232353716913377 -0.048581629803603435 0.004224660359233448
0.02975703637694433 -0.043456370221647084 0.0036651493382812757
0.03800123270162971 -0.03658369972868796 0.002215823496881311
0.036419792018175995 -0.032526565054508884 0.012458959903401642
0.04299801255013964 -0.02422784208437315 0.010187588107087763
0.04760266700847391 -0.014891105699776225 0.00720037717660718
0.05001844686841298 -0.004952931317024687 0.003637005775022669
0.050132392948652564 0.005121983075231493 -0.0003359068113305388
0.04793917725712261 0.014862545677473528 -0.004532591605489767
0.04354135212197491 0.023813298608278355 -0.008756816290760262
0.0371445549586974 0.03155571460864888 -0.012811060815747309
0.029047892893115528 0.03772776691148517 -0.016505753212431678
0.019629956844622324 0.04204085721085 -0.019668133770700057
0.009331119035561242 0.04429331019800064 -0.022150333090381374
-0.0013670583244521405 0.044379803674679634 -0.023836286290053726
-0.011964340352233748 0.042296293302048045 -0.024647160071902832
-0.02196520991819752 0.038140201709474686 -0.024545038879110907
-0.03090203747660716 0.032105863120664255 -0.023534697785153345
-0.03835694690340192 0.02447543650134386 -0.021663379216670133
-0.043981354919321564 0.015605712119622863 -0.019018583950102336
-0.04751227045662223 0.005911428429599913 -0.015723979672635845
-0.0487845918291105 -0.004154120637801953 -0.011933618418595344
-0.047738826703492464 -0.014120281195245313 -0.007824733267535806
-0.04442387389475756 -0.02352104665165603 -0.003589451122422917
-0.03899473691193681 -0.03191684766249272 0.0005741909308158544
-0.031705276166294545 -0.03891510590375124 0.004471505617326832
-0.022896338740643275 -0.044188590598075755 0.007920258833922932
-0.012979820758575683 -0.04749071946221692 0.010759190713210019
-0.002419407579515119 -0.048667088620540117 0.012855555955758787
0.008291107613341788 -0.047662692358642574 0.014111330852770275
0.01865091303345966 -0.044524495129424364 0.014467796765753783
0.028175595693490613 -0.03939923554746801 0.01390828574480161
0.03641979201817599 -0.03252656505450889 0.012458959903401646
0.03483835133472228 -0.02846943038032981 0.022702096309921975
0.041416571866685924 -0.02017070741019408 0.020430724513608098
0.0460212263250202 -0.01083397102559715 0.017443513583127512
0.04843700618495927 -0.0008957966428456126 0.013880142181543003
0.04855095226519885 0.009179117749410567 0.009907229595189795
0.046357736573668894 0.0189196803516526 0.005710544801030566
0.041959911438521194 0.027870433282457426 0.001486320115760071
0.03556311427524369 0.03561284928282796 -0.0025679244092269753
0.027466452209661808 0.041784901585664246 -0.006262616805911344
0.018048516161168603 0.046097991885029076 -0.009424997364179724
0.007749678352107524 0.04835044487217972 -0.01190719668386104
-0.0029484990079058594 0.04843693834885871 -0.013593149883533393
-0.013545781035687465 0.04635342797622712 -0.0144040236653825
-0.02354665060165124 0.042197336383653763 -0.014301902472590574
-0.03248347816006088 0.03616299779484333 -0.013291561378633012
-0.03993838758685563 0.02853257117552293 -0.0114202428101498
-0.04556279560277528 0.019662846793801935 -0.008775447543582003
-0.04909371114007594 0.009968563103778987 -0.005480843266115512
-0.05036603251256421 -9.698596362287852e-05 -0.0016904820120750112
-0.04932026738694618 -0.010063146521066239 0.0024184031389845274
-0.046005314578211276 -0.01946391197747696 0.006653685284097416
-0.04057617759539053 -0.027859712988313644 0.010817327337336188
-0.03328671684974826 -0.03485797122957216 0.014714642023847166
-0.024477779424096995 -0.04013145592389668 0.018163395240443265
-0.0145612614420294 -0.04343358478803784 0.021002327119730352
-0.004000848262968838 -0.04460995394636104 0.02309869236227912
0.00670966692988807 -0.043605557684463496 0.024354467259290608
0.01706947235000594 -0.04046736045524529 0.024710933172274116
0.026594155010036893 -0.035342100873288936 0.024151422151321943
0.034838351334722274 -0.028469430380329817 0.02270209630992198
0.03325691065126856 -0.024412295706150736 0.032945232716442306
0.0398351311832322 -0.016113572736015006 0.030673860920128426
0.044439785641566476 -0.006776836351418078 0.027686649989647844
0.04685556550150555 0.0031613380313334598 0.024123278588063332
0.04696951158174513 0.01323625242358964 0.020150366001710125
0.04477629589021517 0.022976815025831675 0.015953681207550894
0.04037847075506747 0.0319275679566365 0.0117294565222804
0.03398167359178997 0.03966998395700703 0.007675211997293354
0.02588501152620809 0.045842036259843316 0.003980519600608985
0.016467075477714886 0.050155126559208146 0.0008181390423406045
0.006168237668653806 0.05240757954635879 -0.0016640602773407124
-0.004529939691359577 0.05249407302303778 -0.0033500134770130647
-0.015127221719141184 0.05041056265040619 -0.004160887258862171
-0.02512809128510496 0.046254471057832834 -0.004058766066070246
-0.0340649188435146 0.0402201324690224 -0.0030484249721126843
-0.04151982827030935 0.03258970584970201 -0.0011771064036294719
-0.047144236286229 0.02371998146798101 0.0014676888629383256
-0.05067515182352966 0.01402569777795806 0.004762293140404818
-0.05194747319601793 0.003960148710556194 0.008552654394445318
-0.0509017080703999 -0.006006011846887167 0.012661539545504856
-0.047586755261665 -0.015406777303297887 0.016896821690617746
-0.04215761827884425 -0.02380257831413457 0.021060463743856516
-0.03486815753320198 -0.03080083655539309 0.024957778430367495
-0.026059220107550712 -0.03607432124971761 0.028406531646963596
-0.01614270212548312 -0.03937645011385877 0.031245463526250683
-0.005582288946422556 -0.04055281927218197 0.03334182876879945
0.005128226246434352 -0.039548423010284425 0.03459760366581094
0.015488031666552222 -0.036410225781066216 0.03495406957879445
0.025012714326583176 -0.031284966199109865 0.03439455855784227
0.033256910651268554 -0.024412295706150743 0.032945232716442306
0.03167546996781484 -0.02035516103197166 0.04318836912296264
0.03825369049977848 -0.012056438061835931 0.04091699732664876
0.042858344958112755 -0.0027197016772390046 0.037929786396168175
0.04527412481805183 0.007218472705512533 0.03436641499458366
0.04538807089829141 0.017293387097768714 0.030393502408230456
0.04319485520676145 0.02703394970001075 0.026196817614071225
0.03879703007161375 0.035984702630815574 0.02197259292880073
0.03240023290833625 0.0437271186311861 0.017918348403813684
0.024303570842754373 0.04989917093402239 0.014223656007129316
0.014885634794261167 0.05421226123338722 0.011061275448860935
0.004586796985200087 0.05646471422053786 0.008579076129179618
-0.006111380374813296 0.05655120769721685 0.006893122929507267
-0.0167086624025949 0.054467697324585264 0.0060822491476581605
-0.026709531968558676 0.050311605732011905 0.0061843703404500855
-0.03564635952696832 0.044277267143201474 0.007194711434407647
-0.043101268953763074 0.03664684052388108 0.009066030002890859
-0.04872567696968272 0.027777116142160083 0.011710825269458656
-0.05225659250698338 0.018082832452137133 0.015005429546925148
-0.05352891387947165 0.008017283384735268 0.018795790800965648
-0.05248314875385362 -0.0019488771727080932 0.022904675952025187
-0.04916819594511872 -0.011349642629118813 0.027139958097138078
-0.04373905896229797 -0.019745443639955496 0.03130360015037685
-0.0364495982166557 -0.026743701881214017 0.03520091483688782
-0.02764066079100443 -0.032017186575538537 0.038649668053483924
-0.017724142808936836 -0.0353193154396797 0.041488599932771014
-0.007163729629876275 -0.0364956845980029 0.04358496517531978
0.003546785562980633 -0.035491288336105355 0.04484074007233127
0.013906590983098504 -0.032353091106887145 0.04519720598531478
0.02343127364312946 -0.02722783152493079 0.0446376949643626
0.03167546996781483 -0.02035516103197167 0.04318836912296264
0.030094029284361123 -0.016298026357792587 0.053431505529482975
0.03667224981632476 -0.007999303387656856 0.0511601337331691
0.041276904274659035 0.0013374329969400712 0.04817292280268851
0.043692684134598106 0.01127560737969161 0.044609551401104
0.04380663021483769 0.021350521771947788 0.04063663881475079
0.04161341452330773 0.031091084374189823 0.03643995402059157
0.03721558938816003 0.04004183730499465 0.03221572933532107
0.03081879222488253 0.047784253305365176 0.028161484810334023
0.022722130159300653 0.053956305608201464 0.024466792413649654
0.013304194110807448 0.058269395907566295 0.021304411855381275
0.0030053563017463677 0.060521848894716936 0.018822212535699958
-0.007692821058267016 0.06060834237139593 0.017136259336027606
-0.01829010308604862 0.05852483199876434 0.0163253855541785
-0.028290972652012396 0.05436874040619098 0.016427506746970424
-0.03722780021042204 0.04833440181738055 0.017437847840927986
-0.044682709637216794 0.040703975198060155 0.0193091664094112
-0.05030711765313644 0.03183425081633916 0.021953961675978996
-0.053838033190437104 0.022139967126316207 0.025248565953445486
-0.05511035456292537 0.012074418058914344 0.029038927207485986
-0.05406458943730734 0.002108257501470983 0.033147812358545525
-0.05074963662857244 -0.007292507954939738 0.03738309450365841
-0.04532049964575169 -0.015688308965776422 0.04154673655689719
-0.03803103890010942 -0.022686567207034943 0.04544405124340816
-0.02922210147445815 -0.02796005190135946 0.04889280446000426
-0.019305583492390557 -0.03126218076550062 0.05173173633929135
-0.008745170313329994 -0.03243854992382382 0.05382810158184012
0.0019653448795269135 -0.03143415366192628 0.05508387647885161
0.012325150299644785 -0.028295956432708068 0.05544034239183512
0.021849832959675738 -0.023170696850751717 0.05488083137088294
0.030094029284361116 -0.016298026357792594 0.053431505529482975
0.028512588600907406 -0.012240891683613513 0.0636746419360033
0.03509080913287105 -0.003942168713477784 0.06140327013968942
0.03969546359120532 0.005394567671119143 0.05841605920920884
0.04211124345114439 0.015332742053870682 0.054852687807624326
0.042225189531383975 0.025407656446126862 0.05087977522127112
0.04003197383985402 0.035148219048368894 0.04668309042711189
0.03563414870470632 0.04409897197917372 0.0424588657418414
0.029237351541428813 0.05184138797954425 0.038404621216854354
0.021140689475846935 0.058013440282380535 0.03470992882016998
0.01172275342735373 0.062326530581745365 0.0315475482619016
0.0014239156182926497 0.064578983568896 0.029065348942220286
-0.009274261741720734 0.064665477045575 0.027379395742547934
-0.01987154376950234 0.06258196667294341 0.026568521960698827
-0.029872413335466114 0.05842587508037005 0.026670643153490752
-0.03880924089387575 0.05239153649155962 0.027680984247448314
-0.04626415032067051 0.044761109872239226 0.029552302815931526
-0.05188855833659015 0.03589138549051823 0.03219709808249932
-0.05541947387389082 0.02619710180049528 0.035491702359965814
-0.05669179524637909 0.016131552733093416 0.03928206361400632
-0.05564603012076105 0.006165392175650055 0.043390948765065857
-0.05233107731202615 -0.0032353732807606653 0.04762623091017874
-0.0469019403292054 -0.011631174291597348 0.05178987296341751
-0.039612479583563134 -0.01862943253285587 0.05568718764992849
-0.030803542157911867 -0.023902917227180385 0.05913594086652459
-0.020887024175844274 -0.027205046091321548 0.06197487274581168
-0.010326610996783713 -0.028381415249644746 0.06407123798836045
0.0003839041960731954 -0.027377018987747203 0.06532701288537193
0.010743709616191066 -0.024238821758528994 0.06568347879835544
0.02026839227622202 -0.019113562176572643 0.06512396777740327
0.0285125886009074 -0.01224089168361352 0.0636746419360033
0.007116483075541734 -0.018257106033805832 -0.04609411382934149
0.011075268817369416 -0.021645772446852424 -0.04414072181749018
0.015034054559197098 -0.02503443885989902 -0.04218732980563887
0.018992840301024782 -0.028423105272945615 -0.040233937793787554
0.02295162604285246 -0.0318117716859922 -0.038280545781936244
0.026910411784680142 -0.0352004380990388 -0.036327153770084934
0.030869197526507828 -0.038589104512085394 -0.03437376175823362
0.03482798326833551 -0.04197777092513199 -0.03242036974638231
0.03878676901016319 -0.04536643733817858 -0.030466977734530998
0.04274555475199087 -0.04875510375122517 -0.028513585722679684
0.007116483075541734 -0.018257106033805832 -0.04609411382934149
0.012104567444560657 -0.020189084848651288 -0.04455877766188168
0.01709265181357958 -0.022121063663496743 -0.04302344149442187
0.0220807361825985 -0.024053042478342196 -0.04148810532696206
0.027068820551617426 -0.025985021293187655 -0.039952769159502244
0.03205690492063635 -0.02791700010803311 -0.038417432992042436
0.037044989289655265 -0.029848978922878563 -0.03688209682458263
0.04203307365867419 -0.031780957737724026 -0.03534676065712281
0.04702115802769312 -0.03371293655256948 -0.033811424489663
0.052009242396712035 -0.03564491536741493 -0.03227608832220319
0.007116483075541734 -0.018257106033805832 -0.04609411382934149
0.012593329732265108 -0.01852303736812162 -0.04514321100321268
0.018070176388988484 -0.018788968702437406 -0.04419230817708387
0.02354702304571185 -0.01905490003675319 -0.04324140535095505
0.029023869702435232 -0.01932083137106898 -0.04229050252482624
0.034500716359158606 -0.019586762705384765 -0.04133959969869743
0.03997756301588197 -0.019852694039700546 -0.040388696872568616
0.04545440967260535 -0.02011862537401634 -0.0394377940464398
0.05093125632932873 -0.02038455670833213 -0.03848689122031099
0.0564081029860521 -0.02065048804264791 -0.03753598839418217
0.007116483075541734 -0.018257106033805832 -0.04609411382934149
0.0124885907026817 -0.01682817210116903 -0.04583068942053232
0.017860698329821668 -0.015399238168532229 -0.045567265011723146
0.023232805956961634 -0.013970304235895424 -0.045303840602913974
0.0286049135841016 -0.012541370303258626 -0.0450404161941048
0.03397702121124157 -0.011112436370621821 -0.04477699178529563
0.039349128838381535 -0.009683502437985018 -0.04451356737648646
0.04472123646552151 -0.008254568505348215 -0.044250142967677285
0.05009334409266147 -0.00682563457271142 -0.043986718558868106
0.05546545171980144 -0.005396700640074615 -0.04372329415005893
0.007116483075541734 -0.018257106033805832 -0.04609411382934149
0.01180170045485929 -0.015288153998012081 -0.04654671395999728
0.016486917834176846 -0.012319201962218333 -0.04699931409065307
0.0211721352134944 -0.009350249926424586 -0.04745191422130886
0.025857352592811956 -0.006381297890630835 -0.04790451435196465
0.030542569972129514 -0.0034123458548370863 -0.048357114482620436
0.03522778735144707 -0.0004433938190433396 -0.048809714613276226
0.03991300473076462 0.002525558216750404 -0.049262314743932015
0.04459822211008218 0.005494510252544161 -0.049714914874587804
0.04928343948939973 0.008463462288337904 -0.05016751500524359
0.007116483075541734 -0.018257106033805832 -0.04609411382934149
0.01060709420534978 -0.014069867915970778 -0.04721369225249108
0.014097705335157827 -0.009882629798135726 -0.04833327067564066
0.01758831646496587 -0.005695391680300675 -0.04945284909879024
0.02107892759477392 -0.0015081535624656202 -0.05057242752193982
0.024569538724581966 0.00267908455536943 -0.05169200594508941
0.028060149854390006 0.00686632267320448 -0.05281158436823899
0.03155076098419806 0.01105356079103954 -0.05393116279138857
0.035041372114006104 0.01524079890887459 -0.05505074121453815
0.038531983243814155 0.01942803702670964 -0.05617031963768774
0.007116483075541734 -0.018257106033805832 -0.04609411382934149
0.009034226077513344 -0.013305334055690567 -0.04775934685078747
0.010951969079484954 -0.008353562077575304 -0.049424579872233455
0.012869712081456566 -0.00340179009946004 -0.051089812893679434
0.014787455083428174 0.0015499818786552245 -0.05275504591512541
0.01670519808539979 0.006501753856770491 -0.05442027893657139
0.018622941087371395 0.01145352583488575 -0.05608551195801737
0.020540684089343005 0.016405297813001016 -0.05775074497946335
0.022458427091314615 0.02135706979111628 -0.05941597800090933
0.02437617009328623 0.02630884176923155 -0.06108121102235531
0.007116483075541734 -0.018257106033805832 -0.04609411382934149
0.007253540738564654 -0.013077401523897934 -0.04812454761245761
0.007390598401587575 -0.007897697013990037 -0.05015498139557373
0.007527656064610496 -0.0027179925040821404 -0.052185415178689847
0.007664713727633415 0.0024617120058257587 -0.054215848961805965
0.007801771390656336 0.00764141651573366 -0.056246282744922084
0.007938829053679259 0.01282112102564155 -0.0582767165280382
0.008075886716702176 0.018000825535549447 -0.06030715031115432
0.008212944379725097 0.023180530045457347 -0.06233758409427044
0.008350002042748014 0.02836023455536525 -0.06436801787738655
0.007116483075541734 -0.018257106033805832 -0.04609411382934149
0.0054580030751586696 -0.013410770347150245 -0.04826971936830086
0.003799523074775605 -0.00856443466049466 -0.05044532490726022
0.0021410430743925408 -0.003718098973839074 -0.052620930446219585
0.0004825630740094762 0.0011282367128165125 -0.054796535985178946
-0.0011759169263735867 0.005974572399472096 -0.05697214152413831
-0.002834396926756652 0.010820908086127682 -0.05914774706309767
-0.0044928769271397224 0.015667243772783276 -0.06132335260205704
-0.006151356927522781 0.020513579459438856 -0.0634989581410164
-0.007809836927905845 0.025359915146094435 -0.06567456367997576
0.007116483075541734 -0.018257106033805832 -0.04609411382934149
0.003842187453762859 -0.014269314840697853 -0.04817913050599971
0.0005678918319839839 -0.010281523647589877 -0.050264147182657926
-0.0027064037897948875 -0.006293732454481899 -0.05234916385931614
-0.005980699411573765 -0.0023059412613739205 -0.05443418053597436
-0.00925499503335264 0.0016818499317340612 -0.05651919721263258
-0.012529290655131508 0.005669641124842033 -0.058604213889290796
-0.015803586276910395 0.009657432317950018 -0.060689230565949014
-0.019077881898689267 0.013645223511057989 -0.06277424724260723
-0.022352177520468145 0.017633014704165974 -0.06485926391926546
0.007116483075541734 -0.018257106033805832 -0.04609411382934149
0.0025811925689180784 -0.015559998386974475 -0.04786259773441553
-0.001954097937705577 -0.01286289074014312 -0.049631081639489566
-0.006489388444329232 -0.010165783093311766 -0.0513995655445636
-0.011024678950952887 -0.007468675446480408 -0.053168049449637635
-0.015559969457576544 -0.004771567799649052 -0.05493653335471167
-0.0200952599642002 -0.002074460152817699 -0.0567050172597857
-0.02463055047082386 0.0006226474940136576 -0.05847350116485974
-0.02916584097744751 0.0033197551408450142 -0.06024198506993378
-0.03370113148407117 0.006016862787676371 -0.06201046897500781
0.007116483075541734 -0.018257106033805832 -0.04609411382934149
0.0018116667827488895 -0.017142955396722365 -0.04735442229086146
-0.0034931495100439546 -0.016028804759638898 -0.04861473075238142
-0.0087979658028368 -0.014914654122555434 -0.049875039213901386
-0.014102782095629643 -0.013800503485471967 -0.05113534767542135
-0.019407598388422494 -0.012686352848388502 -0.05239565613694132
-0.024712414681215336 -0.011572202211305036 -0.05365596459846128
-0.030017230974008186 -0.010458051574221564 -0.05491627305998125
-0.03532204726680102 -0.009343900937138104 -0.05617658152150121
-0.04062686355959387 -0.008229750300054635 -0.057436889983021176
0.007116483075541734 -0.018257106033805832 -0.04609411382934149
0.0016170001546095595 -0.018846647915826607 -0.046709672869801024
-0.0038824827663226148 -0.01943618979784738 -0.04732523191026056
-0.009381965687254789 -0.020025731679868156 -0.04794079095072009
-0.014881448608186963 -0.02061527356188893 -0.04855634999117962
-0.020380931529119142 -0.021204815443909706 -0.049171909031639156
-0.025880414450051313 -0.021794357325930484 -0.04978746807209869
-0.03137989737098349 -0.022383899207951256 -0.05040302711255822
-0.03687938029191566 -0.02297344108997203 -0.051018586153017756
-0.04237886321284784 -0.023562982971992802 -0.05163414519347729
0.007116483075541734 -0.018257106033805832 -0.04609411382934149
0.00201828783422294 -0.02048645442432908 -0.04599821807532418
-0.0030799074070958538 -0.022715802814852328 -0.04590232232130686
-0.008178102648414644 -0.02494515120537558 -0.045806426567289546
-0.01327629788973344 -0.027174499595898828 -0.04571053081327223
-0.018374493131052237 -0.02940384798642208 -0.045614635059254914
-0.023472688372371025 -0.03163319637694533 -0.045518739305237595
-0.028570883613689826 -0.033862544767468576 -0.04542284355122028
-0.03366907885500862 -0.03609189315799182 -0.04532694779720296
-0.03876727409632741 -0.03832124154851507 -0.04523105204318564
0.007116483075541734 -0.018257106033805832 -0.04609411382934149
0.002972044074883023 -0.021884676442813954 -0.04529715507377104
-0.0011723949257756877 -0.025512246851822077 -0.04450019631820058
-0.005316833926434396 -0.0291398172608302 -0.04370323756263013
-0.009461272927093109 -0.032767387669838326 -0.042906278807059675
-0.013605711927751821 -0.03639495807884645 -0.04210932005148922
-0.01775015092841053 -0.040022528487854564 -0.04131236129591877
-0.021894589929069244 -0.0436500988968627 -0.040515402540348314
-0.026039028929727953 -0.047277669305870816 -0.03971844378477786
-0.03018346793038667 -0.05090523971487894 -0.038921485029207406
0.007116483075541734 -0.018257106033805832 -0.04609411382934149
0.004374914588861413 -0.022889794919928395 -0.044682454919473175
0.001633346102181093 -0.02752248380605096 -0.04327079600960486
-0.001108222384499227 -0.03215517269217352 -0.041859137099736536
-0.003849790871179548 -0.03678786157829608 -0.04044747818986822
-0.0065913593578598665 -0.04142055046441865 -0.039035819279999905
-0.009332927844540187 -0.04605323935054121 -0.03762416037013158
-0.012074496331220505 -0.05068592823666377 -0.036212501460263266
-0.014816064817900829 -0.05531861712278634 -0.03480084255039494
-0.017557633304581148 -0.0599513060089089 -0.03338918364052663
0.007116483075541734 -0.018257106033805832 -0.04609411382934149
0.006074876588189718 -0.023392889672656965 -0.044220729912204396
0.005033270100837702 -0.028528673311508098 -0.042347345995067294
0.003991663613485687 -0.03366445695035923 -0.04047396207793019
0.0029500571261336698 -0.03880024058921036 -0.03860057816079309
0.0019084506387816546 -0.0439360242280615 -0.03672719424365599
0.0008668441514296395 -0.049071807866912634 -0.03485381032651889
-0.00017476233592237904 -0.054207591505763764 -0.032980426409381786
-0.0012163688232743942 -0.05934337514461489 -0.031107042492244684
-0.002257975310626411 -0.06447915878346604 -0.029233658575107586
0.007116483075541734 -0.018257106033805832 -0.04609411382934149
0.007887712812612512 -0.023339442578222125 -0.043962015120903926
0.00865894254968329 -0.028421779122638414 -0.041829916412466354
0.009430172286754067 -0.033504115667054704 -0.03969781770402879
0.010201402023824847 -0.038586452211471 -0.03756571899559122
0.010972631760895624 -0.04366878875588729 -0.035433620287153654
0.011743861497966402 -0.04875112530030357 -0.03330152157871608
0.012515091235037181 -0.05383346184471987 -0.031169422870278518
0.01328632097210796 -0.058915798389136166 -0.029037324161840947
0.014057550709178737 -0.06399813493355246 -0.026905225453403382
0.007116483075541734 -0.018257106033805832 -0.04609411382934149
0.009616974328161328 -0.022735245458623002 -0.04393434630758278
0.012117465580780924 -0.027213384883440175 -0.041774578785824065
0.014617956833400517 -0.03169152430825734 -0.03961481126406536
0.017118448086020113 -0.036169663733074515 -0.03745504374230664
0.01961893933863971 -0.04064780315789169 -0.035295276220547935
0.022119430591259297 -0.045125942582708856 -0.03313550869878922
0.0246199218438789 -0.04960408200752603 -0.03097574117703051
0.027120413096498493 -0.0540822214323432 -0.028815973655271793
0.02962090434911809 -0.05856036085716037 -0.026656206133513088
0.007116483075541734 -0.018257106033805832 -0.04609411382934149
0.011075268817369414 -0.021645772446852427 -0.04414072181749018
0.015034054559197096 -0.02503443885989902 -0.04218732980563887
0.01899284030102478 -0.028423105272945618 -0.040233937793787554
0.022951626042852457 -0.03181177168599221 -0.038280545781936244
0.02691041178468014 -0.035200438099038805 -0.03632715377008493
0.03086919752650782 -0.0385891045120854 -0.03437376175823362
0.034827983268335506 -0.041977770925131996 -0.03242036974638231
0.03878676901016318 -0.045366437338178585 -0.030466977734530994
0.042745554751990864 -0.04875510375122518 -0.02851358572267968
-0.007116483075541734 0.018257106033805832 0.04609411382934149
-0.0031576973337140517 0.014868439620759238 0.04804750584119281
0.0008010884081136303 0.011479773207712644 0.05000089785304412
0.004759874149941314 0.008091106794666049 0.051954289864895434
0.008718659891768994 0.004702440381619456 0.053907681876746744
0.012677445633596676 0.0013137739685728609 0.05586107388859805
0.016636231375424363 -0.0020748924444737348 0.05781446590044937
0.020595017117252045 -0.00546355885752033 0.05976785791230068
0.024553802859079724 -0.008852225270566918 0.06172124992415199
0.028512588600907406 -0.012240891683613513 0.0636746419360033
-0.007116483075541734 0.018257106033805832 0.04609411382934149
-0.0021283987065228104 0.016325127218960376 0.047629449996801305
0.002859685662496113 0.014393148404114918 0.049164786164261114
0.00784777003151503 0.012461169589269466 0.05070012233172093
0.01283585440053396 0.010529190774424007 0.05223545849918074
0.01782393876955288 0.00859721195957855 0.05377079466664055
0.022812023138571797 0.006665233144733099 0.05530613083410036
0.027800107507590724 0.004733254329887638 0.056841467001560175
0.032788191876609654 0.0028012755150421823 0.05837680316901998
0.03777627624562857 0.0008692967001967283 0.0599121393364798
-0.007116483075541734 0.018257106033805832 0.04609411382934149
-0.0016396364188183588 0.017991174699490044 0.047045016655470305
0.003837210237905016 0.017725243365174257 0.04799591948159912
0.009314056894628385 0.017459312030858473 0.048946822307727934
0.014790903551351766 0.017193380696542682 0.04989772513385675
0.02026775020807514 0.0169274493622269 0.05084862795998556
0.025744596864798505 0.016661518027911115 0.05179953078611437
0.031221443521521883 0.016395586693595324 0.052750433612243186
0.03669829017824527 0.016129655359279533 0.053701336438372
0.04217513683496864 0.015863724024963752 0.05465223926450081
-0.007116483075541734 0.018257106033805832 0.04609411382934149
-0.001744375448401767 0.019686039966442633 0.04635753823815067
0.0036277321787382 0.021114973899079435 0.04662096264695984
0.008999839805878167 0.02254390783171624 0.046884387055769014
0.014371947433018133 0.023972841764353037 0.047147811464578186
0.019744055060158104 0.025401775696989842 0.04741123587338736
0.02511616268729807 0.026830709629626644 0.04767466028219653
0.030488270314438043 0.02825964356226345 0.0479380846910057
0.035860377941578 0.029688577494900243 0.04820150909981488
0.041232485568717975 0.031117511427537048 0.048464933508624054
-0.007116483075541734 0.018257106033805832 0.04609411382934149
-0.002431265696224178 0.02122605806959958 0.04564151369868571
0.002253951683093378 0.02419501010539333 0.04518891356802992
0.0069391690624109326 0.027163962141187076 0.04473631343737413
0.01162438644172849 0.030132914176980826 0.04428371330671834
0.01630960382104605 0.033101866212774576 0.04383111317606255
0.0209948212003636 0.03607081824856832 0.04337851304540676
0.025680038579681153 0.03903977028436206 0.04292591291475097
0.030365255958998714 0.042008722320155824 0.042473312784095184
0.03505047333831626 0.044977674355949564 0.042020712653439395
-0.007116483075541734 0.018257106033805832 0.04609411382934149
-0.0036258719457336872 0.022444344151640885 0.04497453540619191
-0.00013526081592564077 0.026631582269475935 0.04385495698304233
0.003355350313882403 0.030818820387310986 0.04273537855989275
0.006845961443690452 0.03500605850514604 0.04161580013674317
0.0103365725734985 0.03919329662298109 0.04049622171359358
0.01382718370330654 0.04338053474081614 0.039376643290444
0.017317794833114592 0.0475677728586512 0.03825706486729442
0.02080840596292264 0.05175501097648625 0.037137486444144836
0.02429901709273069 0.0559422490943213 0.03601790802099525
-0.007116483075541734 0.018257106033805832 0.04609411382934149
-0.005198740073570123 0.023208878011921095 0.04442888080789551
-0.0032809970715985135 0.028160649990036358 0.04276364778644953
-0.0013632540696269023 0.033112421968151624 0.04109841476500355
0.0005544889323447068 0.03806419394626689 0.039433181743557574
0.002472231934316321 0.04301596592438215 0.037767948722111595
0.004389974936287929 0.047967737902497413 0.036102715700665616
0.006307717938259539 0.052919509880612677 0.03443748267921964
0.008225460940231147 0.05787128185872794 0.03277224965777366
0.010143203942202762 0.06282305383684321 0.03110701663632768
-0.007116483075541734 0.018257106033805832 0.04609411382934149
-0.006979425412518813 0.02343681054371373 0.04406368004622537
-0.0068423677494958935 0.028616515053621627 0.04203324626310926
-0.006705310086472972 0.033796219563529524 0.04000281247999314
-0.006568252423450053 0.03897592407343742 0.03797237869687702
-0.006431194760427132 0.04415562858334532 0.035941944913760904
-0.00629413709740421 0.04933533309325321 0.033911511130644785
-0.006157079434381292 0.05451503760316111 0.031881077347528666
-0.006020021771358372 0.05969474211306901 0.029850643564412548
-0.005882964108335454 0.06487444662297691 0.027820209781296432
-0.007116483075541734 0.018257106033805832 0.04609411382934149
-0.008774963075924798 0.02310344172046142 0.04391850829038213
-0.010433443076307863 0.027949777407117002 0.04174290275142277
-0.012091923076690927 0.03279611309377259 0.0395672972124634
-0.013750403077073991 0.037642448780428175 0.03739169167350404
-0.015408883077457055 0.042488784467083755 0.035216086134544675
-0.01706736307784012 0.04733512015373934 0.033040480595585314
-0.01872584307822319 0.052181455840394936 0.030864875056625947
-0.02038432307860625 0.057027791527050516 0.028689269517666587
-0.02204280307898931 0.061874127213706095 0.026513663978707223
-0.007116483075541734 0.018257106033805832 0.04609411382934149
-0.010390778697320609 0.02224489722691381 0.04400909715268327
-0.013665074319099484 0.026232688420021785 0.041924080476025055
-0.016939369940878354 0.030220479613129764 0.039839063799366844
-0.020213665562657232 0.03420827080623774 0.03775404712270862
-0.023487961184436107 0.03819606199934572 0.0356690304460504
-0.026762256806214975 0.04218385319245369 0.03358401376939219
-0.03003655242799386 0.04617164438556168 0.03149899709273397
-0.03331084804977273 0.05015943557866965 0.029413980416075753
-0.03658514367155161 0.054147226771777635 0.027328963739417535
-0.007116483075541734 0.018257106033805832 0.04609411382934149
-0.01165177358216539 0.02095421368063719 0.04432562992426746
-0.016187064088789043 0.02365132132746854 0.04255714601919342
-0.0207223545954127 0.026348428974299898 0.04078866211411939
-0.025257645102036354 0.029045536621131254 0.03902017820904535
-0.02979293560866001 0.03174264426796261 0.037251694303971315
-0.03432822611528367 0.03443975191479396 0.035483210398897284
-0.038863516621907325 0.03713685956162532 0.03371472649382325
-0.043398807128530975 0.03983396720845667 0.03194624258874921
-0.04793409763515463 0.04253107485528803 0.030177758683675174
-0.007116483075541734 0.018257106033805832 0.04609411382934149
-0.012421299368334578 0.019371256670889295 0.04483380536782153
-0.01772611566112742 0.020485407307972762 0.043573496906301565
-0.023030931953920267 0.02159955794505623 0.0423131884447816
-0.02833574824671311 0.022713708582139697 0.04105287998326163
-0.03364056453950596 0.02382785921922316 0.03979257152174167
-0.0389453808322988 0.024942009856306627 0.03853226306022171
-0.04425019712509165 0.026056160493390098 0.03727195459870174
-0.049555013417884486 0.027170311130473558 0.036011646137181774
-0.054859829710677335 0.02828446176755703 0.03475133767566181
-0.007116483075541734 0.018257106033805832 0.04609411382934149
-0.012615965996473908 0.017667564151785057 0.04547855478888196
-0.01811544891740608 0.017078022269764282 0.04486299574842243
-0.023614931838338255 0.016488480387743504 0.0442474367079629
-0.02911441475927043 0.015898938505722732 0.043631877667503365
-0.03461389768020261 0.015309396623701958 0.04301631862704383
-0.04011338060113478 0.01471985474168118 0.0424007595865843
-0.045612863522066956 0.014130312859660408 0.041785200546124765
-0.051112346442999126 0.013540770977639633 0.04116964150566523
-0.056611829363931304 0.012951229095618862 0.0405540824652057
-0.007116483075541734 0.018257106033805832 0.04609411382934149
-0.012214678316860527 0.016027757643282584 0.04619000958335881
-0.01731287355817932 0.013798409252759334 0.04628590533737612
-0.022411068799498113 0.011569060862236082 0.04638180109139344
-0.027509264040816907 0.009339712471712835 0.04647769684541076
-0.0326074592821357 0.007110364081189581 0.046573592599428074
-0.03770565452345449 0.004881015690666333 0.04666948835344539
-0.04280384976477329 0.0026516673001430848 0.046765384107462706
-0.04790204500609208 0.0004223189096198384 0.046861279861480025
-0.053000240247410874 -0.0018070294809034132 0.04695717561549734
-0.007116483075541734 0.018257106033805832 0.04609411382934149
-0.011260922076200445 0.014629535624797707 0.046891072584911944
-0.015405361076859156 0.011001965215789585 0.047688031340482405
-0.019549800077517863 0.007374394806781463 0.04848499009605286
-0.023694239078176575 0.003746824397773337 0.04928194885162331
-0.027838678078835288 0.00011925398876521451 0.050078907607193766
-0.03198311707949399 -0.0035083164202429047 0.05087586636276422
-0.03612755608015271 -0.007135886829251038 0.051672825118334674
-0.04027199508081142 -0.010763457238259156 0.05246978387390513
-0.044416434081470134 -0.014391027647267279 0.05326674262947558
-0.007116483075541734 0.018257106033805832 0.04609411382934149
-0.009858051562222055 0.013624417147683268 0.04750577273920981
-0.012599620048902374 0.008991728261560705 0.04891743164907813
-0.015341188535582695 0.00435903937543814 0.05032909055894645
-0.018082757022263016 -0.0002736495106844234 0.05174074946881477
-0.020824325508943333 -0.004906338396806987 0.05315240837868308
-0.023565893995623654 -0.00953902728292955 0.054564067288551406
-0.02630746248230397 -0.01417171616905211 0.05597572619841972
-0.029049030968984296 -0.018804405055174677 0.05738738510828804
-0.03179059945566461 -0.023437093941297237 0.05879904401815636
-0.007116483075541734 0.018257106033805832 0.04609411382934149
-0.00815808956289375 0.013121322394954699 0.04796749774647859
-0.009199696050245766 0.007985538756103566 0.049840881663615694
-0.010241302537597781 0.00284975511725243 0.051714265580752795
-0.011282909024949798 -0.0022860285215987016 0.0535876494978899
-0.012324515512301813 -0.007421812160449838 0.055461033415027
-0.013366121999653828 -0.01255759579930097 0.0573344173321641
-0.014407728487005847 -0.017693379438152104 0.0592078012493012
-0.015449334974357862 -0.022829163077003233 0.061081185166438304
-0.016490941461709877 -0.027964946715854377 0.0629545690835754
-0.007116483075541734 0.018257106033805832 0.04609411382934149
-0.006345253338470956 0.013174769489389539 0.04822621253777906
-0.005574023601400178 0.008092432944973247 0.05035831124621663
-0.0048027938643294 0.0030100964005569586 0.0524904099546542
-0.004031564127258622 -0.002072240143859338 0.05462250866309177
-0.0032603343901878436 -0.007154576688275631 0.056754607371529334
-0.002489104653117066 -0.012236913232691913 0.0588867060799669
-0.0017178749160462864 -0.01731924977710821 0.06101880478840447
-0.0009466451789755088 -0.022401586321524506 0.06315090349684203
-0.0001754154419047311 -0.027483922865940796 0.0652830022052796
-0.007116483075541734 0.018257106033805832 0.04609411382934149
-0.004615991822922139 0.01377896660898866 0.0482538813511002
-0.0021155005703025437 0.009300827184171488 0.050413648872858915
0.0003849906823170487 0.004822687759354319 0.05257341639461763
0.0028854819349366464 0.00034454833453714383 0.05473318391637634
0.005385973187556242 -0.004133591090280026 0.05689295143813505
0.00788646444017583 -0.008611730515097192 0.059052718959893766
0.010386955692795434 -0.013089869939914369 0.06121248648165248
0.012887446945415026 -0.017568009364731543 0.06337225400341119
0.015387938198034622 -0.02204614878954871 0.0655320215251699
-0.007116483075541734 0.018257106033805832 0.04609411382934149
-0.0031576973337140526 0.014868439620759236 0.04804750584119281
0.0008010884081136285 0.011479773207712643 0.05000089785304412
0.00475987414994131 0.008091106794666045 0.051954289864895434
0.00871865989176899 0.004702440381619453 0.053907681876746744
0.012677445633596672 0.0013137739685728574 0.05586107388859805
0.016636231375424356 -0.0020748924444737417 0.05781446590044937
0.020595017117252038 -0.005463558857520337 0.05976785791230068
0.024553802859079717 -0.008852225270566925 0.06172124992415199
0.0285125886009074 -0.01224089168361352 0.0636746419360033
