# .PCD v0.7 - Point Cloud Data file format
VERSION 0.7
FIELDS x y z
SIZE 4 4 4
TYPE F F F
COUNT 1 1 1
WIDTH 700
HEIGHT 1
VIEWPOINT 0 0 0 1 0 0 0
POINTS 700
DATA ascii
0.020151349960086176 -0.03295092728081355 -0.0593794646228004
0.017938499211305317 -0.023581343771255286 -0.06434199099155706
0.013780870162554137 -0.014273333371799394 -0.0680008889999979
0.007872868927279418 -0.005462128303613878 -0.07018507264382129
0.0004907470769708809 0.0024402692772639415 -0.0707924119233878
-0.00802031557529024 0.009064352042836349 -0.06979450832899405
-0.017262351199250903 0.01410038524512437 -0.06723802272362367
-0.02680321248091955 0.017312889568737895 -0.06324249353285413
-0.036196779350671074 0.018551651881946907 -0.05799474726093408
-0.0450038190618756 0.01775874903577114 -0.0517401626910874
-0.05281252422595879 0.014971256286049587 -0.04477119724632868
-0.0592577684682006 0.010319513695683518 -0.03741371200540603
-0.06403817933120824 0.004021031578157921 -0.030011734800927486
-0.06693023011607256 -0.0036296800429718077 -0.022911373860267675
-0.06779869174237689 -0.01227488239545685 -0.016444634169527475
-0.066602955909701 -0.021510335425747346 -0.010913893289380923
-0.06339893389661591 -0.030904199614615695 -0.0065777625164067
-0.058336442211438744 -0.040017228313120594 -0.003638994506285861
-0.05165219733881304 -0.04842330642772387 -0.002235002784965607
-0.04365874713997815 -0.05572937508847147 -0.0024314364449101534
-0.034729856462149794 -0.06159381064489895 -0.004219110466500816
-0.025283030309674 -0.06574239860823974 -0.007514435199345
-0.015759991774047383 -0.06798115561615238 -0.01216332492142529
-0.006606027553098699 -0.06820539987914656 -0.01794840271620703
0.0017508331601009885 -0.06640464598471428 -0.0245991647756584
0.008919832846586054 -0.06266309518356498 -0.03180462885767057
0.014565757048787313 -0.057155698232725385 -0.03922787547006678
0.018424608626003897 -0.050139974892584684 -0.04652180185159741
0.020315951967290663 -0.04194397258911136 -0.05334535211127906
0.020151349960086176 -0.03295092728081356 -0.059379464622800394
0.025407600804226993 -0.027418001663532657 -0.05127675503112826
0.023194750055446134 -0.018048418153974396 -0.05623928139988491
0.019037121006694954 -0.0087404077545185 -0.05989817940832575
0.013129119771420235 7.079731366701475e-05 -0.06208236305214914
0.0057469979211116975 0.007973194894544835 -0.06268970233171565
-0.002764064731149423 0.014597277660117243 -0.0616917987373219
-0.012006100355110088 0.019633310862405263 -0.05913531313195153
-0.021546961636778734 0.022845815186018786 -0.05513978394118199
-0.030940528506530257 0.024084577499227797 -0.04989203766926194
-0.039747568217734786 0.02329167465305203 -0.04363745309941525
-0.04755627338181798 0.02050418190333048 -0.03666848765465653
-0.05400151762405978 0.01585243931296441 -0.029311002413733887
-0.058781928487067425 0.009553957195438815 -0.02190902520925534
-0.061673979271931745 0.0019032455743090856 -0.01480866426859553
-0.06254244089823609 -0.006741956778175956 -0.00834192457785533
-0.06134670506556019 -0.015977409808466455 -0.002811183697708779
-0.058142683052475094 -0.0253712739973348 0.0015249470752654445
-0.05308019136729793 -0.0344843026958397 0.004463715085386284
-0.04639594649467222 -0.042890380810442975 0.005867706806706538
-0.038402496295837335 -0.05019644947119058 0.0056712731467619916
-0.029473605618008977 -0.05606088502761806 0.0038835991251713288
-0.020026779465533186 -0.06020947299095885 0.0005882743923271453
-0.010503740929906568 -0.06244822999887148 -0.004060615329753146
-0.0013497767089578829 -0.06267247426186566 -0.009845693124534885
0.007007084004241805 -0.06087172036743338 -0.016496455183986253
0.01417608369072687 -0.05713016956628409 -0.023701919265998423
0.01982200789292813 -0.05162277261544449 -0.031125165878394635
0.023680859470144713 -0.04460704927530379 -0.038419092259925264
0.02557220281143148 -0.036411046971830466 -0.04524264251960691
0.025407600804226993 -0.027418001663532667 -0.05127675503112825
0.030663851648367806 -0.021885076046251763 -0.04317404543945611
0.028451000899586947 -0.012515492536693503 -0.04813657180821277
0.024293371850835768 -0.003207482137237609 -0.0517954698166536
0.018385370615561048 0.005603722930947907 -0.05397965346047699
0.011003248765252513 0.013506120511825726 -0.054586992740043506
0.002492186112991392 0.020130203277398135 -0.05358908914564975
-0.0067498495109692734 0.025166236479686157 -0.05103260354027938
-0.01629071079263792 0.02837874080329968 -0.04703707434950985
-0.025684277662389444 0.02961750311650869 -0.04178932807758979
-0.03449131737359397 0.028824600270332925 -0.03553474350774311
-0.042300022537677166 0.026037107520611374 -0.02856577806298439
-0.048745266779918965 0.021385364930245305 -0.021208292822061745
-0.05352567764292661 0.015086882812719705 -0.0138063156175832
-0.05641772842779093 0.0074361711915899775 -0.006705954676923389
-0.057286190054095264 -0.0012090311608950652 -0.00023921498618318865
-0.056090454221419374 -0.010444484191185563 0.0052915258939633635
-0.05288643220833428 -0.01983834838005391 0.009627656666937587
-0.04782394052315711 -0.028951377078558806 0.012566424677058426
-0.041139695650531403 -0.03735745519316208 0.01397041639837868
-0.03314624545169652 -0.04466352385390969 0.013773982738434134
-0.024217354773868164 -0.05052795941033717 0.011986308716843471
-0.01477052862139237 -0.05467654737367796 0.008690983983999288
-0.0052474900857657535 -0.05691530438159059 0.0040420942619189965
0.003906474135182932 -0.05713954864458477 -0.0017429835328627435
0.01226333484838262 -0.05533879475015249 -0.00839374559231411
0.019432334534867684 -0.0515972439490032 -0.015599209674326282
0.025078258737068943 -0.046089846998163604 -0.023022456286722493
0.028937110314285527 -0.0390741236580229 -0.030316382668253122
0.030828453655572293 -0.030878121354549575 -0.03713993292793477
0.030663851648367806 -0.021885076046251773 -0.043174045439456105
0.03592010249250862 -0.016352150428970876 -0.03507133584778398
0.03370725174372776 -0.006982566919412613 -0.04003386221654063
0.02954962269497658 0.0023254434800432807 -0.04369276022498147
0.02364162145970186 0.011136648548228796 -0.04587694386880486
0.016259499609393324 0.019039046129106615 -0.04648428314837137
0.007748436957132205 0.025663128894679022 -0.045486379553977614
-0.0014935986668284603 0.030699162096967044 -0.042929893948607245
-0.011034459948497107 0.03391166642058057 -0.03893436475783771
-0.02042802681824863 0.03515042873378958 -0.033686618485917655
-0.02923506652945316 0.034357525887613816 -0.027432033916070974
-0.03704377169353635 0.031570033137892264 -0.02046306847131225
-0.043489015935778155 0.026918290547526192 -0.013105583230389605
-0.0482694267987858 0.020619808430000594 -0.00570360602591106
-0.05116147758365012 0.012969096808870867 0.001396754914748751
-0.052029939209954454 0.004323894456385825 0.007863494605488951
-0.050834203377278564 -0.004911558573904672 0.013394235485635503
-0.04763018136419347 -0.014305422762773022 0.017730366258609728
-0.0425676896790163 -0.02341845146127792 0.020669134268730568
-0.035883444806390594 -0.031824529575881194 0.02207312599005082
-0.02788999460755571 -0.039130598236628795 0.021876692330106275
-0.01896110392972735 -0.04499503379305628 0.020089018308515613
-0.009514277777251558 -0.04914362175639707 0.01679369357567143
8.760758375059673e-06 -0.0513823787643097 0.012144803853591136
0.009162724979323744 -0.05160662302730388 0.006359726058809396
0.01751958569252343 -0.0498058691328716 -0.00029103600064197047
0.024688585379008497 -0.04606431833172231 -0.007496500082654142
0.030334509581209756 -0.04055692138088271 -0.014919746695050353
0.03419336115842634 -0.03354119804074201 -0.022213673076580984
0.036084704499713106 -0.025345195737268688 -0.02903722333626263
0.03592010249250862 -0.016352150428970886 -0.03507133584778397
0.041176353336649436 -0.01081922481168998 -0.02696862625611183
0.03896350258786858 -0.0014496413021317196 -0.03193115262486849
0.0348058735391174 0.007858369097324175 -0.03559005063330932
0.028897872303842678 0.01666957416550969 -0.03777423427713271
0.02151575045353414 0.02457197174638751 -0.038381573556699224
0.013004687801273021 0.031196054511959916 -0.037383669962305466
0.0037626521773123566 0.03623208771424794 -0.0348271843569351
-0.00577820910435629 0.039444592037861465 -0.030831655166165563
-0.015171775974107814 0.040683354351070476 -0.025583908894245506
-0.023978815685312342 0.03989045150489471 -0.01932932432439883
-0.03178752084939553 0.03710295875517316 -0.012360358879640106
-0.03823276509163734 0.03245121616480709 -0.00500287363871746
-0.04301317595464498 0.026152734047281488 0.002399103565761086
-0.0459052267395093 0.01850202242615176 0.009499464506420896
-0.04677368836581364 0.009856820073666719 0.015966204197161098
-0.04557795253313775 0.0006213670433762213 0.02149694507730765
-0.04237393052005265 -0.008772497145492128 0.025833075850281873
-0.037311438834875484 -0.017885525843997024 0.028771843860402713
-0.030627193962249777 -0.0262916039586003 0.030175835581722966
-0.02263374376341489 -0.0335976726193479 0.02997940192177842
-0.013704853085586534 -0.03946210817577538 0.028191727900187757
-0.00425802693311074 -0.043610696139116174 0.024896403167343574
0.005265011602515877 -0.045849453147028804 0.020247513445263283
0.014418975823464561 -0.046073697410022985 0.014462435650481541
0.02277583653666425 -0.044272943515590704 0.007811673591030175
0.029944836223149314 -0.040531392714441415 0.0006062095090180037
0.03559076042535057 -0.035023995763601816 -0.006817037103378208
0.03944961200256716 -0.028008272423461118 -0.01411096348490884
0.04134095534385392 -0.019812270119987794 -0.020934513744590485
0.041176353336649436 -0.01081922481168999 -0.026968626256111822
0.04643260418079025 -0.005286299194409088 -0.018865916664439687
0.044219753432009394 0.004083284315149173 -0.023828443033196343
0.040062124383258214 0.013391294714605066 -0.02748734104163718
0.034154123147983495 0.022202499782790583 -0.029671524685460568
0.026772001297674958 0.030104897363668403 -0.030278863965027082
0.018260938645413838 0.03672898012924081 -0.029280960370633324
0.009018903021453173 0.04176501333152883 -0.026724474765262955
-0.0005219582602154751 0.04497751765514235 -0.022728945574493422
-0.009915525129966997 0.04621627996835136 -0.017481199302573365
-0.018722564841171525 0.0454233771221756 -0.011226614732726684
-0.02653127000525472 0.042635884372454046 -0.004257649287967962
-0.03297651424749652 0.03798414178208798 0.0030998359529546835
-0.037756925110504165 0.03168565966456238 0.01050181315743323
-0.040648975895368485 0.024034948043432654 0.01760217409809304
-0.04151743752167282 0.01538974569094761 0.02406891378883324
-0.04032170168899693 0.006154292660657114 0.02959965466897979
-0.037117679675911834 -0.0032395715282112353 0.03393578544195402
-0.03205518799073467 -0.012352600226716132 0.036874553452074854
-0.02537094311810896 -0.020758678341319406 0.03827854517339511
-0.017377492919274075 -0.02806474700206701 0.03808211151345056
-0.008448602241445717 -0.033929182558494496 0.0362944374918599
0.0009982239110300749 -0.03807777052183529 0.032999112759015715
0.010521262446656693 -0.04031652752974792 0.028350223036935424
0.019675226667605378 -0.0405407717927421 0.022565145242153684
0.028032087380805065 -0.03874001789830982 0.01591438318270232
0.03520108706729013 -0.03499846709716053 0.008708919100690148
0.04084701126949139 -0.029491070146320925 0.0012856724882939357
0.044705862846707974 -0.022475346806180223 -0.006008253893236695
0.04659720618799474 -0.014279344502706902 -0.012831804152918342
0.04643260418079025 -0.005286299194409099 -0.01886591666443968
0.05168885502493106 0.00024662642287180203 -0.010763207072767546
0.049476004276150204 0.009616209932430063 -0.0157257334415242
0.045318375227399024 0.018924220331885958 -0.019384631449965037
0.039410373992124305 0.027735425400071474 -0.021568815093788427
0.03202825214181577 0.035637822980949294 -0.02217615437335494
0.02351718948955465 0.0422619057465217 -0.021178250778961183
0.014275153865593986 0.04729793894880972 -0.018621765173590814
0.004734292583925338 0.050510443272423246 -0.01462623598282128
-0.0046592742858261845 0.05174920558563226 -0.009378489710901224
-0.013466313997030712 0.05095630273945649 -0.0031239051410545445
-0.021275019161113906 0.04816880998973494 0.003845060303704179
-0.02772026340335571 0.04351706739936887 0.011202545544626824
-0.032500674266363355 0.03721858528184327 0.01860452274910537
-0.035392725051227675 0.029567873660713544 0.02570488368976518
-0.03626118667753201 0.020922671308228502 0.03217162338050538
-0.03506545084485612 0.011687218277938003 0.03770236426065193
-0.031861428831771024 0.002293354089069655 0.04203849503362616
-0.026798937146593853 -0.006819674609435241 0.044977263043746996
-0.020114692273968147 -0.015225752724038517 0.04638125476506725
-0.012121242075133262 -0.02253182138478612 0.0461848211051227
-0.003192351397304904 -0.028396256941213602 0.04439714708353204
0.006254474755170888 -0.03254484490455439 0.04110182235068786
0.015777513290797504 -0.03478360191246702 0.03645293262860757
0.02493147751174619 -0.0350078461754612 0.030667854833825826
0.033288338224945875 -0.03320709228102892 0.02401709277437446
0.04045733791143094 -0.029465541479879634 0.016811628692362288
0.0461032621136322 -0.023958144529040035 0.009388382079966076
0.04996211369084878 -0.016942421188899333 0.002094455698435445
0.05185345703213555 -0.008746418885426011 -0.004729094561246202
0.05168885502493106 0.0002466264228717916 -0.010763207072767539
0.05694510586907188 0.005779552040152693 -0.0026604974810954035
0.05473225512029102 0.015149135549710955 -0.007623023849852059
0.05057462607153984 0.02445714594916685 -0.011281921858292894
0.04466662483626512 0.033268351017352364 -0.013466105502116283
0.037284502985956584 0.04117074859823018 -0.014073444781682798
0.028773440333695464 0.04779483136380259 -0.01307554118728904
0.0195314047097348 0.05283086456609061 -0.01051905558191867
0.009990543428066153 0.05604336888970413 -0.006523526391149138
0.0005969765583146306 0.057282131202913145 -0.0012757801192290813
-0.008210063152889899 0.05648922835673738 0.004978804450617598
-0.016018768316973093 0.05370173560701583 0.011947769895376322
-0.022464012559214895 0.04904999301664976 0.019305255136298966
-0.02724442342222254 0.042751510899124164 0.02670723234077751
-0.030136474207086858 0.035100799277994435 0.03380759328143732
-0.031004935833391194 0.026455596925509393 0.04027433297217752
-0.029809200000715304 0.017220143895218896 0.045805073852324074
-0.026605177987630207 0.007826279706350546 0.0501412046252983
-0.02154268630245304 -0.0012867489921543494 0.05307997263541914
-0.014858441429827333 -0.009692827106757625 0.05448396435673939
-0.006864991230992447 -0.01699889576750523 0.054287530696794845
0.0020638994468359104 -0.02286333132393271 0.05249985667520418
0.011510725599311702 -0.027011919287273502 0.04920453194236
0.02103376413493832 -0.029250676295186132 0.04455564222027971
0.030187728355887004 -0.029474920558180313 0.03877056442549797
0.03854458906908669 -0.027674166663748032 0.0321198023660466
0.04571358875557176 -0.023932615862598743 0.02491433828403443
0.05135951295777302 -0.018425218911759144 0.017491091671638218
0.0552183645349896 -0.011409495571618442 0.010197165290107588
0.05710970787627637 -0.003213493268145119 0.0033736150304259404
0.05694510586907188 0.005779552040152683 -0.0026604974810953965
0.0622013567132127 0.011312477657433586 0.005442212110576741
0.05998850596443184 0.02068206116699185 0.00047968574182008587
0.05583087691568066 0.029990071566447743 -0.0031792122666207496
0.04992287568040594 0.03880127663463326 -0.005363395910444139
0.0425407538300974 0.046703674215511075 -0.0059707351900106535
0.03402969117783628 0.05332775698108348 -0.004972831595616896
0.024787655553875618 0.058363790183371504 -0.0024163459902465266
0.01524679427220697 0.06157629450698503 0.0015791832005230067
0.0058532274024554465 0.06281505682019405 0.006826929472443064
-0.0029538123087490815 0.06202215397401827 0.013081514042289742
-0.010762517472832276 0.05923466122429672 0.020050479487048467
-0.01720776171507408 0.05458291863393065 0.02740796472797111
-0.02198817257808172 0.04828443651640506 0.034809941932449656
-0.02488022336294604 0.04063372489527533 0.04191030287310947
-0.025748684989250377 0.03198852254279028 0.04837704256384967
-0.024552949156574487 0.02275306951249979 0.05390778344399622
-0.02134892714348939 0.01335920532363144 0.05824391421697044
-0.016286435458312223 0.004246176625126543 0.061182682227091285
-0.009602190585686517 -0.004159901489476732 0.06258667394841154
-0.001608740386851631 -0.011465970150224337 0.06239024028846699
0.007320150290976726 -0.017330405706651817 0.06060256626687633
0.01676697644345252 -0.02147899366999261 0.05730724153403215
0.026290014979079138 -0.023717750677905238 0.05265835181195185
0.03544397920002782 -0.02394199494089942 0.04687327401717011
0.04380083991322751 -0.022141241046467138 0.04022251195771875
0.050969839599712574 -0.01839969024531785 0.03301704787570658
0.05661576380191383 -0.012892293294478252 0.025593801263310362
0.06047461537913042 -0.00587656995433755 0.018299874881779733
0.06236595872041718 0.0023194323491357743 0.011476324622098084
0.0622013567132127 0.011312477657433576 0.005442212110576748
0.06745760755735351 0.01684540327471448 0.013544921702248885
0.06524475680857265 0.02621498678427274 0.00858239533349223
0.061087127759821475 0.03552299718372864 0.004923497325051395
0.055179126524546755 0.04433420225191415 0.0027393136812280056
0.04779700467423822 0.05223659983279197 0.0021319744016614914
0.0392859420219771 0.058860682598364376 0.0031298779960552492
0.03004390639801643 0.0638967158006524 0.005686363601425618
0.020503045116347787 0.06710922012426593 0.00968189279219515
0.011109478246596263 0.06834798243747493 0.014929639064115208
0.002302438535391735 0.06755507959129917 0.02118422363396189
-0.005506266628691459 0.06476758684157762 0.028153189078720612
-0.011951510870933262 0.060115844251211546 0.035510674319643255
-0.016731921733940905 0.05381736213368595 0.042912651524121805
-0.019623972518805224 0.04616665051255622 0.05001301246478161
-0.02049243414510956 0.03752144816007118 0.05647975215552181
-0.01929669831243367 0.02828599512978068 0.062010493035668364
-0.016092676299348574 0.018892130940912334 0.06634662380864259
-0.011030184614171407 0.009779102242407437 0.06928539181876343
-0.0043459397415457 0.0013730241278041614 0.07068938354008368
0.0036475104572891853 -0.005933044532943444 0.07049294988013914
0.012576401135117543 -0.011797480089370925 0.06870527585854848
0.022023227287593334 -0.015946068052711718 0.06540995112570429
0.031546265823219954 -0.018184825060624348 0.060761061403624
0.04070023004416864 -0.018409069323618528 0.05497598360884226
0.049057090757368325 -0.016608315429186248 0.04832522154939089
0.05622609044385339 -0.012866764628036957 0.04111975746737872
0.06187201464605465 -0.007359367677197358 0.03369651085498251
0.06573086622327123 -0.00034364433705665623 0.026402584473451878
0.067622209564558 0.007852357966416668 0.01957903421377023
0.06745760755735351 0.01684540327471447 0.013544921702248892
-0.02365312879863367 -0.024898165277764013 -0.03646219316252464
-0.01878596449210924 -0.025792916611436185 -0.039008556658110836
-0.013918800185584815 -0.026687667945108354 -0.041554920153697036
-0.009051635879060388 -0.027582419278780527 -0.04410128364928323
-0.004184471572535962 -0.028477170612452696 -0.04664764714486942
0.000682692733988466 -0.029371921946124865 -0.04919401064045562
0.0055498570405128934 -0.030266673279797037 -0.051740374136041815
0.010417021347037321 -0.031161424613469206 -0.05428673763162801
0.015284185653561745 -0.03205617594714138 -0.05683310112721421
0.020151349960086176 -0.03295092728081355 -0.0593794646228004
-0.02365312879863367 -0.024898165277764013 -0.03646219316252464
-0.019249180568471056 -0.02420356941306542 -0.03979335091295597
-0.014845232338308444 -0.023508973548366827 -0.043124508663387295
-0.010441284108145835 -0.02281437768366823 -0.046455666413818625
-0.006037335877983219 -0.022119781818969637 -0.04978682416424995
-0.0016333876478206095 -0.021425185954271043 -0.05311798191468128
0.0027705605823419993 -0.020730590089572447 -0.0564491396651126
0.007174508812504612 -0.020035994224873854 -0.05978029741554393
0.011578457042667231 -0.01934139836017526 -0.06311145516597526
0.015982405272829833 -0.018646802495476667 -0.06644261291640657
-0.02365312879863367 -0.024898165277764013 -0.03646219316252464
-0.020189632769868508 -0.02268949245440006 -0.040217162537303744
-0.016726136741103348 -0.020480819631036106 -0.043972131912082844
-0.01326264071233819 -0.01827214680767215 -0.047727101286861945
-0.009799144683573027 -0.016063473984308196 -0.051482070661641045
-0.006335648654807867 -0.013854801160944247 -0.055237040036420146
-0.00287215262604271 -0.01164612833758029 -0.058992009411199246
0.0005913434027224504 -0.009437455514216339 -0.06274697878597835
0.004054839431487614 -0.007228782690852379 -0.06650194816075745
0.007518335460252771 -0.0050201098674884275 -0.07025691753553656
-0.02365312879863367 -0.024898165277764013 -0.03646219316252464
-0.021505408507660747 -0.021414759467236113 -0.04023406496554117
-0.01935768821668783 -0.017931353656708213 -0.0440059367685577
-0.017209967925714907 -0.01444794784618031 -0.04777780857157422
-0.015062247634741987 -0.010964542035652409 -0.05154968037459075
-0.012914527343769069 -0.007481136225124506 -0.05532155217760727
-0.01076680705279615 -0.003997730414596606 -0.059093423980623803
-0.008619086761823231 -0.0005143246040687026 -0.06286529578364032
-0.006471366470850306 0.0029690812064591975 -0.06663716758665686
-0.004323646179877391 0.006452487016987098 -0.07040903938967338
-0.02365312879863367 -0.024898165277764013 -0.03646219316252464
-0.023053923064293845 -0.020517507550253042 -0.03984222655730053
-0.022454717329954025 -0.016136849822742067 -0.0432222599520764
-0.0218555115956142 -0.011756192095231098 -0.04660229334685228
-0.021256305861274378 -0.007375534367720122 -0.04998232674162816
-0.020657100126934558 -0.0029948766402091444 -0.053362360136404045
-0.020057894392594734 0.0013857810873018198 -0.05674239353117992
-0.01945868865825491 0.0057664388148127915 -0.0601224269259558
-0.01885948292391509 0.010147096542323769 -0.06350246032073169
-0.018260277189575267 0.014527754269834747 -0.06688249371550756
-0.02365312879863367 -0.024898165277764013 -0.03646219316252464
-0.0246673708598776 -0.02009496787095392 -0.03908410908411403
-0.025681612921121533 -0.015291770464143822 -0.04170602500570341
-0.02669585498236546 -0.010488573057333727 -0.044327940927292794
-0.027710097043609393 -0.005685375650523628 -0.04694985684888218
-0.028724339104853325 -0.0008821782437135306 -0.04957177277047156
-0.029738581166097258 0.003921019163096561 -0.052193688692060945
-0.03075282322734119 0.008724216569906669 -0.05481560461365033
-0.03176706528858512 0.013527413976716756 -0.05743752053523971
-0.03278130734982905 0.01833061138352686 -0.060059436456829096
-0.02365312879863367 -0.024898165277764013 -0.03646219316252464
-0.02617090979053849 -0.020192929159969453 -0.03804186633760606
-0.028688690782443318 -0.015487693042174892 -0.03962153951268748
-0.03120647177434814 -0.010782456924380334 -0.0412012126877689
-0.03372425276625297 -0.006077220806585769 -0.04278088586285032
-0.03624203375815779 -0.0013719846887912056 -0.044360559037931735
-0.03875981475006261 0.003333251429003348 -0.045940232213013146
-0.04127759574196744 0.008038487546797915 -0.047519905388094565
-0.043795376733872265 0.012743723664592475 -0.04909957856317598
-0.046313157725777085 0.017448959782387037 -0.0506792517382574
-0.02365312879863367 -0.024898165277764013 -0.03646219316252464
-0.027401608083329157 -0.0208007757916088 -0.03682844149142324
-0.031150087368024642 -0.016703386305453587 -0.03719468982032184
-0.03489856665272013 -0.012605996819298377 -0.03756093814922044
-0.038647045937415615 -0.008508607333143162 -0.03792718647811903
-0.042395525222111104 -0.004411217846987951 -0.03829343480701763
-0.04614400450680659 -0.00031382836083273857 -0.03865968313591623
-0.04989248379150208 0.003783561125322471 -0.03902593146481482
-0.05364096307619757 0.00788095061147769 -0.03939217979371342
-0.05738944236089306 0.011978340097632897 -0.039758428122612016
-0.02365312879863367 -0.024898165277764013 -0.03646219316252464
-0.028226100481974152 -0.021852638151621567 -0.0355753279558759
-0.032799072165314636 -0.018807111025479124 -0.034688462749227156
-0.03737204384865512 -0.015761583899336677 -0.033801597542578415
-0.0419450155319956 -0.01271605677319423 -0.03291473233592967
-0.046517987215336086 -0.009670529647051786 -0.03202786712928093
-0.05109095889867657 -0.006625002520909339 -0.031141001922632187
-0.05566393058201705 -0.0035794753947668927 -0.030254136715983444
-0.060236902265357536 -0.0005339482686244463 -0.0293672715093347
-0.06480987394869801 0.0025115788575179967 -0.028480406302685956
-0.02365312879863367 -0.024898165277764013 -0.03646219316252464
-0.02855504044176259 -0.02323453063197421 -0.034418320026600495
-0.03345695208489151 -0.0215708959861844 -0.03237444689067634
-0.03835886372802043 -0.019907261340394597 -0.03033057375475219
-0.043260775371149356 -0.01824362669460479 -0.02828670061882804
-0.048162687014278276 -0.016579992048814985 -0.026242827482903887
-0.05306459865740719 -0.014916357403025179 -0.02419895434697974
-0.05796651030053612 -0.013252722757235373 -0.022155081211055583
-0.06286842194366504 -0.011589088111445567 -0.020111208075131434
-0.06777033358679396 -0.00992545346565576 -0.01806733493920728
-0.02365312879863367 -0.024898165277764013 -0.03646219316252464
-0.02835278221402203 -0.024796703740149407 -0.03348279746556177
-0.03305243562941039 -0.0246952422025348 -0.0305034017685989
-0.03775208904479875 -0.02459378066492019 -0.02752400607163603
-0.04245174246018711 -0.024492319127305585 -0.02454461037467316
-0.04715139587557547 -0.02439085758969098 -0.021565214677710286
-0.05185104929096383 -0.02428939605207637 -0.018585818980747414
-0.05655070270635219 -0.024187934514461763 -0.015606423283784542
-0.06125035612174056 -0.024086472976847156 -0.01262702758682167
-0.06595000953712891 -0.023985011439232547 -0.009647631889858801
-0.02365312879863367 -0.024898165277764013 -0.03646219316252464
-0.02764124361608792 -0.026369871780263114 -0.03287013865837647
-0.03162935843354217 -0.027841578282762215 -0.029278084154228296
-0.03561747325099642 -0.029313284785261313 -0.02568602965008012
-0.03960558806845067 -0.030784991287760414 -0.022093975145931945
-0.043593702885904924 -0.03225669779025951 -0.01850192064178377
-0.047581817703359175 -0.03372840429275861 -0.014909866137635595
-0.051569932520813426 -0.035200110795257714 -0.01131781163348742
-0.05555804733826768 -0.036671817297756815 -0.007725757129339248
-0.059546162155721935 -0.038143523800255916 -0.0041337026251910694
-0.02365312879863367 -0.024898165277764013 -0.03646219316252464
-0.02649753089570533 -0.027783557584951792 -0.03264673469318398
-0.029341932992776994 -0.03066894989213957 -0.028831276223843315
-0.03218633508984865 -0.03355434219932735 -0.025015817754502654
-0.03503073718692032 -0.03643973450651513 -0.02120035928516199
-0.03787513928399198 -0.039325126813702906 -0.017384900815821322
-0.04071954138106364 -0.04221051912089069 -0.013569442346480665
-0.0435639434781353 -0.045095911428078464 -0.00975398387714
-0.04640834557520696 -0.04798130373526625 -0.005938525407799333
-0.04925274767227863 -0.05086669604245403 -0.0021230669384586726
-0.02365312879863367 -0.024898165277764013 -0.03646219316252464
-0.025045583072659056 -0.028884566361682067 -0.032836794856082596
-0.026438037346684443 -0.03287096744560012 -0.029211396549640542
-0.02783049162070983 -0.036857368529518174 -0.025585998243198495
-0.02922294589473522 -0.04084376961343623 -0.021960599936756444
-0.030615400168760607 -0.04483017069735429 -0.01833520163031439
-0.03200785444278599 -0.048816571781272335 -0.014709803323872346
-0.03340030871681138 -0.05280297286519039 -0.011084405017430292
-0.03479276299083677 -0.05678937394910844 -0.007459006710988242
-0.03618521726486215 -0.06077577503302649 -0.0038336084045461913
-0.02365312879863367 -0.024898165277764013 -0.03646219316252464
-0.02344274122286791 -0.029553586725583822 -0.03341972317933496
-0.02323235364710215 -0.03420900817340363 -0.030377253196145284
-0.023021966071336393 -0.03886442962122343 -0.027334783212955602
-0.022811578495570632 -0.04351985106904325 -0.02429231322976592
-0.022601190919804875 -0.04817527251686305 -0.021249843246576243
-0.022390803344039117 -0.05283069396468286 -0.01820737326338656
-0.022180415768273357 -0.057486115412502675 -0.015164903280196877
-0.0219700281925076 -0.06214153686032248 -0.012122433297007199
-0.02175964061674184 -0.06679695830814229 -0.009079963313817517
-0.02365312879863367 -0.024898165277764013 -0.03646219316252464
-0.021862698131410573 -0.02971811993930777 -0.03433235033405181
-0.02007226746418748 -0.03453807460085153 -0.03220250750557899
-0.018281836796964386 -0.03935802926239529 -0.030072664677106155
-0.01649140612974129 -0.04417798392393905 -0.027942821848633323
-0.014700975462518199 -0.048997938585482806 -0.025812979020160495
-0.012910544795295104 -0.053817893247026564 -0.023683136191687666
-0.011120114128072012 -0.058637847908570316 -0.021553293363214834
-0.009329683460848916 -0.06345780257011409 -0.019423450534742003
-0.007539252793625821 -0.06827775723165784 -0.017293607706269178
-0.02365312879863367 -0.024898165277764013 -0.03646219316252464
-0.02047667598414108 -0.029360336276151075 -0.035475779007150224
-0.01730022316964849 -0.03382250727453813 -0.034489364851775804
-0.014123770355155904 -0.03828467827292519 -0.033502950696401385
-0.010947317540663313 -0.042746849271312254 -0.032516536541026965
-0.007770864726170723 -0.047209020269699316 -0.031530122385652545
-0.004594411911678139 -0.05167119126808637 -0.03054370823027813
-0.001417959097185551 -0.056133362266473426 -0.029557294074903713
0.0017584937173070437 -0.06059553326486049 -0.02857087991952929
0.004934946531799628 -0.06505770426324754 -0.02758446576415487
-0.02365312879863367 -0.024898165277764013 -0.03646219316252464
-0.019434871787065565 -0.028519007147602287 -0.03672610095977608
-0.015216614775497465 -0.03213984901744056 -0.03699000875702753
-0.010998357763929364 -0.03576069088727883 -0.03725391655427897
-0.006780100752361261 -0.03938153275711711 -0.03751782435153041
-0.0025618437407931606 -0.04300237462695538 -0.037781732148781846
0.0016564132707749398 -0.04662321649679365 -0.03804563994603329
0.00587467028234304 -0.05024405836663192 -0.03830954774328473
0.010092927293911147 -0.0538649002364702 -0.03857345554053617
0.01431118430547925 -0.05748574210630847 -0.03883736333778762
-0.02365312879863367 -0.024898165277764013 -0.03646219316252464
-0.018850181190194847 -0.027285303619306162 -0.03794782440761836
-0.014047233581756028 -0.02967244196084831 -0.03943345565271208
-0.00924428597331721 -0.03205958030239046 -0.04091908689780579
-0.0044413383648783875 -0.03444671864393261 -0.042404718142899506
0.0003616092435604347 -0.036833856985474756 -0.04389034938799322
0.00516455685199925 -0.0392209953270169 -0.04537598063308694
0.009967504460438072 -0.041608133668559054 -0.04686161187818066
0.014770452068876894 -0.0439952720101012 -0.048347243123274375
0.01957339967731571 -0.04638241035164335 -0.049832874368368085
-0.02365312879863367 -0.024898165277764013 -0.03646219316252464
-0.01878596449210924 -0.025792916611436185 -0.039008556658110836
-0.013918800185584815 -0.026687667945108358 -0.04155492015369703
-0.009051635879060388 -0.02758241927878053 -0.04410128364928323
-0.004184471572535962 -0.0284771706124527 -0.04664764714486942
0.000682692733988466 -0.02937192194612487 -0.049194010640455615
0.0055498570405128934 -0.030266673279797044 -0.051740374136041815
0.010417021347037321 -0.031161424613469213 -0.05428673763162801
0.015284185653561745 -0.032056175947141385 -0.0568331011272142
0.020151349960086176 -0.03295092728081356 -0.059379464622800394
0.02365312879863367 0.024898165277764013 0.03646219316252464
0.028520293105158096 0.024003413944091844 0.03391582966693845
0.033387457411682524 0.023108662610419675 0.03136946617135225
0.03825462171820695 0.022213911276747503 0.028823102675766057
0.04312178602473137 0.021319159943075334 0.026276739180179864
0.0479889503312558 0.02042440860940316 0.023730375684593668
0.05285611463778023 0.019529657275730992 0.02118401218900747
0.05772327894430466 0.018634905942058824 0.01863764869342128
0.06259044325082908 0.01774015460838665 0.016091285197835082
0.06745760755735351 0.01684540327471448 0.013544921702248885
0.02365312879863367 0.024898165277764013 0.03646219316252464
0.02805707702879628 0.02559276114246261 0.03313103541209332
0.032461025258958894 0.026287357007161203 0.02979987766166199
0.0368649734891215 0.026981952871859796 0.026468719911230666
0.04126892171928412 0.027676548736558393 0.02313756216079934
0.04567286994944673 0.028371144601256986 0.019806404410368014
0.050076818179609336 0.02906574046595558 0.016475246659936688
0.054480766409771945 0.029760336330654176 0.013144088909505362
0.05888471463993457 0.03045493219535277 0.009812931159074032
0.06328866287009717 0.031149528060051362 0.006481773408642714
0.02365312879863367 0.024898165277764013 0.03646219316252464
0.02711662482739883 0.02710683810112797 0.03270722378774554
0.03058012085616399 0.029315510924491923 0.028952254412966442
0.03404361688492915 0.03152418374785588 0.025197285038187342
0.03750711291369431 0.033732856571219834 0.02144231566340824
0.04097060894245947 0.03594152939458378 0.01768734628862914
0.044434104971224624 0.03815020221794774 0.01393237691385004
0.047897600999989784 0.04035887504131169 0.01017740753907094
0.05136109702875495 0.04256754786467565 0.006422438164291837
0.054824593057520105 0.0447762206880396 0.002667468789512733
0.02365312879863367 0.024898165277764013 0.03646219316252464
0.02580084908960659 0.028381571088291917 0.03269032135950812
0.02794856938057951 0.03186497689881982 0.02891844955649159
0.030096289671552427 0.03534838270934772 0.025146577753475067
0.03224400996252535 0.03883178851987562 0.02137470595045854
0.034391730253498266 0.042315194330403524 0.017602834147442015
0.036539450544471185 0.04579860014093142 0.013830962344425487
0.0386871708354441 0.049282005951459325 0.010059090541408962
0.04083489112641703 0.05276541176198723 0.0062872187383924355
0.042982611417389946 0.056248817572515125 0.002515346935375911
0.02365312879863367 0.024898165277764013 0.03646219316252464
0.024252334532973492 0.029278823005274988 0.03308215976774877
0.024851540267313312 0.03365948073278596 0.029702126372972884
0.025450746001653136 0.038040138460296934 0.026322092978197008
0.02604995173599296 0.042420796187807905 0.022942059583421125
0.02664915747033278 0.04680145391531888 0.019562026188645245
0.027248363204672603 0.05118211164282985 0.01618199279386937
0.027847568939012426 0.05556276937034082 0.012801959399093489
0.028446774673352247 0.0599434270978518 0.009421926004317606
0.02904598040769207 0.06432408482536278 0.0060418926095417306
0.02365312879863367 0.024898165277764013 0.03646219316252464
0.022638886737389737 0.02970136268457411 0.03384027724093526
0.021624644676145804 0.03450456009138421 0.031218361319345876
0.020610402614901876 0.039307757498194304 0.028596445397756496
0.019596160553657944 0.0441109549050044 0.025974529476167112
0.01858191849241401 0.0489141523118145 0.02335261355457773
0.01756767643117008 0.05371734971862459 0.020730697632988345
0.016553434369926148 0.058520547125434697 0.018108781711398958
0.015539192308682217 0.06332374453224479 0.015486865789809578
0.014524950247438285 0.06812694193905489 0.012864949868220194
0.02365312879863367 0.024898165277764013 0.03646219316252464
0.021135347806728842 0.029603401395558577 0.034882519987443225
0.01861756681482402 0.034308637513353134 0.03330284681236181
0.016099785822919196 0.039013873631147694 0.031723173637280395
0.01358200483101437 0.04371910974894226 0.030143500462198974
0.011064223839109544 0.04842434586673682 0.028563827287117555
0.008546442847204724 0.053129581984531375 0.02698415411203614
0.006028661855299898 0.05783481810232594 0.025404480936954722
0.0035108808633950717 0.0625400542201205 0.023824807761873304
0.0009930998714902486 0.06724529033791507 0.022245134586791886
0.02365312879863367 0.024898165277764013 0.03646219316252464
0.01990464951393818 0.028995554763919226 0.03609594483362605
0.016156170229242692 0.03309294425007444 0.03572969650472745
0.012407690944547207 0.03719033373622965 0.03536344817582885
0.008659211659851718 0.041287723222384866 0.034997199846930255
0.00491073237515623 0.04538511270854008 0.03463095151803166
0.0011622530904607448 0.04948250219469529 0.034264703189133064
-0.0025862261942347434 0.0535798916808505 0.03389845486023447
-0.006334705478930232 0.05767728116700572 0.033532206531335866
-0.01008318476362572 0.061774670653160925 0.03316595820243728
0.02365312879863367 0.024898165277764013 0.03646219316252464
0.019080157115293185 0.02794369240390646 0.03734905836917339
0.014507185431952702 0.030989219530048906 0.03823592357582213
0.009934213748612218 0.03403474665619135 0.03912278878247087
0.005361242065271735 0.0370802737823338 0.04000965398911962
0.000788270381931251 0.04012580090847624 0.04089651919576836
-0.0037847013014092323 0.04317132803461869 0.0417833844024171
-0.008357672984749716 0.046216855160761135 0.04267024960906585
-0.0129306446680902 0.049262382286903585 0.04355711481571459
-0.017503616351430683 0.05230790941304603 0.044443980022363334
0.02365312879863367 0.024898165277764013 0.03646219316252464
0.018751217155504745 0.02656179992355382 0.03850606629844879
0.013849305512375825 0.028225434569343625 0.04054993943437295
0.008947393869246907 0.029889069215133433 0.042593812570297096
0.0040454822261179815 0.03155270386092324 0.04463768570622125
-0.0008564294170109386 0.033216338506713045 0.0466815588421454
-0.005758341060139855 0.03487997315250285 0.04872543197806955
-0.010660252703268785 0.03654360779829265 0.050769305113993704
-0.015562164346397706 0.03820724244408246 0.05281317824991785
-0.020464075989526632 0.03987087708987227 0.05485705138584201
0.02365312879863367 0.024898165277764013 0.03646219316252464
0.018953475383245308 0.024999626815378623 0.039441588859487516
0.014253821967856945 0.02510108835299323 0.04242098455645039
0.009554168552468585 0.025202549890607835 0.04540038025341326
0.004854515137080222 0.025304011428222445 0.04837977595037613
0.00015486172169186158 0.02540547296583705 0.051359171647339004
-0.004544791693696499 0.02550693450345166 0.054338567344301876
-0.009244445109084856 0.025608396041066267 0.05731796304126475
-0.013944098524473224 0.025709857578680873 0.06029735873822762
-0.018643751939861584 0.02581131911629548 0.06327675443519049
0.02365312879863367 0.024898165277764013 0.03646219316252464
0.019665013981179418 0.023426458775264915 0.040054247666672815
0.015676899163725166 0.021954752272765814 0.043646302170820994
0.011688784346270914 0.020483045770266713 0.047238356674969166
0.007700669528816664 0.019011339267767616 0.050830411179117345
0.00371255471136241 0.017539632765268515 0.05442246568326552
-0.0002755601060918414 0.016067926262769414 0.058014520187413696
-0.004263674923546089 0.014596219760270314 0.06160657469156187
-0.00825178974100034 0.013124513257771217 0.06519862919571004
-0.012239904558454598 0.011652806755272114 0.06879068369985822
0.02365312879863367 0.024898165277764013 0.03646219316252464
0.020808726701562006 0.022012772970576234 0.04027765163186531
0.017964324604490343 0.019127380663388458 0.04409311010120597
0.015119922507418684 0.01624198835620068 0.047908568570546636
0.01227552041034702 0.0133565960490129 0.0517240270398873
0.00943111831327536 0.010471203741825122 0.055539485509227965
0.0065867162162037 0.007585811434637342 0.05935494397856862
0.003742314119132034 0.004700419127449563 0.0631704024479093
0.0008979120220603715 0.0018150268202617842 0.06698586091724995
-0.0019464900750112912 -0.0010703654869259984 0.07080131938659062
0.02365312879863367 0.024898165277764013 0.03646219316252464
0.02226067452460828 0.02091176419384596 0.0400875914689667
0.020868220250582895 0.016925363109927906 0.043712989775408745
0.019475765976557508 0.012938962026009856 0.04733838808185079
0.018083311702532117 0.0089525609420918 0.050963786388292846
0.01669085742850673 0.0049661598581737425 0.0545891846947349
0.015298403154481345 0.0009797587742556963 0.05821458300117694
0.013905948880455956 -0.0030066423096623608 0.061839981307618995
0.012513494606430567 -0.006993043393580415 0.06546537961406104
0.011121040332405182 -0.01097944447749846 0.0690907779205031
0.02365312879863367 0.024898165277764013 0.03646219316252464
0.023863516374399426 0.020242743829944208 0.039504663145714325
0.024073903950165187 0.015587322382124399 0.042547133128904006
0.024284291525930944 0.010931900934304593 0.04558960311209369
0.024494679101696705 0.006276479486484782 0.04863207309528337
0.024705066677462462 0.001621058038664977 0.051674543078473044
0.02491545425322822 -0.0030343634091548285 0.054717013061662725
0.02512584182899398 -0.007689784856974648 0.057759483044852414
0.025336229404759738 -0.01234520630479445 0.06080195302804209
0.0255466169805255 -0.01700062775261426 0.06384442301123178
0.02365312879863367 0.024898165277764013 0.03646219316252464
0.025443559465856764 0.020078210616220254 0.038592035990997475
0.027233990133079856 0.015258255954676498 0.04072187881947031
0.02902442080030295 0.01043830129313274 0.04285172164794313
0.030814851467526043 0.00561834663158898 0.044981564476415964
0.032605282134749135 0.0007983919700452215 0.047111407304888796
0.034395712801972234 -0.004021562691498534 0.04924125013336162
0.036186143469195325 -0.008841517353042288 0.05137109296183445
0.03797657413641842 -0.013661472014586054 0.053500935790307284
0.039767004803641516 -0.018481426676129814 0.05563077861878011
0.02365312879863367 0.024898165277764013 0.03646219316252464
0.026829581613126256 0.020435994279376955 0.03744860731789906
0.030006034427618847 0.015973823280989896 0.03843502147327348
0.03318248724211143 0.011511652282602836 0.0394214356286479
0.036358940056604026 0.007049481284215777 0.04040784978402232
0.039535392871096614 0.002587310285828715 0.04139426393939674
0.042711845685589195 -0.0018748607125583434 0.04238067809477116
0.04588829850008178 -0.006337031710945399 0.043367092250145574
0.04906475131457438 -0.01079920270933246 0.04435350640552
0.052241204129066965 -0.015261373707719515 0.04533992056089442
0.02365312879863367 0.024898165277764013 0.03646219316252464
0.02787138581020177 0.021277323407925743 0.036198285365273204
0.03208964282176987 0.01765648153808747 0.035934377568021765
0.03630789983333797 0.014035639668249196 0.03567046977077032
0.040526156844906076 0.010414797798410922 0.03540656197351888
0.04474441385647417 0.006793955928572651 0.03514265417626744
0.04896267086804228 0.0031731140587343775 0.034878746379016
0.053180927879610373 -0.00044772781110389307 0.034614838581764555
0.057399184891178484 -0.004068569680942171 0.034350930784513116
0.06161744190274659 -0.007689411550780441 0.03408702298726168
0.02365312879863367 0.024898165277764013 0.03646219316252464
0.028456076407072487 0.022511026936221867 0.034976561917430926
0.033259024015511306 0.020123888594679718 0.03349093067233721
0.03806197162395013 0.01773675025313757 0.0320052994272435
0.04286491923238895 0.015349611911595422 0.030519668182149778
0.04766786684082777 0.012962473570053272 0.029034036937056064
0.05247081444926659 0.010575335228511125 0.02754840569196235
0.05727376205770541 0.008188196886968977 0.026062774446868633
0.06207670966614423 0.005801058545426827 0.024577143201774915
0.06687965727458305 0.0034139202038846786 0.0230915119566812
0.02365312879863367 0.024898165277764013 0.03646219316252464
0.028520293105158096 0.024003413944091844 0.03391582966693845
0.033387457411682524 0.02310866261041967 0.03136946617135226
0.03825462171820695 0.0222139112767475 0.02882310267576606
0.04312178602473137 0.021319159943075327 0.026276739180179868
0.0479889503312558 0.020424408609403158 0.02373037568459367
0.05285611463778023 0.019529657275730986 0.021184012189007475
0.05772327894430466 0.018634905942058813 0.018637648693421282
0.06259044325082908 0.01774015460838664 0.01609128519783509
0.06745760755735351 0.01684540327471447 0.013544921702248892
