# .PCD v0.7 - Point Cloud Data file format
VERSION 0.7
FIELDS x y z
SIZE 4 4 4
TYPE F F F
COUNT 1 1 1
WIDTH 700
HEIGHT 1
VIEWPOINT 0 0 0 1 0 0 0
POINTS 700
DATA ascii
0.14136757229126307 0.007419640220355004 0.0004902686399696406
0.1386723867994706 0.027670682985804478 -0.006662158982001475
0.13285391239672573 0.045949808553156335 -0.016689367114296035
0.124184214479331 0.0614023053266701 -0.02912249464908935
0.11306867848622663 0.0733056317314329 -0.04338018236128325
0.10002705452641922 0.08110320145435514 -0.058795756619737315
0.08566915444154541 0.08443040880156927 -0.07464840230530641
0.07066633768191412 0.08313167725544492 -0.09019686732468356
0.05572011928477246 0.07726773405964242 -0.10471412273444038
0.04152936781084216 0.06711277068069273 -0.11752135780638716
0.028757627027156757 0.053141621919764404 -0.12801972046277907
0.018002089337990995 0.03600756316510184 -0.13571831893389533
0.00976567173176869 0.01651176396093451 -0.14025717531160414
0.0044334999416361645 -0.004434173789975237 -0.14142405771626038
0.0022549003942166626 -0.025850841318132593 -0.13916440402351898
0.003331741983008062 -0.04673681905283733 -0.13358387312862785
0.00761367279214195 -0.06611550188831163 -0.12494340445391745
0.014900474496007496 -0.08308076415302773 -0.11364701671142605
0.024851424345630355 -0.09683932903902223 -0.10022291643695934
0.037001226985728566 -0.10674786134377261 -0.08529879963953554
0.05078177114838692 -0.11234304910925143 -0.06957250143363768
0.06554869390453427 -0.11336326757414948 -0.05377936604484845
0.08061151035834904 -0.10976081245693946 -0.03865786293113841
0.0952658999535689 -0.10170413055506086 -0.024915056771761007
0.1088266397199056 -0.08956994335988672 -0.013193545908696732
0.12065964453756499 -0.07392563197848294 -0.004041415162378805
0.13021161625271357 -0.055502707023640685 0.0021133920053576422
0.137035915284205 -0.035162603990638024 0.004983083651926102
0.14081344499399048 -0.013856403490897165 0.004433476185366276
0.14136757229126307 0.00741964022035498 0.0004902686399696406
0.12539495724615185 0.010642161523106744 0.015633179938709798
0.12269977175435938 0.03089320428855622 0.008480752316738683
0.11688129735161451 0.049172329855908074 -0.0015464558155558771
0.10821159943421978 0.06462482662942183 -0.013979583350349193
0.09709606344111542 0.07652815303418463 -0.02823727106254309
0.08405443948130799 0.08432572275710687 -0.043652845320997155
0.06969653939643418 0.087652930104321 -0.059505491006566255
0.05469372263680289 0.08635419855819665 -0.07505395602594339
0.03974750423966123 0.08049025536239415 -0.08957121143570022
0.02555675276573094 0.07033529198344446 -0.102378446507647
0.01278501198204553 0.05636414322251614 -0.11287680916403892
0.0020294742928797685 0.03923008446785358 -0.12057540763515516
-0.006206943313342536 0.019734285263686254 -0.125114264012864
-0.011539115103475061 -0.0012116524872234956 -0.12628114641752022
-0.013717714650894563 -0.02262832001538085 -0.12402149272477883
-0.012640873062103163 -0.04351429775008559 -0.11844096182988768
-0.008358942252969275 -0.0628929805855599 -0.10980049315517729
-0.0010721405491037309 -0.079858242850276 -0.09850410541268588
0.008878809300519128 -0.0936168077362705 -0.08508000513821917
0.02102861194061734 -0.10352534004102087 -0.07015588834079539
0.034809156103275694 -0.1091205278064997 -0.05442959013489751
0.04957607885942305 -0.11014074627139775 -0.0386364547461083
0.06463889531323781 -0.10653829115418773 -0.023514951632398255
0.07929328490845768 -0.09848160925230913 -0.00977214547302085
0.09285402467479438 -0.08634742205713498 0.0019493653900434275
0.10468702949245376 -0.0707031106757312 0.011101496136361353
0.11423900120760234 -0.052280185720888946 0.0172563033040978
0.12106330023909379 -0.031940082687886284 0.02012599495066626
0.12484082994887927 -0.010633882188145425 0.019576387484106433
0.12539495724615185 0.01064216152310672 0.015633179938709798
0.10942234220104063 0.013864682825858485 0.030776091237449954
0.10672715670924816 0.03411572559130796 0.023623663615478838
0.10090868230650328 0.052394851158659814 0.013596455483184276
0.09223898438910856 0.06784734793217358 0.0011633279483909606
0.08112344839600419 0.07975067433693638 -0.013094359763802936
0.06808182443619677 0.08754824405985862 -0.028509934022257
0.05372392435132296 0.09087545140707275 -0.0443625797078261
0.038721107591691666 0.0895767198609484 -0.05991104472720324
0.023774889194550012 0.0837127766651459 -0.07442830013696007
0.009584137720619718 0.0735578132861962 -0.08723553520890685
-0.003187603063065691 0.05958666452526788 -0.09773389786529876
-0.013943140752231452 0.04245260577060532 -0.10543249633641501
-0.022179558358453758 0.022956806566437993 -0.10997135271412382
-0.027511730148586284 0.002010868815528244 -0.11113823511878007
-0.029690329696005786 -0.01940579871262911 -0.10887858142603868
-0.028613488107214386 -0.04029177644733385 -0.10329805053114753
-0.024331557298080498 -0.05967045928280815 -0.09465758185643713
-0.017044755594214953 -0.07663572154752425 -0.08336119411394573
-0.007093805744592094 -0.09039428643351875 -0.06993709383947902
0.005055996895506118 -0.10030281873826913 -0.05501297704205523
0.01883654105816447 -0.10589800650374795 -0.03928667883615736
0.033603463814311826 -0.106918224968646 -0.023493543447368145
0.04866628026812659 -0.10331576985143598 -0.0083720403336581
0.06332066986334646 -0.09525908794955738 0.005370765825719304
0.07688140962968315 -0.08312490075438324 0.017092276688783582
0.08871441444734254 -0.06748058937297946 0.026244407435101508
0.09826638616249112 -0.049057664418137206 0.032399214602837956
0.10509068519398257 -0.02871756138513454 0.035268906249406415
0.10886821490376805 -0.007411360885393684 0.03471929878284659
0.10942234220104063 0.013864682825858461 0.030776091237449954
0.0934497271559294 0.017087204128610225 0.045919002536190114
0.09075454166413693 0.0373382468940597 0.038766574914219
0.08493606726139206 0.05561737246141155 0.028739366781924434
0.07626636934399733 0.07106986923492532 0.016306239247131118
0.06515083335089297 0.08297319563968812 0.0020485515349372234
0.05210920939108554 0.09077076536261036 -0.013367022723516841
0.03775130930621174 0.09409797270982449 -0.029219668409085943
0.022748492546580443 0.09279924116370014 -0.04476813342846308
0.007802274149438787 0.08693529796789765 -0.059285388838219905
-0.006388477324491508 0.07678033458894795 -0.07209262391016669
-0.01916021810817692 0.06280918582801963 -0.08259098656655861
-0.02991575579734268 0.04567512707335706 -0.09028958503767485
-0.038152173403564985 0.026179327869189733 -0.09482844141538367
-0.04348434519369751 0.005233390118279985 -0.09599532382003992
-0.04566294474111701 -0.01618327740987737 -0.09373567012729853
-0.04458610315232561 -0.03706925514458211 -0.08815513923240738
-0.040304172343191724 -0.05644793798005641 -0.07951467055769698
-0.03301737063932618 -0.0734132002447725 -0.06821828281520557
-0.02306642078970332 -0.087171765130767 -0.05479418254073886
-0.010916618149605107 -0.09708029743551738 -0.03987006574331507
0.0028639260130532466 -0.1026754852009962 -0.0241437675374172
0.017630848769200604 -0.10369570366589426 -0.008350632148627985
0.03269366522301537 -0.10009324854868423 0.006770870965082059
0.04734805481823523 -0.09203656664680564 0.02051367712445946
0.06090879458457193 -0.07990237945163149 0.03223518798752374
0.07274179940223131 -0.06425806807022771 0.04138731873384167
0.0822937711173799 -0.04583514311538547 0.047542125901578115
0.08911807014887134 -0.025495040082382802 0.050411817548146574
0.09289559985865682 -0.004188839582641944 0.04986221008158675
0.0934497271559294 0.0170872041286102 0.045919002536190114
0.07747711211081817 0.020309725431361968 0.061061913834930266
0.0747819266190257 0.04056076819681144 0.05390948621295915
0.06896345221628083 0.05883989376416329 0.04388227808066459
0.06029375429888611 0.07429239053767706 0.031449150545871274
0.04917821830578174 0.08619571694243985 0.01719146283367738
0.03613659434597432 0.0939932866653621 0.001775888575223316
0.021778694261100514 0.09732049401257623 -0.014076757110345783
0.006775877501469218 0.09602176246645187 -0.029625222129722923
-0.008170340895672437 0.09015781927064938 -0.04414247753947975
-0.022361092369602733 0.08000285589169968 -0.056949712611426534
-0.03513283315328814 0.06603170713077136 -0.06744807526781844
-0.0458883708424539 0.0488976483761088 -0.07514667373893469
-0.05412478844867621 0.029401849171941476 -0.0796855301166435
-0.05945696023880873 0.008455911421031725 -0.08085241252129975
-0.061635559786228235 -0.01296075610712563 -0.07859275882855836
-0.060558718197436835 -0.03384673384183037 -0.07301222793366721
-0.05627678738830295 -0.05322541667730467 -0.06437175925895681
-0.0489899856844374 -0.07019067894202077 -0.053075371516465415
-0.039039035834814544 -0.08394924382801527 -0.03965127124199871
-0.026889233194716332 -0.09385777613276565 -0.024727154444574916
-0.013108689032057978 -0.09945296389824447 -0.009000856238677041
0.0016582337240893784 -0.10047318236314252 0.006792279150112172
0.01672105017790414 -0.0968707272459325 0.021913782263822217
0.031375439773124 -0.0888140453440539 0.03565658842319962
0.044936179539460705 -0.07667985814887976 0.047378099286263894
0.05676918435712009 -0.06103554676747598 0.05653023003258182
0.06632115607226867 -0.04261262181263373 0.06268503720031827
0.07314545510376011 -0.02227251877963106 0.06555472884688673
0.07692298481354559 -0.000966318279890203 0.06500512138032691
0.07747711211081817 0.020309725431361943 0.061061913834930266
0.06150449706570695 0.023532246734113707 0.07620482513367043
0.05880931157391448 0.043783289499563185 0.06905239751169931
0.052990837171169605 0.06206241506691504 0.059025189379404756
0.04432113925377488 0.0775149118404288 0.04659206184461144
0.03320560326067051 0.0894182382451916 0.03233437413241754
0.02016397930086309 0.09721580796811384 0.016918799873963476
0.005806079215989285 0.10054301531532797 0.0010661541883943769
-0.00919673754364201 0.09924428376920362 -0.014482310830982763
-0.024142955940783667 0.09338034057340112 -0.02899956624073959
-0.03833370741471396 0.08322537719445143 -0.04180680131268637
-0.05110544819839937 0.06925422843352311 -0.052305163969078285
-0.06186098588756513 0.052120169678860545 -0.06000376244019453
-0.07009740349378743 0.032624370474693215 -0.06454261881790335
-0.07542957528391996 0.011678432723783468 -0.0657095012225596
-0.07760817483133946 -0.009738234804373887 -0.0634498475298182
-0.07653133324254806 -0.03062421253907863 -0.05786931663492705
-0.07224940243341417 -0.05000289537455292 -0.049228847960216655
-0.06496260072954863 -0.06696815763926903 -0.03793246021772525
-0.05501165087992577 -0.08072672252526353 -0.024508359943258545
-0.04286184823982756 -0.0906352548300139 -0.009584243145834757
-0.029081304077169207 -0.09623044259549272 0.006142055060063119
-0.01431438132102185 -0.09725066106039078 0.021935190448852334
0.0007484351327929113 -0.09364820594318075 0.03705669356256238
0.015402824728012774 -0.08559152404130216 0.050799499721939784
0.028963564494349475 -0.07345733684612801 0.06252101058500406
0.04079656931200886 -0.057813025464724235 0.07167314133132198
0.05034854102715744 -0.03939010050988198 0.07782794849905843
0.05717284005864889 -0.01904999747687932 0.08069764014562689
0.06095036976843437 0.002256203022861538 0.08014803267906706
0.06150449706570695 0.023532246734113683 0.07620482513367043
0.045531882020595736 0.026754768036865446 0.09134773643241058
0.042836696528803266 0.047005810802314925 0.08419530881043946
0.03701822212605839 0.06528493636966677 0.0741681006781449
0.028348524208663663 0.08073743314318053 0.061734973143351586
0.017232988215559297 0.09264075954794333 0.04747728543115769
0.004191364255751876 0.10043832927086557 0.03206171117270362
-0.01016653582912193 0.1037655366180797 0.016209065487134525
-0.025169352588753226 0.10246680507195535 0.0006606004677573851
-0.04011557098589488 0.09660286187615286 -0.01385665494199944
-0.054306322459825175 0.08644789849720316 -0.026663890013946222
-0.06707806324351058 0.07247674973627484 -0.03716225267033814
-0.07783360093267634 0.055342690981612284 -0.04486085114145438
-0.08607001853889865 0.035846891777444954 -0.0493997075191632
-0.09140219032903117 0.014900954026535206 -0.05056658992381945
-0.09358078987645067 -0.0065157135016221494 -0.048306936231078054
-0.09250394828765927 -0.02740169123632689 -0.04272640533618691
-0.08822201747852539 -0.04678037407180118 -0.03408593666147651
-0.08093521577465984 -0.0637456363365173 -0.022789548918985103
-0.07098426592503698 -0.0775042012225118 -0.009365448644518395
-0.05883446328493878 -0.08741273352726217 0.005558668152905392
-0.04505391912228042 -0.09300792129274099 0.021284966358803267
-0.030286996366133065 -0.09402813975763905 0.03707810174759248
-0.015224179912318303 -0.09042568464042902 0.052199604861302526
-0.0005697903170984402 -0.08236900273855043 0.06594241102067992
0.012990949449238261 -0.07023481554337628 0.0776639218837442
0.024823954266897645 -0.054590504161972496 0.08681605263006213
0.034375925982046224 -0.03616757920713024 0.09297085979779858
0.04120022501353767 -0.01582747617412758 0.09584055144436704
0.04497775472332315 0.005478724325613277 0.09529094397780721
0.045531882020595736 0.026754768036865422 0.09134773643241058
0.029559266975484506 0.02997728933961719 0.10649064773115074
0.026864081483692036 0.050228332105066664 0.09933822010917963
0.02104560708094716 0.06850745767241852 0.08931101197688507
0.012375909163552433 0.08395995444593228 0.07687788444209175
0.0012603731704480677 0.09586328085069508 0.06262019672989785
-0.011781250789359356 0.10366085057361732 0.04720462247144379
-0.02613915087423316 0.10698805792083145 0.03135197678587469
-0.041141967633864455 0.1056893263747071 0.01580351176649755
-0.05608818603100611 0.0998253831789046 0.001286256356740723
-0.07027893750493641 0.08967041979995491 -0.011520978715206059
-0.08305067828862181 0.07569927103902659 -0.022019341371597976
-0.09380621597778757 0.058565212284364024 -0.02971793984271422
-0.10204263358400988 0.039069413080196694 -0.03425679622042304
-0.1073748053741424 0.01812347532928695 -0.03542367862507929
-0.1095534049215619 -0.0032931921988704075 -0.033164024932337895
-0.1084765633327705 -0.024179169933575148 -0.027583494037446744
-0.10419463252363662 -0.04355785276904944 -0.018943025362736347
-0.09690783081977107 -0.06052311503376555 -0.00764663762024494
-0.08695688097014821 -0.07428167991976005 0.005777462654221768
-0.07480707833005 -0.08419021222451042 0.020701579451645555
-0.06102653416739165 -0.08978539998998925 0.03642787765754343
-0.046259611411244295 -0.0908056184548873 0.05222101304633264
-0.031196794957429535 -0.08720316333767728 0.06734251616004269
-0.01654240536220967 -0.07914648143579868 0.08108532231942009
-0.00298166559587297 -0.06701229424062453 0.09280683318248437
0.008851339221786415 -0.05136798285922076 0.1019589639288023
0.018403310936934994 -0.0329450579043785 0.10811377109653875
0.02522760996842644 -0.012604954871375838 0.1109834627431072
0.029005139678211923 0.00870124562836502 0.11043385527654738
0.029559266975484506 0.029977289339617165 0.10649064773115074
0.01358665193037328 0.03319981064236893 0.1216335590298909
0.01089146643858081 0.053450853407818404 0.11448113140791978
0.005072992035835934 0.07172997897517026 0.10445392327562522
-0.003596705881558793 0.08718247574868403 0.09202079574083191
-0.014712241874663159 0.09908580215344683 0.077763108028638
-0.027753865834470582 0.10688337187636907 0.06234753377018395
-0.04211176591934439 0.1102105792235832 0.04649488808461485
-0.057114582678975685 0.10891184767745885 0.03094642306523771
-0.07206080107611734 0.10304790448165635 0.016429167655480883
-0.08625155255004763 0.09289294110270666 0.0036219325835340995
-0.09902329333373304 0.07892179234177833 -0.006876430072857817
-0.1097788310228988 0.06178773358711576 -0.014575028543974062
-0.1180152486291211 0.04229193438294844 -0.019113884921682877
-0.12334742041925363 0.021345996632038688 -0.020280767326339124
-0.12552601996667315 -7.067089611866634e-05 -0.01802111363359773
-0.12444917837788173 -0.02095664863082341 -0.012440582738706586
-0.12016724756874785 -0.040335331466297704 -0.0038001140639961884
-0.1128804458648823 -0.05730059373101381 0.007496273678495219
-0.10292949601525944 -0.0710591586170083 0.020920373952961927
-0.09077969337516123 -0.08096769092175868 0.03584449075038571
-0.07699914921250288 -0.0865628786872375 0.051570788956283586
-0.062232226456355524 -0.08758309715213555 0.06736392434507281
-0.04716941000254076 -0.08398064203492553 0.08248542745878285
-0.0325150204073209 -0.07592396013304693 0.09622823361816026
-0.018954280640984197 -0.06378977293787279 0.10794974448122453
-0.00712127582332481 -0.04814546155646902 0.11710187522754245
0.002430695891823768 -0.029722536601626763 0.1232566823952789
0.009254994923315215 -0.009382433568624097 0.12612637404184737
0.013032524633100697 0.01192376693111676 0.12557676657528755
0.01358665193037328 0.033199810642368904 0.1216335590298909
-0.0023859631147379453 0.03642233194512067 0.13677647032863105
-0.005081148606530416 0.05667337471057014 0.12962404270665995
-0.010899623009275293 0.074952500277922 0.11959683457436539
-0.01956932092667002 0.09040499705143576 0.10716370703957206
-0.030684856919774385 0.10230832345619856 0.09290601932737817
-0.04372648087958181 0.1101058931791208 0.07749044506892411
-0.05808438096445561 0.11343310052633493 0.06163779938335501
-0.07308719772408691 0.11213436898021058 0.046089334363977864
-0.08803341612122856 0.10627042578440808 0.03157207895422104
-0.10222416759515886 0.09611546240545839 0.018764843882274257
-0.11499590837884427 0.08214431364453006 0.008266481225882341
-0.12575144606801003 0.0650102548898675 0.0005678827547660968
-0.13398786367423232 0.04551445568570018 -0.00397097362294272
-0.13932003546436486 0.02456851793479043 -0.005137856027598967
-0.14149863501178436 0.0031518504066330747 -0.0028782023348575742
-0.14042179342299296 -0.017734127328071666 0.0027023285600335733
-0.13613986261385908 -0.037112810163545965 0.01134279723474397
-0.12885306090999352 -0.05407807242826207 0.022639184977235376
-0.11890211106037067 -0.06783663731425657 0.03606328525170208
-0.10675230842027246 -0.07774516961900695 0.05098740204912587
-0.09297176425761411 -0.08334035738448577 0.06671370025502375
-0.07820484150146675 -0.08436057584938382 0.08250683564381296
-0.06314202504765198 -0.0807581207321738 0.09762833875752301
-0.04848763545243212 -0.0727014388302952 0.11137114491690041
-0.03492689568609542 -0.060567251635121055 0.12309265577996469
-0.023093890868436037 -0.04492294025371728 0.1322447865262826
-0.013541919153287459 -0.02650001529887502 0.13839959369401905
-0.0067176201217960104 -0.006159912265872356 0.14126928534058752
-0.0029400904120105284 0.0151462882338685 0.1407196778740277
-0.0023859631147379453 0.036422331945120644 0.13677647032863105
0.07187676770300051 -0.014501345862382832 -0.06814310084433071
0.07959796821280747 -0.012065680742078628 -0.06051717090163067
0.08731916872261442 -0.009630015621774424 -0.05289124095893063
0.09504036923242136 -0.007194350501470222 -0.045265311016230596
0.10276156974222832 -0.004758685381166015 -0.037639381073530556
0.11048277025203528 -0.0023230202608618107 -0.03001345113083051
0.11820397076184222 0.00011264485944239013 -0.022387521188130484
0.12592517127164918 0.002548309979746596 -0.014761591245430439
0.13364637178145614 0.0049839751000508034 -0.007135661302730399
0.14136757229126307 0.007419640220355004 0.0004902686399696406
0.07187676770300051 -0.014501345862382832 -0.06814310084433071
0.0789999492088225 -0.008712980724975408 -0.06186143516928556
0.0861231307146445 -0.002924615587567985 -0.05557976949424041
0.09324631222046649 0.0028637495498394375 -0.049298103819195256
0.10036949372628849 0.008652114687246864 -0.0430164381441501
0.10749267523211048 0.01444047982465429 -0.03673477246910494
0.11461585673793247 0.020228844962061707 -0.030453106794059798
0.12173903824375447 0.026017210099469137 -0.02417144111901464
0.12886221974957646 0.03180557523687656 -0.01788977544396949
0.13598540125539846 0.037593940374283985 -0.01160810976892432
0.07187676770300051 -0.014501345862382832 -0.06814310084433071
0.07763002296113262 -0.005987539886249427 -0.06388641538291723
0.08338327821926474 0.002526266089883979 -0.05962972992150374
0.08913653347739685 0.011040072066017382 -0.055373044460090254
0.09488978873552896 0.01955387804215079 -0.05111635899867677
0.10064304399366107 0.0280676840182842 -0.04685967353726328
0.10639629925179317 0.0365814899944176 -0.0426029880758498
0.1121495545099253 0.045095295970551015 -0.038346302614436306
0.1179028097680574 0.05360910194668442 -0.034089617153022826
0.12365606502618952 0.06212290792281783 -0.02983293169160934
0.07187676770300051 -0.014501345862382832 -0.06814310084433071
0.07563664223527089 -0.004184702030348503 -0.06637267351557327
0.07939651676754128 0.006131941801685828 -0.06460224618681583
0.08315639129981166 0.016448585633720158 -0.06283181885805839
0.08691626583208203 0.02676522946575449 -0.06106139152930094
0.09067614036435241 0.03708187329778883 -0.0592909642005435
0.09443601489662279 0.04739851712982315 -0.057520536871786064
0.09819588942889317 0.057715160961857484 -0.05575010954302862
0.10195576396116356 0.06803180479389181 -0.05397968221427117
0.10571563849343393 0.07834844862592616 -0.05220925488551374
0.07187676770300051 -0.014501345862382832 -0.06814310084433071
0.07323582076337327 -0.003499832612871084 -0.06905078492031062
0.07459487382374602 0.007501680636640665 -0.06995846899629055
0.07595392688411878 0.018503193886152413 -0.07086615307227045
0.07731297994449154 0.029504707135664162 -0.07177383714825038
0.07867203300486429 0.04050622038517592 -0.07268152122423029
0.08003108606523705 0.051507733634687664 -0.07358920530021021
0.08139013912560981 0.0625092468841994 -0.07449688937619012
0.08274919218598258 0.07351076013371116 -0.07540457345217004
0.08410824524635532 0.08451227338322291 -0.07631225752814995
0.07187676770300051 -0.014501345862382832 -0.06814310084433071
0.07068772480450326 -0.004007147862044788 -0.07163053467124597
0.06949868190600603 0.006487050138293257 -0.07511796849816124
0.06830963900750878 0.016981248138631295 -0.07860540232507651
0.06712059610901153 0.027475446138969347 -0.08209283615199178
0.06593155321051429 0.03796964413930739 -0.08558026997890705
0.06474251031201704 0.04846384213964543 -0.08906770380582231
0.06355346741351979 0.058958040139983486 -0.0925551376327376
0.06236442451502255 0.06945223814032153 -0.09604257145965285
0.061175381616525304 0.07994643614065958 -0.09953000528656812
0.07187676770300051 -0.014501345862382832 -0.06814310084433071
0.06826848009358698 -0.00565167229881449 -0.07383236685392376
0.06466019248417343 0.003198001264753854 -0.07952163286351682
0.061051904874759894 0.012047674828322199 -0.08521089887310988
0.05744361726534635 0.02089734839189054 -0.09090016488270294
0.05383532965593281 0.029747021955458888 -0.09658943089229599
0.05022704204651927 0.03859669551902723 -0.10227869690188905
0.04661875443710573 0.04744636908259558 -0.10796796291148211
0.04301046682769219 0.05629604264616392 -0.11365722892107517
0.03940217921827865 0.06514571620973227 -0.11934649493066823
0.07187676770300051 -0.014501345862382832 -0.06814310084433071
0.06624024933350157 -0.008255196183030401 -0.0754176787864044
0.060603730964002636 -0.0020090465036779704 -0.0826922567284781
0.0549672125945037 0.0042371031756744575 -0.0899668346705518
0.04933069422500475 0.010483252855026893 -0.09724141261262549
0.043694175855505814 0.016729402534379326 -0.1045159905546992
0.03805765748600688 0.022975552213731747 -0.1117905684967729
0.032421139116507944 0.029221701893084182 -0.1190651464388466
0.026784620747009 0.03546785157243662 -0.12633972438092028
0.021148102377510053 0.04171400125178905 -0.13361430232299398
0.07187676770300051 -0.014501345862382832 -0.06814310084433071
0.06482282279834516 -0.01153558730400234 -0.07621467732215449
0.05776887789368981 -0.008569828745621847 -0.08428625379997828
0.05071493298903446 -0.005604070187241356 -0.09235783027780207
0.043660988084379106 -0.0026383116288608626 -0.10042940675562587
0.03660704317972376 0.0003274469295196328 -0.10850098323344966
0.029553098275068412 0.003293205487900121 -0.11657255971127345
0.02249915337041305 0.006258964046280614 -0.12464413618909724
0.015445208465757705 0.009224722604661109 -0.13271571266692103
0.008391263561102355 0.012190481163041606 -0.1407872891447448
0.07187676770300051 -0.014501345862382832 -0.06814310084433071
0.0641698006468407 -0.015137364383260285 -0.07613699530311906
0.05646283359068091 -0.015773382904137736 -0.0841308897619074
0.04875586653452111 -0.016409401425015187 -0.09212478422069574
0.0410488994783613 -0.01704541994589264 -0.10011867867948408
0.0333419324222015 -0.017681438466770096 -0.10811257313827244
0.025634965366041707 -0.018317456987647543 -0.11610646759706078
0.01792799830988189 -0.018953475508525 -0.12410036205584914
0.010221031253722097 -0.01958949402940245 -0.13209425651463746
0.0025140641975622954 -0.020225512550279906 -0.14008815097342583
0.07187676770300051 -0.014501345862382832 -0.06814310084433071
0.06435194796178642 -0.018670218986936986 -0.07519305078142129
0.056827128220572315 -0.022839092111491138 -0.08224300071851184
0.049302308479358216 -0.02700796523604529 -0.08929295065560242
0.041777488738144124 -0.03117683836059944 -0.09634290059269299
0.03425266899693002 -0.03534571148515359 -0.10339285052978357
0.026727849255715926 -0.03951458460970774 -0.11044280046687413
0.019203029514501826 -0.043683457734261896 -0.1174927504039647
0.011678209773287734 -0.047852330858816045 -0.12454270034105527
0.004153390032073641 -0.0520212039833702 -0.13159265027814585
0.07187676770300051 -0.014501345862382832 -0.06814310084433071
0.06534952625530112 -0.02175131150083681 -0.07348513479279549
0.05882228480760172 -0.029001277139290786 -0.07882716874126028
0.05229504335990231 -0.03625124277774476 -0.08416920268972507
0.045767801912202914 -0.04350120841619874 -0.08951123663818986
0.03924056046450351 -0.05075117405465272 -0.09485327058665464
0.03271331901680411 -0.05800113969310669 -0.10019530453511943
0.026186077569104717 -0.06525110533156067 -0.10553733848358422
0.019658836121405322 -0.07250107097001465 -0.11087937243204901
0.013131594673705907 -0.07975103660846863 -0.1162214063805138
0.07187676770300051 -0.014501345862382832 -0.06814310084433071
0.0670544324402604 -0.02404675774300252 -0.07119832653565637
0.06223209717752028 -0.03359216962362221 -0.07425355222698204
0.05740976191478017 -0.04313758150424189 -0.0773087779183077
0.05258742665204006 -0.05268299338486158 -0.08036400360963337
0.04776509138929994 -0.06222840526548127 -0.08341922930095903
0.04294275612655983 -0.07177381714610095 -0.0864744549922847
0.03812042086381972 -0.08131922902672065 -0.08952968068361036
0.03329808560107961 -0.09086464090734032 -0.09258490637493604
0.02847575033833949 -0.10041005278796003 -0.0956401320662617
0.07187676770300051 -0.014501345862382832 -0.06814310084433071
0.0692819134771788 -0.02530781049557722 -0.06858043716815103
0.06668705925135708 -0.036114275128771606 -0.06901777349197134
0.06409220502553536 -0.04692073976196599 -0.06945510981579167
0.06149735079971364 -0.05772720439516038 -0.06989244613961199
0.058902496573891926 -0.06853366902835478 -0.0703297824634323
0.05630764234807021 -0.07934013366154916 -0.07076711878725263
0.053712788122248493 -0.09014659829474356 -0.07120445511107294
0.05111793389642677 -0.10095306292793793 -0.07164179143489327
0.048523079670605054 -0.11175952756113233 -0.07207912775871358
0.07187676770300051 -0.014501345862382832 -0.06814310084433071
0.07179058723277676 -0.025397815125569902 -0.0659151556239875
0.071704406762553 -0.03629428438875697 -0.06368721040364429
0.07161822629232927 -0.04719075365194403 -0.061459265183301096
0.07153204582210551 -0.058087222915131104 -0.059231319962957885
0.07144586535188176 -0.06898369217831817 -0.05700337474261468
0.071359684881658 -0.07988016144150523 -0.054775429522271483
0.07127350441143425 -0.0907766307046923 -0.05254748430192827
0.07118732394121051 -0.10167309996787938 -0.05031953908158506
0.07110114347098676 -0.11256956923106644 -0.048091593861241864
0.07187676770300051 -0.014501345862382832 -0.06814310084433071
0.07430859997955125 -0.024307018234755125 -0.06349130651458014
0.07674043225610198 -0.03411269060712741 -0.05883951218482958
0.07917226453265272 -0.0439183629794997 -0.05418771785507901
0.08160409680920344 -0.05372403535187199 -0.04953592352532845
0.08403592908575418 -0.06352970772424428 -0.04488412919557788
0.08646776136230491 -0.07333538009661657 -0.040232334865827314
0.08889959363885565 -0.08314105246898884 -0.03558054053607675
0.09133142591540638 -0.09294672484136116 -0.030928746206326185
0.09376325819195712 -0.10275239721373343 -0.026276951876575617
0.07187676770300051 -0.014501345862382832 -0.06814310084433071
0.07656308596539585 -0.02215362459171032 -0.06157155150082725
0.08124940422779117 -0.029805903321037806 -0.05500000215732379
0.08593572249018651 -0.03745818205036529 -0.048428452813820334
0.09062204075258183 -0.04511046077969278 -0.04185690347031687
0.09530835901497717 -0.052762739509020266 -0.035285354126813405
0.09999467727737249 -0.060415018238347745 -0.028713804783309954
0.10468099553976783 -0.06806729696767523 -0.022142255439806496
0.10936731380216316 -0.07571957569700273 -0.015570706096303033
0.11405363206455849 -0.08337185442633022 -0.008999156752799576
0.07187676770300051 -0.014501345862382832 -0.06814310084433071
0.0783097366517899 -0.019170987811004465 -0.06036392582653716
0.0847427056005793 -0.0238406297596261 -0.052584750808743606
0.09117567454936869 -0.02851027170824773 -0.044805575790950056
0.09760864349815808 -0.03317991365686936 -0.037026400773156505
0.10404161244694747 -0.037849555605491 -0.029247225755362947
0.11047458139573685 -0.042519197554112625 -0.021468050737569404
0.11690755034452625 -0.04718883950273426 -0.013688875719775848
0.12334051929331563 -0.051858481451355895 -0.005909700701982303
0.12977348824210502 -0.05652812339997753 0.0018694743158112399
0.07187676770300051 -0.014501345862382832 -0.06814310084433071
0.0793592753347848 -0.015682322868205124 -0.0599992944717622
0.08684178296656911 -0.016863299874027418 -0.0518554880991937
0.0943242905983534 -0.018044276879849712 -0.04371168172662519
0.1018067982301377 -0.019225253885672006 -0.035567875354056686
0.109289305861922 -0.0204062308914943 -0.02742406898148818
0.11677181349370629 -0.021587207897316593 -0.019280262608919678
0.12425432112549059 -0.022768184903138883 -0.011136456236351172
0.13173682875727488 -0.023949161908961177 -0.0029926498637826648
0.1392193363890592 -0.02513013891478347 0.005151156508785857
0.07187676770300051 -0.014501345862382832 -0.06814310084433071
0.07959796821280747 -0.012065680742078632 -0.06051717090163067
0.08731916872261442 -0.00963001562177443 -0.05289124095893063
0.09504036923242136 -0.0071943505014702295 -0.045265311016230596
0.10276156974222832 -0.004758685381166025 -0.03763938107353055
0.11048277025203528 -0.0023230202608618246 -0.030013451130830503
0.11820397076184222 0.00011264485944237451 -0.022387521188130477
0.12592517127164918 0.0025483099797465785 -0.014761591245430432
0.13364637178145614 0.004983975100050783 -0.007135661302730392
0.14136757229126307 0.00741964022035498 0.0004902686399696406
-0.07187676770300051 0.014501345862382832 0.06814310084433071
-0.06415556719319356 0.016937010982687038 0.07576903078703075
-0.056434366683386604 0.019372676102991242 0.08339496072973078
-0.04871316617357966 0.021808341223295443 0.09102089067243083
-0.0409919656637727 0.02424400634359965 0.09864682061513086
-0.03327076515396575 0.026679671463903855 0.1062727505578309
-0.025549564644158806 0.029115336584208056 0.11389868050053094
-0.01782836413435185 0.03155100170451226 0.12152461044323098
-0.01010716362454489 0.03398666682481647 0.12915054038593102
-0.0023859631147379453 0.03642233194512067 0.13677647032863105
-0.07187676770300051 0.014501345862382832 0.06814310084433071
-0.06475358619717853 0.020289710999790257 0.07442476651937587
-0.057630404691356524 0.026078076137197682 0.08070643219442102
-0.050507223185534536 0.031866441274605105 0.08698809786946617
-0.043384041679712534 0.03765480641201253 0.09326976354451132
-0.03626086017389054 0.04344317154941996 0.09955142921955648
-0.02913767866806856 0.04923153668682737 0.10583309489460162
-0.022014497162246557 0.0550199018242348 0.11211476056964678
-0.014891315656424563 0.060808266961642224 0.11839642624469193
-0.007768134150602567 0.06659663209904965 0.1246780919197371
-0.07187676770300051 0.014501345862382832 0.06814310084433071
-0.0661235124448684 0.02301515183851624 0.07239978630574419
-0.06037025718673629 0.03152895781464964 0.07665647176715767
-0.05461700192860418 0.040042763790783045 0.08091315722857116
-0.048863746670472066 0.048556569766916455 0.08516984268998465
-0.043110491412339955 0.057070375743049864 0.08942652815139814
-0.03735723615420785 0.06558418171918326 0.09368321361281162
-0.03160398089607573 0.07409798769531668 0.09793989907422511
-0.02585072563794362 0.08261179367145008 0.1021965845356386
-0.020097470379811508 0.09112559964758349 0.10645326999705208
-0.07187676770300051 0.014501345862382832 0.06814310084433071
-0.06811689317073014 0.024817989694417165 0.06991352817308816
-0.06435701863845975 0.03513463352645149 0.07168395550184559
-0.060597144106189375 0.04545127735848582 0.07345438283060303
-0.05683726957391899 0.05576792119052015 0.07522481015936047
-0.05307739504164861 0.0660845650225545 0.07699523748811792
-0.04931752050937823 0.07640120885458881 0.07876566481687536
-0.045557645977107854 0.08671785268662315 0.0805360921456328
-0.04179777144483746 0.09703449651865748 0.08230651947439024
-0.03803789691256709 0.10735114035069182 0.08407694680314767
-0.07187676770300051 0.014501345862382832 0.06814310084433071
-0.07051771464262775 0.025502859111894583 0.06723541676835079
-0.069158661582255 0.03650437236140633 0.06632773269237088
-0.06779960852188224 0.04750588561091808 0.06542004861639096
-0.06644055546150948 0.05850739886042983 0.06451236454041104
-0.06508150240113672 0.06950891210994159 0.06360468046443113
-0.06372244934076397 0.08051042535945332 0.0626969963884512
-0.06236339628039121 0.09151193860896506 0.0617893123124713
-0.06100434322001846 0.10251345185847682 0.06088162823649138
-0.059645290159645696 0.11351496510798857 0.059973944160511466
-0.07187676770300051 0.014501345862382832 0.06814310084433071
-0.07306581060149776 0.02499554386272088 0.06465566701741544
-0.074254853499995 0.03548974186305892 0.061168233190500174
-0.07544389639849225 0.04598393986339696 0.05768079936358491
-0.0766329392969895 0.05647813786373501 0.05419336553666964
-0.07782198219548674 0.06697233586407306 0.05070593170975437
-0.07901102509398399 0.07746653386441109 0.047218497882839106
-0.08020006799248124 0.08796073186474915 0.04373106405592383
-0.08138911089097847 0.09845492986508719 0.040243630229008565
-0.08257815378947572 0.10894912786542524 0.0367561964020933
-0.07187676770300051 0.014501345862382832 0.06814310084433071
-0.07548505531241405 0.023351019425951178 0.062453834834737654
-0.0790933429218276 0.03220069298951952 0.05676456882514459
-0.08270163053124113 0.041050366553087865 0.05107530281555154
-0.08630991814065467 0.049900040116656205 0.04538603680595848
-0.08991820575006822 0.05874971368022455 0.039696770796365424
-0.09352649335948175 0.0675993872437929 0.03400750478677237
-0.09713478096889529 0.07644906080736125 0.02831823877717931
-0.10074306857830884 0.08529873437092958 0.02262897276758625
-0.10435135618772237 0.09414840793449793 0.016939706757993188
-0.07187676770300051 0.014501345862382832 0.06814310084433071
-0.07751328607249945 0.020747495541735266 0.06086852290225701
-0.08314980444199839 0.026993645221087697 0.05359394496018331
-0.08878632281149733 0.03323979490044012 0.04631936701810962
-0.09442284118099627 0.039485944579792556 0.039044789076035924
-0.1000593595504952 0.04573209425914499 0.031770211133962216
-0.10569587791999414 0.05197824393849741 0.02449563319188853
-0.11133239628949308 0.05822439361784985 0.017221055249814828
-0.11696891465899202 0.06447054329720228 0.009946477307741135
-0.12260543302849097 0.07071669297655471 0.0026718993656674266
-0.07187676770300051 0.014501345862382832 0.06814310084433071
-0.07893071260765587 0.017467104420763324 0.060071524366506916
-0.08598465751231121 0.020432862979143818 0.05199994788868313
-0.09303860241696656 0.02339862153752431 0.04392837141085934
-0.10009254732162191 0.026364380095904805 0.03585679493303555
-0.10714649222627726 0.029330138654285298 0.027785218455211758
-0.11420043713093261 0.032295897212665785 0.019713641977387973
-0.12125438203558797 0.03526165577104628 0.011642065499564183
-0.12830832694024333 0.03822741432942677 0.0035704890217403916
-0.13536227184489866 0.04119317288780727 -0.0045010874560834
-0.07187676770300051 0.014501345862382832 0.06814310084433071
-0.07958373475916032 0.013865327341505381 0.060149206385542366
-0.08729070181532012 0.013229308820627929 0.052155311926754024
-0.09499766887147991 0.012593290299750478 0.044161417467965675
-0.10270463592763972 0.011957271778873024 0.03616752300917733
-0.11041160298379953 0.011321253257995571 0.028173628550388977
-0.11811857003995932 0.010685234737118122 0.02017973409160064
-0.12582553709611913 0.010049216216240664 0.012185839632812287
-0.13353250415227894 0.009413197695363215 0.004191945174023958
-0.14123947120843872 0.00877717917448576 -0.003801949284764411
-0.07187676770300051 0.014501345862382832 0.06814310084433071
-0.0794015874442146 0.01033247273782868 0.061093150907240136
-0.08692640718542871 0.00616359961327453 0.054043200970149564
-0.0944512269266428 0.001994726488720378 0.046993251033059
-0.1019760466678569 -0.0021741466358337737 0.03994330109596843
-0.109500866409071 -0.006343019760387929 0.03289335115887784
-0.1170256861502851 -0.010511892884942078 0.025843401221787285
-0.1245505058914992 -0.014680766009496233 0.018793451284696713
-0.1320753256327133 -0.01884963913405038 0.011743501347606143
-0.13960014537392737 -0.023018512258604535 0.004693551410515564
-0.07187676770300051 0.014501345862382832 0.06814310084433071
-0.07840400915069991 0.007251380223928856 0.06280106689586593
-0.08493125059839932 1.4145854748792505e-06 0.05745903294740114
-0.09145849204609871 -0.007248551052979097 0.05211699899893635
-0.0979857334937981 -0.014498516691433075 0.04677496505047156
-0.10451297494149751 -0.021748482329887058 0.04143293110200677
-0.11104021638919691 -0.028998447968341026 0.03609089715354198
-0.1175674578368963 -0.036248413606795 0.0307488632050772
-0.1240946992845957 -0.043498379245248985 0.02540682925661241
-0.1306219407322951 -0.05074834488370297 0.020064795308147615
-0.07187676770300051 0.014501345862382832 0.06814310084433071
-0.07669910296574063 0.0049559339817631465 0.06508787515300504
-0.08152143822848074 -0.00458947789885654 0.06203264946167938
-0.08634377349122085 -0.01413488977947623 0.05897742377035371
-0.09116610875396096 -0.023680301660095913 0.05592219807902805
-0.09598844401670108 -0.03322571354071561 0.05286697238770238
-0.1008107792794412 -0.04277112542133529 0.04981174669637672
-0.1056331145421813 -0.052316537301954985 0.04675652100505106
-0.11045544980492142 -0.06186194918257466 0.04370129531372539
-0.11527778506766154 -0.07140736106319437 0.04064606962239972
-0.07187676770300051 0.014501345862382832 0.06814310084433071
-0.07447162192882223 0.0036948812291884457 0.06770576452051039
-0.07706647615464395 -0.007111583404005942 0.06726842819669007
-0.07966133038046566 -0.01791804803720033 0.06683109187286974
-0.08225618460628738 -0.028724512670394716 0.06639375554904943
-0.0848510388321091 -0.039530977303589114 0.06595641922522912
-0.08744589305793082 -0.050337441936783495 0.06551908290140879
-0.09004074728375253 -0.061143906569977896 0.06508174657758847
-0.09263560150957426 -0.07195037120317227 0.06464441025376816
-0.09523045573539597 -0.08275683583636667 0.06420707392994783
-0.07187676770300051 0.014501345862382832 0.06814310084433071
-0.07196294817322427 0.003604876599195765 0.07037104606467391
-0.07204912864344802 -0.007291592663991303 0.07259899128501712
-0.07213530911367176 -0.018188061927178364 0.07482693650536032
-0.07222148958389552 -0.02908453119036544 0.07705488172570353
-0.07230767005411927 -0.039981000453552504 0.07928282694604674
-0.07239385052434302 -0.050877469716739565 0.08151077216638994
-0.07248003099456676 -0.06177393897992664 0.08373871738673315
-0.07256621146479052 -0.07267040824311372 0.08596666260707636
-0.07265239193501427 -0.08356687750630078 0.08819460782741956
-0.07187676770300051 0.014501345862382832 0.06814310084433071
-0.06944493542644978 0.004695673490010543 0.07279489517408128
-0.06701310314989904 -0.005109998882361748 0.07744668950383184
-0.0645812708733483 -0.014915671254734036 0.08209848383358241
-0.06214943859679758 -0.02472134362710633 0.08675027816333297
-0.05971760632024684 -0.03452701599947862 0.09140207249308353
-0.057285774043696114 -0.044332688371850906 0.09605386682283411
-0.05485394176714538 -0.05413836074422318 0.10070566115258467
-0.05242210949059464 -0.0639440331165955 0.10535745548233523
-0.04999027721404391 -0.07374970548896777 0.1100092498120858
-0.07187676770300051 0.014501345862382832 0.06814310084433071
-0.06719044944060518 0.006849067133055347 0.07471465018783417
-0.06250413117820985 -0.0008032115962721402 0.08128619953133763
-0.057817812915814525 -0.008455490325599625 0.08785774887484109
-0.05313149465341919 -0.016107769054927112 0.09442929821834455
-0.04844517639102386 -0.0237600477842546 0.10100084756184802
-0.04375885812862853 -0.031412326513582084 0.10757239690535146
-0.0390725398662332 -0.03906460524290957 0.11414394624885492
-0.03438622160383786 -0.04671688397223706 0.12071549559235839
-0.02969990334144254 -0.054369162701564555 0.12728704493586185
-0.07187676770300051 0.014501345862382832 0.06814310084433071
-0.06544379875421112 0.0098317039137612 0.07592227586212426
-0.05901082980542173 0.005162061965139567 0.08370145087991782
-0.05257786085663234 0.0004924200165179356 0.09148062589771136
-0.04614489190784295 -0.004177221932103699 0.09925980091550492
-0.039711922959053556 -0.008846863880725335 0.10703897593329847
-0.03327895401026417 -0.013516505829346962 0.11481815095109202
-0.026845985061474772 -0.018186147777968596 0.12259732596888558
-0.020413016112685388 -0.02285578972659023 0.1303765009866791
-0.013980047163895996 -0.027525431675211865 0.13815567600447265
-0.07187676770300051 0.014501345862382832 0.06814310084433071
-0.06439426007121622 0.01332036885656054 0.07628690721689921
-0.05691175243943192 0.012139391850738247 0.08443071358946772
-0.049429244807647627 0.010958414844915953 0.09257451996203622
-0.04194673717586332 0.00977743783909366 0.10071832633460473
-0.034464229544079024 0.008596460833271367 0.10886213270717324
-0.02698172191229474 0.007415483827449074 0.11700593907974174
-0.019499214280510435 0.006234506821626784 0.12514974545231025
-0.012016706648726137 0.00505352981580449 0.13329355182487876
-0.004534199016941825 0.0038725528099821964 0.14143735819744727
-0.07187676770300051 0.014501345862382832 0.06814310084433071
-0.06415556719319356 0.016937010982687035 0.07576903078703075
-0.056434366683386604 0.019372676102991235 0.0833949607297308
-0.04871316617357966 0.021808341223295436 0.09102089067243083
-0.0409919656637727 0.02424400634359964 0.09864682061513087
-0.03327076515396575 0.02667967146390384 0.10627275055783092
-0.025549564644158806 0.02911533658420804 0.11389868050053094
-0.01782836413435185 0.03155100170451224 0.12152461044323098
-0.01010716362454489 0.03398666682481645 0.12915054038593102
-0.0023859631147379453 0.036422331945120644 0.13677647032863105
