# .PCD v0.7 - Point Cloud Data file format
VERSION 0.7
FIELDS x y z
SIZE 4 4 4
TYPE F F F
COUNT 1 1 1
WIDTH 700
HEIGHT 1
VIEWPOINT 0 0 0 1 0 0 0
POINTS 700
DATA ascii
-0.012179287821503525 -0.06965624157143285 -0.15810216032048008
-0.00810515827684585 -0.04506103585643454 -0.1670342168435917
-0.007872727181417568 -0.01904303325472902 -0.17196512201864037
-0.011492862754912288 0.007181193348960955 -0.1726643121999483
-0.0187962914814051 0.03238542826478123 -0.16909909403173154
-0.029441513150823242 0.0553911494805633 -0.16143617315308056
-0.0429307690292188 0.07512263504127983 -0.15003385922755624
-0.058633316503949144 0.09065726261208273 -0.13542531178155437
-0.0758149219072239 0.10126865027325985 -0.11829361025741564
-0.09367219246636882 0.10646062133148476 -0.09943981397789009
-0.11137014205696896 0.1059904049905363 -0.07974550550251887
-0.12808123422602613 0.09987998804390927 -0.06013156880695854
-0.14302407687676016 0.08841508679678729 -0.041515129771768564
-0.1554999592945995 0.07213178728916322 -0.024766672395548566
-0.16492552308363334 0.05179147850842611 -0.01066933593063722
-0.17086003935684824 0.028345250686533593 0.00011770383793041813
-0.17302601672904974 0.0028894233778268023 0.007090056919509731
-0.17132217650562467 -0.023385717224859114 0.009921703833219915
-0.16582818836173802 -0.04925157474966388 0.008480239916525372
-0.15680094507686862 -0.07349869044656347 0.0028330664200987028
-0.14466255051395668 -0.09499329613430443 -0.006755761099749747
-0.1299805825119074 -0.11273032794046639 -0.019837879725408205
-0.11344155357666114 -0.1258804219710881 -0.035801584129671465
-0.09581881031941963 -0.13382869444457754 -0.053900429236979235
-0.07793637262861912 -0.13620349297394468 -0.07328813316553542
-0.06063040341577944 -0.1328937746193553 -0.09305814842752598
-0.044710110567089685 -0.12405429813258231 -0.11228605108209401
-0.030919909282019983 -0.11009838760977472 -0.13007276577139076
-0.01990461404595217 -0.09167860591609846 -0.14558660548505836
-0.012179287821503525 -0.06965624157143288 -0.15810216032048008
0.007879579986950047 -0.06640453863809738 -0.1399989689533119
0.011953709531607723 -0.04180933292309907 -0.14893102547642353
0.012186140627036005 -0.015791330321393546 -0.1538619306514722
0.008566005053541284 0.01043289628229643 -0.1545611208327801
0.0012625763270484739 0.03563713119811671 -0.15099590266456334
-0.00938264534236967 0.05864285241389878 -0.14333298178591236
-0.022871901220765233 0.07837433797461531 -0.13193066786038807
-0.038574448695495575 0.09390896554541821 -0.11732212041438617
-0.05575605409877033 0.10452035320659532 -0.10019041889024743
-0.07361332465791524 0.10971232426482024 -0.08133662261072189
-0.09131127424851539 0.10924210792387178 -0.06164231413535067
-0.10802236641757257 0.10313169097724474 -0.042028377439790335
-0.1229652090683066 0.09166678973012277 -0.023411938404600364
-0.13544109148614591 0.0753834902224987 -0.006663481028380369
-0.14486665527517975 0.05504318144176159 0.0074338554365309785
-0.15080117154839465 0.03159695361986907 0.018220895205098616
-0.15296714892059618 0.006141126311162278 0.02519324828667793
-0.1512633086971711 -0.02013401429152364 0.028024895200388113
-0.14576932055328443 -0.0459998718163284 0.02658343128369357
-0.13674207726841503 -0.070246987513228 0.0209362577872669
-0.12460368270550312 -0.09174159320096896 0.01134743026741845
-0.10992171470345383 -0.10947862500713092 -0.0017346883582400078
-0.09338268576820756 -0.12262871903775262 -0.017698392762503266
-0.07575994251096606 -0.13057699151124205 -0.03579723786981104
-0.05787750482016555 -0.1329517900406092 -0.05518494179836722
-0.04057153560732587 -0.12964207168601982 -0.07495495706035778
-0.024651242758636116 -0.12080259519924684 -0.0941828597149258
-0.01086104147356641 -0.10684668467643925 -0.11196957440422256
0.0001542537625014031 -0.08842690298276298 -0.12748341411789016
0.007879579986950047 -0.06640453863809741 -0.13999896895331188
0.02793844779540361 -0.0631528357047619 -0.1218957775861437
0.032012577340061285 -0.038557629989763594 -0.13082783410925533
0.03224500843548957 -0.012539627388058073 -0.135758739284304
0.028624872861994846 0.013684599215631903 -0.13645792946561192
0.021321444135502035 0.03888883413145219 -0.13289271129739516
0.010676222466083895 0.06189455534723425 -0.12522979041874419
-0.002813033412311669 0.08162604090795078 -0.11382747649321986
-0.018515580887042013 0.09716066847875368 -0.09921892904721798
-0.03569718629031677 0.1077720561399308 -0.08208722752307925
-0.05355445684946168 0.11296402719815571 -0.0632334312435537
-0.07125240644006182 0.11249381085720725 -0.04353912276818248
-0.087963498609119 0.10638339391058022 -0.02392518607262215
-0.10290634125985304 0.09491849266345824 -0.005308747037432174
-0.11538222367769237 0.07863519315583417 0.011439710338787821
-0.1248077874667262 0.05829488437509706 0.025537046803699167
-0.13074230373994108 0.03484865655320454 0.03632408657226681
-0.13290828111214262 0.00939282924449775 0.04329643965384612
-0.13120444088871755 -0.016882311358188167 0.046128086567556306
-0.12571045274483086 -0.042748168882992925 0.04468662265086176
-0.11668320945996148 -0.06699528457989253 0.039039449154435094
-0.10454481489704956 -0.08848989026763349 0.02945062163458664
-0.08986284689500026 -0.10622692207379544 0.01636850300892818
-0.073323817959754 -0.11937701610441714 0.00040479860466492457
-0.055701074702512496 -0.1273252885779066 -0.01769404650264285
-0.03781863701171199 -0.12970008710727374 -0.03708175043119903
-0.020512667798872307 -0.12639036875268436 -0.05685176569318959
-0.004592374950182553 -0.11755089226591137 -0.07607966834775762
0.009197826334887154 -0.10359498174310378 -0.09386638303705437
0.020213121570954964 -0.08517520004942751 -0.10938022275072197
0.02793844779540361 -0.06315283570476193 -0.12189577758614369
0.047997315603857185 -0.059901132771426426 -0.10379258621897551
0.05207144514851486 -0.03530592705642812 -0.11272464274208714
0.05230387624394314 -0.009287924454722598 -0.1176555479171358
0.04868374067044842 0.016936302148967377 -0.11835473809844371
0.04138031194395561 0.04214053706478766 -0.11478951993022696
0.030735090274537465 0.06514625828056972 -0.10712659905157598
0.017245834396141902 0.08487774384128625 -0.09572428512605168
0.0015432869214115608 0.10041237141208915 -0.08111573768004979
-0.015638318481863197 0.11102375907326627 -0.06398403615591106
-0.03349558904100811 0.11621573013149118 -0.0451302398763855
-0.051193538631608256 0.11574551379054272 -0.025435931401014286
-0.06790463080066543 0.10963509684391569 -0.005821994705453949
-0.08284747345139946 0.09817019559679371 0.012794444329736025
-0.09532335586923879 0.08188689608916964 0.02954290170595602
-0.10474891965827263 0.061546587308432536 0.04364023817086737
-0.11068343593148752 0.03810035948654002 0.054427277939435005
-0.11284941330368904 0.012644532177833226 0.06139963102101432
-0.11114557308026397 -0.013630608424852692 0.0642312779347245
-0.1056515849363773 -0.03949646594965745 0.06278981401802995
-0.0966243416515079 -0.06374358164655705 0.05714264052160329
-0.08448594708859598 -0.08523818733429801 0.04755381300175484
-0.06980397908654669 -0.10297521914045997 0.03447169437609638
-0.05326495015130042 -0.11612531317108167 0.018507989971833123
-0.03564220689405893 -0.12407358564457112 0.0004091448645253506
-0.017759769203258415 -0.12644838417393825 -0.018978559064030835
-0.000453799990418733 -0.12313866581934889 -0.03874857432602139
0.01546649285827102 -0.11429918933257589 -0.05797647698058942
0.029256694143340724 -0.1003432788097683 -0.07576319166988617
0.04027198937940854 -0.08192349711609204 -0.09127703138355378
0.047997315603857185 -0.05990113277142645 -0.1037925862189755
0.06805618341231076 -0.05664942983809095 -0.08568939485180731
0.07213031295696844 -0.032054224123092646 -0.09462145137491894
0.07236274405239672 -0.006036221521387123 -0.0995523565499676
0.068742608478902 0.020188005082302854 -0.10025154673127551
0.06143917975240918 0.045392239998123134 -0.09668632856305875
0.05079395808299104 0.06839796121390519 -0.08902340768440778
0.037304702204595475 0.08812944677462173 -0.07762109375888347
0.021602154729865132 0.10366407434542463 -0.06301254631288158
0.004420549326590377 0.11427546200660174 -0.04588084478874285
-0.013436721232554539 0.11946743306482666 -0.0270270485092173
-0.031134670823154686 0.1189972167238782 -0.007332740033846087
-0.04784576299221186 0.11288679977725116 0.012281196661714249
-0.06278860564294589 0.10142189853012919 0.030897635696904225
-0.07526448806078521 0.08513859902250512 0.047646093073124215
-0.08469005184981905 0.064798290241768 0.06174342953803556
-0.09062456812303395 0.04135206241987549 0.0725304693066032
-0.09279054549523547 0.0158962351111687 0.07950282238818251
-0.0910867052718104 -0.010378905491517217 0.0823344693018927
-0.08559271712792373 -0.03624476301632198 0.08089300538519816
-0.07656547384305433 -0.06049187871322158 0.07524583188877149
-0.06442707928014241 -0.08198648440096254 0.06565700436892304
-0.04974511127809312 -0.0997235162071245 0.05257488574326458
-0.03320608234284685 -0.1128736102377462 0.03661118133900132
-0.015583339085605353 -0.12082188271123565 0.01851233623169355
0.002299098605195159 -0.12319668124060279 -0.0008753676968626367
0.019605067818034838 -0.11988696288601342 -0.02064538295885319
0.03552536066672459 -0.11104748639924042 -0.03987328561342122
0.0493155619517943 -0.09709157587643283 -0.05766000030271797
0.06033085718786211 -0.07867179418275656 -0.07317384001638558
0.06805618341231076 -0.05664942983809098 -0.0856893948518073
0.08811505122076432 -0.05339772690475548 -0.0675862034846391
0.092189180765422 -0.02880252118975717 -0.07651826000775074
0.09242161186085028 -0.0027845185880516483 -0.08144916518279939
0.08880147628735556 0.023439708015638328 -0.0821483553641073
0.08149804756086275 0.04864394293145861 -0.07858313719589055
0.0708528258914446 0.07164966414724068 -0.07092021631723958
0.05736357001304905 0.09138114970795722 -0.05951790239171527
0.04166102253831871 0.10691577727876012 -0.04490935494571338
0.02447941713504395 0.11752716493993723 -0.027777653421574653
0.006622146575899034 0.12271913599816214 -0.008923857142049104
-0.011075803014701112 0.12224891965721368 0.010770451333322112
-0.027786895183758285 0.11613850271058665 0.030384388028882447
-0.04272973783449232 0.10467360146346467 0.049000827064072425
-0.055205620252331646 0.0883903019558406 0.06574928444029242
-0.06463118404136549 0.06804999317510349 0.07984662090520377
-0.07056570031458038 0.044603765353210964 0.0906336606737714
-0.0727316776867819 0.019147938044504174 0.09760601375535072
-0.07102783746335684 -0.007127202558181742 0.1004376606690609
-0.06553384931947016 -0.032993060082986504 0.09899619675236636
-0.05650660603460076 -0.057240175779886104 0.09334902325593969
-0.04436821147168884 -0.07873478146762705 0.08376019573609124
-0.029686243469639544 -0.09647181327378901 0.07067807711043278
-0.013147214534393279 -0.10962190730441071 0.05471437270616952
0.00447552872284822 -0.11757017977790016 0.03661552759886175
0.022357966413648733 -0.1199449783072673 0.01722782367030556
0.039663935626488414 -0.11663525995267793 -0.002542191591684994
0.05558422847517817 -0.10779578346590493 -0.02177009424625302
0.06937442976024787 -0.09383987294309734 -0.03955680893554977
0.08038972499631568 -0.07542009124942108 -0.055070648649217374
0.08811505122076432 -0.053397726904755506 -0.06758620348463909
0.10817391902921789 -0.050146023971420005 -0.049483012117470915
0.11224804857387556 -0.025550818256421696 -0.058415068640582546
0.11248047966930384 0.00046718434528382507 -0.0633459738156312
0.10886034409580912 0.0266914109489738 -0.06404516399693912
0.10155691536931631 0.05189564586479408 -0.06047994582872236
0.09091169369989817 0.07490136708057615 -0.05281702495007139
0.07742243782150261 0.09463285264129269 -0.04141471102454708
0.06171989034677227 0.11016748021209559 -0.026806163578545195
0.044538284943497514 0.1207788678732727 -0.009674462054406462
0.026681014384352598 0.1259708389314976 0.009179334225119086
0.00898306479375245 0.12550062259054914 0.0288736427004903
-0.007728027375304724 0.11939020564392212 0.04848757939605064
-0.022670870026038757 0.10792530439680015 0.06710401843124061
-0.03514675244387808 0.09164200488917608 0.08385247580746061
-0.04457231623291192 0.07130169610843896 0.09794981227237196
-0.050506832506126816 0.04785546828654644 0.1087368520409396
-0.052672809878328335 0.022399640977839648 0.11570920512251891
-0.050968969654903266 -0.003875499624846269 0.11854085203622909
-0.045474981511016595 -0.02974135714965103 0.11709938811953455
-0.0364477382261472 -0.05398847284655063 0.11145221462310788
-0.024309343663235276 -0.07548307853429158 0.10186338710325943
-0.009627375661185983 -0.09322011034045354 0.08878126847760097
0.006911653274060284 -0.10637020437107524 0.07281756407333771
0.024534396531301784 -0.11431847684456468 0.054718718966029936
0.042416834222102295 -0.11669327537393183 0.035331015037473754
0.059722803434941976 -0.11338355701934245 0.015560999775483196
0.07564309628363172 -0.10454408053256946 -0.003666902879084831
0.08943329756870143 -0.09058817000976187 -0.021453617568381583
0.10044859280476924 -0.0721683883160856 -0.036967457282049185
0.10817391902921789 -0.05014602397142003 -0.0494830121174709
0.12823278683767148 -0.04689432103808453 -0.03137982075030272
0.13230691638232914 -0.022299115323086222 -0.04031187727341435
0.13253934747775742 0.0037188872786193 -0.045242782448463005
0.1289192119042627 0.029943113882309275 -0.04594197262977092
0.12161578317776989 0.055147348798129554 -0.042376754461554166
0.11097056150835174 0.07815307001391163 -0.03471383358290319
0.09748130562995619 0.09788455557462816 -0.023311519657378883
0.08177875815522584 0.11341918314543106 -0.008702972211376996
0.06459715275195109 0.12403057080660818 0.008428729312761736
0.04673988219280617 0.1292225418648331 0.027282525592287284
0.029041932602206024 0.12875232552388463 0.0469768340676585
0.012330840433148848 0.1226419085772576 0.06659077076321884
-0.0026120022175851855 0.11117700733013562 0.08520720979840882
-0.015087884635424513 0.09489370782251155 0.10195566717462881
-0.024513448424458347 0.07455339904177444 0.11605300363954016
-0.030447964697673243 0.05110717121988191 0.12684004340810778
-0.032613942069874766 0.02565134391117512 0.1338123964896871
-0.030910101846449694 -0.0006237966915107943 0.13664404340339728
-0.025416113702563022 -0.026489654216315557 0.13520257948670275
-0.016388870417693626 -0.05073676991321516 0.12955540599027607
-0.004250475854781705 -0.0722313756009561 0.11996657847042763
0.01043149214726759 -0.08996840740711806 0.10688445984476917
0.026970521082513858 -0.10311850143773976 0.09092075544050592
0.044593264339755356 -0.11106677391122921 0.07282191033319814
0.062475702030555864 -0.11344157244059636 0.05343420640464195
0.07978167124339555 -0.11013185408600698 0.033664191142651394
0.0957019640920853 -0.10129237759923398 0.014436288488083367
0.109492165377155 -0.0873364670764264 -0.0033504262012133824
0.12050746061322282 -0.06891668538275013 -0.01886426591488099
0.12823278683767148 -0.04689432103808456 -0.031379820750302705
0.14829165464612504 -0.04364261810474906 -0.013276629383134519
0.1523657841907827 -0.019047412389750745 -0.02220868590624615
0.15259821528621098 0.0069705902119547745 -0.027139591081294805
0.14897807971271626 0.03319481681564475 -0.02783878126260272
0.14167465098622345 0.05839905173146503 -0.024273563094385966
0.1310294293168053 0.0814047729472471 -0.01661064221573499
0.11754017343840975 0.10113625850796364 -0.005208328290210684
0.10183762596367942 0.11667088607876654 0.009400219155791204
0.08465602056040465 0.12728227373994364 0.026531920679929936
0.06679875000125975 0.13247424479816855 0.04538571695945548
0.0491008004106596 0.1320040284572201 0.0650800254348267
0.03238970824160242 0.12589361151059306 0.08469396213038703
0.017446865590868388 0.1144287102634711 0.103310401165577
0.004970983173029061 0.09814541075584703 0.120058858541797
-0.0044545806160047755 0.07780510197510991 0.13415619500670836
-0.01038909688921967 0.054358874153217385 0.144943234775276
-0.01255507426142119 0.0289030468445106 0.1519155878568553
-0.010851234037996121 0.0026279062418246807 0.15474723477056548
-0.005357245894109451 -0.02323795128298008 0.15330577085387095
0.0036699973907599456 -0.047485066979879684 0.14765859735744427
0.01580839195367187 -0.06897967266762063 0.13806976983759583
0.030490359955721164 -0.08671670447378259 0.12498765121193736
0.04702938889096743 -0.09986679850440429 0.1090239468076741
0.06465213214820893 -0.10781507097789374 0.09092510170036633
0.08253456983900943 -0.11018986950726088 0.07153739777181015
0.09984053905184911 -0.10688015115267151 0.05176738250981959
0.11576083190053887 -0.09804067466589851 0.03253947985525157
0.12955103318560857 -0.08408476414309092 0.014752765165954817
0.14056632842167638 -0.06566498244941466 -0.0007610745477127895
0.14829165464612504 -0.043642618104749085 -0.013276629383134505
0.1683505224545786 -0.04039091517141358 0.004826561984033679
0.1724246519992363 -0.01579570945641527 -0.004105494539077952
0.17265708309466457 0.010222293145290249 -0.009036399714126607
0.16903694752116985 0.03644651974898023 -0.009735589895434523
0.16173351879467704 0.06165075466480051 -0.006170371727217768
0.1510882971252589 0.08465647588058257 0.001492549151433207
0.13759904124686334 0.10438796144129911 0.012894863076957514
0.12189649377213299 0.11992258901210201 0.0275034105229594
0.10471488836885823 0.13053397667327912 0.044635112047098136
0.08685761780971331 0.13572594773150404 0.06348890832662368
0.06915966821911317 0.13525573139055558 0.08318321680199489
0.05244857605005599 0.12914531444392854 0.10279715349755524
0.03750573339932196 0.11768041319680657 0.12141359253274521
0.025029850981482634 0.1013971136891825 0.1381620499089652
0.015604287192448798 0.08105680490844538 0.15225938637387654
0.009669770919233902 0.057610577086552865 0.1630464261424442
0.007503793547032382 0.032154749777846076 0.1700187792240235
0.009207633770457451 0.0058796091751601555 0.1728504261377337
0.014701621914344123 -0.019986248349644607 0.17140896222103913
0.02372886519921352 -0.0442333640465442 0.16576178872461247
0.03586725976212544 -0.06572796973428516 0.156172961204764
0.05054922776417473 -0.08346500154044711 0.14309084257910556
0.067088256699421 -0.09661509557106882 0.1271271381748423
0.0847109999566625 -0.10456336804455826 0.10902829306753453
0.10259343764746301 -0.10693816657392541 0.08964058913897835
0.11989940686030269 -0.10362844821933603 0.0698705738769878
0.13581969970899244 -0.09478897173256304 0.05064267122241976
0.14960990099406216 -0.08083306120975545 0.03285595653312302
0.16062519623012997 -0.06241327951607918 0.017342116819455407
0.1683505224545786 -0.040390915171413605 0.004826561984033693
-0.09026490513804107 -0.014632663200009634 -0.08146436115225689
-0.08158872543620356 -0.02074639413016777 -0.08997967217094835
-0.07291254573436606 -0.026860125060325906 -0.09849498318963981
-0.06423636603252855 -0.03297385599048404 -0.10701029420833129
-0.05556018633069105 -0.039087586920642174 -0.11552560522702275
-0.04688400662885354 -0.04520131785080031 -0.12404091624571423
-0.03820782692701604 -0.051315048780958446 -0.1325562272644057
-0.02953164722517854 -0.05742877971111658 -0.14107153828309715
-0.020855467523341036 -0.06354251064127471 -0.14958684930178862
-0.012179287821503525 -0.06965624157143285 -0.15810216032048008
-0.09026490513804107 -0.014632663200009634 -0.08146436115225689
-0.08106869459019156 -0.016503305442295405 -0.09131802701887703
-0.07187248404234203 -0.018373947684581175 -0.1011716928854972
-0.06267627349449253 -0.020244589926866938 -0.11102535875211735
-0.05348006294664301 -0.02211523216915271 -0.1208790246187375
-0.0442838523987935 -0.02398587441143848 -0.13073269048535766
-0.03508764185094399 -0.02585651665372424 -0.1405863563519778
-0.02589143130309447 -0.027727158896010018 -0.15044002221859795
-0.016695220755244957 -0.029597801138295788 -0.1602936880852181
-0.007499010207395444 -0.03146844338058156 -0.17014735395183828
-0.09026490513804107 -0.014632663200009634 -0.08146436115225689
-0.08154521585094796 -0.01205750364146633 -0.09158858427477816
-0.07282552656385484 -0.009482344082923026 -0.10171280739729942
-0.06410583727676172 -0.006907184524379721 -0.11183703051982069
-0.0553861479896686 -0.004332024965836419 -0.12196125364234196
-0.04666645870257549 -0.0017568654072931268 -0.13208547676486324
-0.03794676941548238 0.0008182941512501929 -0.1422096998873845
-0.02922708012838927 0.003393453709793481 -0.15233392300990575
-0.02050739084129614 0.0059686132683367974 -0.16245814613242704
-0.011787701554203039 0.0085437728268801 -0.1725823692549483
-0.09026490513804107 -0.014632663200009634 -0.08146436115225689
-0.08296665074588061 -0.007890760336522968 -0.09076202486184644
-0.07566839635372016 -0.0011488574730362997 -0.10005968857143599
-0.0683701419615597 0.0055930453904503704 -0.10935735228102554
-0.06107188756939925 0.012334948253937036 -0.11865501599061509
-0.053773633177238794 0.019076851117423705 -0.12795267970020466
-0.04647537878507834 0.025818753980910377 -0.1372503434097942
-0.039177124392917886 0.032560656844397046 -0.14654800711938376
-0.03187887000075743 0.039302559707883704 -0.1558456708289733
-0.024580615608596975 0.04604446257137039 -0.16514333453856286
-0.09026490513804107 -0.014632663200009634 -0.08146436115225689
-0.08517896474828869 -0.004454606818239794 -0.08892791931786379
-0.08009302435853632 0.005723449563530047 -0.09639147748347067
-0.07500708396878396 0.01590150594529989 -0.10385503564907757
-0.06992114357903159 0.02607956232706973 -0.11131859381468447
-0.06483520318927921 0.036257618708839576 -0.11878215198029136
-0.05974926279952685 0.04643567509060941 -0.12624571014589825
-0.05466332240977448 0.05661373147237925 -0.13370926831150515
-0.049577382020022105 0.06679178785414909 -0.14117282647711205
-0.04449144163026974 0.07696984423591893 -0.14863638464271894
-0.09026490513804107 -0.014632663200009634 -0.08146436115225689
-0.08794241930842264 -0.002121403637738116 -0.08628502143760046
-0.08561993347880423 0.010389855924533405 -0.09110568172294403
-0.08329744764918581 0.022901115486804926 -0.09592634200828759
-0.08097496181956738 0.03541237504907644 -0.10074700229363116
-0.07865247598994897 0.04792363461134795 -0.10556766257897474
-0.07632999016033054 0.06043489417361948 -0.11038832286431831
-0.07400750433071213 0.072946153735891 -0.11520898314966188
-0.0716850185010937 0.08545741329816252 -0.12002964343500545
-0.06936253267147528 0.09796867286043402 -0.12485030372034903
-0.09026490513804107 -0.014632663200009634 -0.08146436115225689
-0.09095755124527642 -0.001143989563002801 -0.0831197302151689
-0.09165019735251179 0.012344684074004034 -0.0847750992780809
-0.09234284345974715 0.02583335771101086 -0.08643046834099291
-0.0930354895669825 0.0393220313480177 -0.08808583740390492
-0.09372813567421787 0.052810704985024534 -0.08974120646681694
-0.09442078178145322 0.06629937862203135 -0.09139657552972894
-0.09511342788868858 0.0797880522590382 -0.09305194459264095
-0.09580607399592393 0.09327672589604503 -0.09470731365555296
-0.0964987201031593 0.10676539953305188 -0.09636268271846496
-0.09026490513804107 -0.014632663200009634 -0.08146436115225689
-0.09389762422889955 -0.0016282825751734095 -0.07977505406907331
-0.09753034331975803 0.011376098049662817 -0.07808574698588974
-0.1011630624106165 0.02438047867449904 -0.07639643990270617
-0.10479578150147498 0.037384859299335264 -0.0747071328195226
-0.10842850059233347 0.05038923992417149 -0.07301782573633903
-0.11206121968319194 0.06339362054900771 -0.07132851865315545
-0.11569393877405042 0.07639800117384395 -0.06963921156997188
-0.1193266578649089 0.08940238179868017 -0.06794990448678831
-0.12295937695576738 0.10240676242351639 -0.06626059740360474
-0.09026490513804107 -0.014632663200009634 -0.08146436115225689
-0.09644403573158372 -0.0035218020118009197 -0.07661344055774082
-0.10262316632512637 0.007589059176407796 -0.07176251996322475
-0.10880229691866902 0.018699920364616502 -0.06691159936870868
-0.11498142751221167 0.029810781552825228 -0.0620606787741926
-0.12116055810575432 0.04092164274103394 -0.05720975817967654
-0.12733968869929696 0.052032503929242635 -0.05235883758516047
-0.13351881929283962 0.06314336511745136 -0.04750791699064439
-0.1396979498863823 0.07425422630566009 -0.04265699639612832
-0.14587708047992493 0.08536508749386879 -0.03780607580161226
-0.09026490513804107 -0.014632663200009634 -0.08146436115225689
-0.09832084255536762 -0.006619355660945454 -0.07397749956261247
-0.10637677997269417 0.0013939518781187273 -0.06649063797296806
-0.11443271739002071 0.009407259417182904 -0.05900377638332365
-0.12248865480734727 0.01742056695624709 -0.05151691479367924
-0.13054459222467382 0.02543387449531127 -0.04403005320403483
-0.13860052964200037 0.03344718203437544 -0.036543191614390416
-0.14665646705932692 0.04146048957343963 -0.02905633002474599
-0.15471240447665346 0.04947379711250381 -0.021569468435101585
-0.16276834189398004 0.05748710465156799 -0.014082606845457172
-0.09026490513804107 -0.014632663200009634 -0.08146436115225689
-0.09932466355923589 -0.010585275521225181 -0.07215287619134914
-0.1083844219804307 -0.006537887842440727 -0.0628413912304414
-0.11744418040162552 -0.002490500163656275 -0.053529906269533654
-0.12650393882282032 0.0015568875151281824 -0.04421842130862591
-0.13556369724401515 0.005604275193912637 -0.03490693634771816
-0.14462345566520995 0.009651662872697087 -0.02559545138681042
-0.15368321408640478 0.013699050551481542 -0.016283966425902668
-0.1627429725075996 0.017746438230266 -0.006972481464994932
-0.17180273092879442 0.021793825909050452 0.002339003495912805
-0.09026490513804107 -0.014632663200009634 -0.08146436115225689
-0.09934671916153166 -0.014989792638191723 -0.07133729669817589
-0.10842853318502227 -0.01534692207637381 -0.06121023224409489
-0.11751034720851287 -0.0157040515145559 -0.05108316779001389
-0.12659216123200348 -0.016061180952737987 -0.0409561033359329
-0.1356739752554941 -0.016418310390920083 -0.030829038881851897
-0.1447557892789847 -0.01677543982910217 -0.020701974427770903
-0.15383760330247528 -0.017132569267284254 -0.010574909973689912
-0.16291941732596588 -0.01748969870546634 -0.0004478455196089119
-0.1720012313494565 -0.017846828143648425 0.009679218934472102
-0.09026490513804107 -0.014632663200009634 -0.08146436115225689
-0.09838461929551831 -0.019355609239097044 -0.07161914177619776
-0.10650433345299554 -0.02407855527818445 -0.06177392240013864
-0.11462404761047278 -0.02880150131727186 -0.05192870302407952
-0.12274376176795002 -0.03352444735635927 -0.0420834836480204
-0.13086347592542727 -0.03824739339544667 -0.03223826427196128
-0.1389831900829045 -0.042970339434534086 -0.022393044895902162
-0.14710290424038172 -0.04769328547362149 -0.01254782551984304
-0.15522261839785897 -0.0524162315127089 -0.00270260614378391
-0.1633423325553362 -0.0571391775517963 0.007142613232275207
-0.09026490513804107 -0.014632663200009634 -0.08146436115225689
-0.09654262241019589 -0.023209621352608734 -0.07296786913793411
-0.10282033968235071 -0.03178657950520783 -0.06447137712361135
-0.10909805695450553 -0.040363537657806925 -0.05597488510928859
-0.11537577422666036 -0.04894049581040603 -0.04747839309496582
-0.12165349149881519 -0.05751745396300514 -0.03898190108064305
-0.12793120877097 -0.06609441211560421 -0.030485409066320284
-0.13420892604312482 -0.07467137026820332 -0.021988917051997518
-0.14048664331527966 -0.08324832842080242 -0.013492425037674753
-0.14676436058743447 -0.09182528657340151 -0.004995933023351979
-0.09026490513804107 -0.014632663200009634 -0.08146436115225689
-0.09402033744961565 -0.026134186965068328 -0.07523732324607955
-0.09777576976119022 -0.037635710730127024 -0.06901028533990221
-0.1015312020727648 -0.049137234495185714 -0.06278324743372488
-0.10528663438433937 -0.06063875826024441 -0.056556209527547543
-0.10904206669591394 -0.07214028202530309 -0.05032917162137021
-0.11279749900748852 -0.08364180579036179 -0.04410213371519287
-0.11655293131906311 -0.09514332955542049 -0.03787509580901554
-0.12030836363063768 -0.10664485332047918 -0.03164805790283821
-0.12406379594221226 -0.11814637708553787 -0.025421019996660865
-0.09026490513804107 -0.014632663200009634 -0.08146436115225689
-0.09109109312654005 -0.027812384013054758 -0.07818157353380777
-0.09191728111503904 -0.040992104826099884 -0.07489878591535865
-0.09274346910353802 -0.05417182563914501 -0.07161599829690952
-0.093569657092037 -0.06735154645219013 -0.0683332106784604
-0.094395845080536 -0.08053126726523525 -0.06505042306001128
-0.09522203306903498 -0.09371098807828038 -0.06176763544156218
-0.09604822105753397 -0.1068907088913255 -0.05848484782311305
-0.09687440904603295 -0.12007042970437062 -0.05520206020466393
-0.09770059703453193 -0.13325015051741573 -0.051919272586214815
-0.09026490513804107 -0.014632663200009634 -0.08146436115225689
-0.0880723185152831 -0.02806235380650851 -0.08148156479769314
-0.08587973189252514 -0.04149204441300739 -0.0814987684431294
-0.08368714526976717 -0.05492173501950627 -0.08151597208856565
-0.08149455864700922 -0.06835142562600514 -0.08153317573400189
-0.07930197202425125 -0.08178111623250403 -0.08155037937943815
-0.07710938540149329 -0.0952108068390029 -0.08156758302487441
-0.07491679877873532 -0.10864049744550178 -0.08158478667031065
-0.07272421215597737 -0.12207018805200065 -0.0816019903157469
-0.07053162553321939 -0.13549987865849952 -0.08161919396118315
-0.09026490513804107 -0.014632663200009634 -0.08146436115225689
-0.08529114468608878 -0.026857008239627892 -0.08477969177965343
-0.08031738423413651 -0.03908135327924615 -0.08809502240704997
-0.07534362378218423 -0.05130569831886442 -0.09141035303444651
-0.07036986333023194 -0.06353004335848267 -0.09472568366184306
-0.06539610287827967 -0.07575438839810093 -0.0980410142892396
-0.060422342426327394 -0.0879787334377192 -0.10135634491663614
-0.055448581974375105 -0.10020307847733745 -0.10467167554403269
-0.05047482152242282 -0.1124274235169557 -0.10798700617142923
-0.04550106107047055 -0.12465176855657398 -0.11130233679882577
-0.09026490513804107 -0.014632663200009634 -0.08146436115225689
-0.08304895497770862 -0.024326965207447915 -0.0877185512454803
-0.07583300481737616 -0.0340212672148862 -0.09397274133870372
-0.06861705465704371 -0.043715569222324474 -0.10022693143192712
-0.061401104496711253 -0.05340987122976276 -0.10648112152515055
-0.054185154336378806 -0.06310417323720104 -0.11273531161837395
-0.04696920417604636 -0.07279847524463931 -0.11898950171159736
-0.0397532540157139 -0.0824927772520776 -0.12524369180482078
-0.03253730385538144 -0.09218707925951589 -0.1314978818980442
-0.025321353695048992 -0.10188138126695416 -0.13775207199126763
-0.09026490513804107 -0.014632663200009634 -0.08146436115225689
-0.08158872543620356 -0.020746394130167774 -0.08997967217094835
-0.07291254573436606 -0.02686012506032591 -0.09849498318963981
-0.06423636603252855 -0.03297385599048405 -0.10701029420833127
-0.05556018633069105 -0.03908758692064219 -0.11552560522702274
-0.046884006628853545 -0.045201317850800324 -0.12404091624571421
-0.03820782692701605 -0.05131504878095847 -0.13255622726440566
-0.029531647225178547 -0.0574287797111166 -0.14107153828309715
-0.020855467523341036 -0.06354251064127474 -0.1495868493017886
-0.012179287821503525 -0.06965624157143288 -0.15810216032048008
0.09026490513804107 0.014632663200009634 0.08146436115225689
0.09894108483987857 0.0085189322698515 0.07294905013356542
0.10761726454171608 0.0024052013396933655 0.06443373911487395
0.11629344424355358 -0.0037085295904647686 0.055918428096182485
0.12496962394539109 -0.009822260520622905 0.04740311707749102
0.13364580364722858 -0.01593599145078104 0.038887806058799546
0.1423219833490661 -0.022049722380939173 0.030372495040108086
0.1509981630509036 -0.02816345331109731 0.021857184021416617
0.1596743427527411 -0.03427718424125544 0.013341873002725156
0.1683505224545786 -0.04039091517141358 0.004826561984033679
0.09026490513804107 0.014632663200009634 0.08146436115225689
0.09946111568589058 0.012762020957723866 0.07161069528563672
0.1086573262337401 0.010891378715438096 0.061757029419016576
0.11785353678158961 0.009020736473152331 0.05190336355239643
0.12704974732943913 0.007150094230866559 0.04204969768577627
0.13624595787728863 0.0052794519885807885 0.03219603181915612
0.14544216842513813 0.003408809746295029 0.022342365952535966
0.15463837897298766 0.0015381675040092517 0.012488700085915806
0.16383458952083718 -0.00033247473827651834 0.0026350342192956577
0.17303080006868668 -0.0022031169805622848 -0.007218631647324504
0.09026490513804107 0.014632663200009634 0.08146436115225689
0.09898459442513419 0.01720782275855294 0.07134013802973561
0.1077042837122273 0.019782982317096243 0.06121591490721435
0.1164239729993204 0.02235814187563955 0.05109169178469308
0.12514366228641352 0.02493330143418285 0.04096746866217181
0.13386335157350665 0.027508460992726143 0.03084324553965054
0.14258304086059975 0.030083620551269463 0.020719022417129276
0.15130273014769285 0.032658780109812754 0.010594799294608005
0.16002241943478598 0.03523393966835607 0.00047057617208673224
0.16874210872187909 0.03780909922689937 -0.00965364695043454
0.09026490513804107 0.014632663200009634 0.08146436115225689
0.09756315953020152 0.021374566063496303 0.07216669744266734
0.10486141392236198 0.02811646892698297 0.06286903373307778
0.11215966831452243 0.03485837179046964 0.053571370023488225
0.11945792270668289 0.041600274653956305 0.044273706313898674
0.12675617709884335 0.04834217751744298 0.034976042604309115
0.1340544314910038 0.05508408038092965 0.02567837889471956
0.14135268588316424 0.06182598324441632 0.01638071518513001
0.1486509402753247 0.06856788610790297 0.007083051475540459
0.15594919466748516 0.07530978897138967 -0.002214612234049092
0.09026490513804107 0.014632663200009634 0.08146436115225689
0.09535084552779344 0.024810719581779477 0.07400080298664999
0.1004367859175458 0.034988775963549316 0.06653724482104309
0.10552272630729817 0.04516683234531916 0.0590736866554362
0.11060866669705055 0.055344888727089 0.05161012848982931
0.11569460708680292 0.06552294510885885 0.04414657032422241
0.12078054747655528 0.07570100149062868 0.03668301215861552
0.12586648786630766 0.08587905787239852 0.029219453993008623
0.13095242825606002 0.09605711425416837 0.021755895827401724
0.1360383686458124 0.10623517063593821 0.014292337661794828
0.09026490513804107 0.014632663200009634 0.08146436115225689
0.09258739096765949 0.027143922762281156 0.07664370086691331
0.09490987679727791 0.039655182324552674 0.07182304058156974
0.09723236262689633 0.0521664418868242 0.06700238029622617
0.09955484845651474 0.06467770144909571 0.0621817200108826
0.10187733428613317 0.07718896101136723 0.05736105972553904
0.10419982011575159 0.08970022057363876 0.05254039944019546
0.10652230594537002 0.10221148013591028 0.04771973915485189
0.10884479177498843 0.1147227396981818 0.04289907886950832
0.11116727760460685 0.12723399926045328 0.03807841858416475
0.09026490513804107 0.014632663200009634 0.08146436115225689
0.0895722590308057 0.02812133683701647 0.07980899208934487
0.08887961292357036 0.0416100104740233 0.07815362302643286
0.08818696681633499 0.05509868411103013 0.07649825396352086
0.08749432070909963 0.06858735774803697 0.07484288490060885
0.08680167460186428 0.08207603138504381 0.07318751583769684
0.08610902849462891 0.09556470502205063 0.07153214677478484
0.08541638238739355 0.10905337865905748 0.06987677771187283
0.0847237362801582 0.12254205229606431 0.06822140864896081
0.08403109017292283 0.13603072593307114 0.0665660395860488
0.09026490513804107 0.014632663200009634 0.08146436115225689
0.08663218604718259 0.027637043824845862 0.08315366823544046
0.08299946695632411 0.040641424449682086 0.08484297531862403
0.07936674786546563 0.05364580507451831 0.0865322824018076
0.07573402877460715 0.06665018569935453 0.08822158948499118
0.07210130968374867 0.07965456632419077 0.08991089656817475
0.06846859059289019 0.09265894694902699 0.09160020365135832
0.06483587150203171 0.10566332757386322 0.09328951073454188
0.06120315241117324 0.11866770819869944 0.09497881781772545
0.05757043332031475 0.13167208882353565 0.09666812490090902
0.09026490513804107 0.014632663200009634 0.08146436115225689
0.08408577454449842 0.02574352438821835 0.08631528174677296
0.07790664395095577 0.03685438557642707 0.09116620234128903
0.07172751335741312 0.047965246764635774 0.0960171229358051
0.06554838276387046 0.0590761079528445 0.10086804353032117
0.05936925217032781 0.07018696914105321 0.10571896412483724
0.05319012157678516 0.08129783032926191 0.1105698847193533
0.047010990983242504 0.09240869151747064 0.11542080531386938
0.04083186038969985 0.10351955270567936 0.12027172590838545
0.03465272979615721 0.11463041389388806 0.1251226465029015
0.09026490513804107 0.014632663200009634 0.08146436115225689
0.08220896772071451 0.022645970739073817 0.0889512227419013
0.07415303030338796 0.030659278278137997 0.09643808433154571
0.06609709288606141 0.038672585817202176 0.10392494592119011
0.05804115546873486 0.04668589335626636 0.11141180751083453
0.04998521805140831 0.05469920089533054 0.11889866910047894
0.041929280634081766 0.06271250843439471 0.12638553069012334
0.033873343216755204 0.07072581597345891 0.13387239227976777
0.02581740579942866 0.07873912351252309 0.14135925386941217
0.0177614683821021 0.08675243105158727 0.1488461154590566
0.09026490513804107 0.014632663200009634 0.08146436115225689
0.08120514671684625 0.01868005087879409 0.09077584611316462
0.07214538829565144 0.022727438557578545 0.10008733107407237
0.06308562987445662 0.026774826236362997 0.10939881603498011
0.0540258714532618 0.030822213915147452 0.11871030099588786
0.04496611303206698 0.03486960159393191 0.12802178595679561
0.03590635461087217 0.038916989272716355 0.13733327091770334
0.026846596189677354 0.042964376951500814 0.1466447558786111
0.017786837768482538 0.04701176463028527 0.15595624083951884
0.008727079347287722 0.051059152309069725 0.16526772580042656
0.09026490513804107 0.014632663200009634 0.08146436115225689
0.08118309111455047 0.014275533761827547 0.09159142560633789
0.07210127709105986 0.013918404323645458 0.10171849006041887
0.06301946306756925 0.013561274885463367 0.11184555451449987
0.053937649044078655 0.013204145447281282 0.12197261896858087
0.04485583502058804 0.012847016009099186 0.13209968342266187
0.03577402099709744 0.0124898865709171 0.14222674787674286
0.026692206973606854 0.012132757132735015 0.15235381233082385
0.01761039295011625 0.01177562769455293 0.16248087678490486
0.008528578926625629 0.011418498256370844 0.17260794123898587
0.09026490513804107 0.014632663200009634 0.08146436115225689
0.08214519098056383 0.009909717160922227 0.091309580528316
0.07402547682308659 0.005186771121834821 0.10115479990437513
0.06590576266560935 0.00046382508274741137 0.11100001928043425
0.05778604850813211 -0.004259120956339994 0.12084523865649337
0.04966633435065487 -0.0089820669954274 0.1306904580325525
0.04154662019317764 -0.013705013034514813 0.14053567740861161
0.0334269060357004 -0.01842795907360222 0.15038089678467073
0.025307191878223164 -0.023150905112689624 0.16022611616072985
0.017187477720745924 -0.02787385115177703 0.17007133553678896
0.09026490513804107 0.014632663200009634 0.08146436115225689
0.08398718786588624 0.006055705047410538 0.08996085316657965
0.07770947059373143 -0.0025212531051885595 0.09845734518090242
0.0714317533215766 -0.011098211257787656 0.10695383719522518
0.06515403604942177 -0.019675169410386755 0.11545032920954795
0.05887631877726695 -0.028252127562985865 0.12394682122387073
0.05259860150511213 -0.03682908571558494 0.13244331323819347
0.046320884232957306 -0.04540604386818405 0.14093980525251626
0.040043166960802484 -0.05398300202078314 0.14943629726683902
0.033765449688647656 -0.06255996017338224 0.15793278928116178
0.09026490513804107 0.014632663200009634 0.08146436115225689
0.0865094728264665 0.0031311394349509422 0.08769139905843422
0.08275404051489191 -0.008370384330107752 0.09391843696461155
0.07899860820331733 -0.01987190809516644 0.1001454748707889
0.07524317589174276 -0.031373431860225134 0.10637251277696623
0.07148774358016818 -0.04287495562528382 0.11259955068314356
0.06773231126859361 -0.054376479390342514 0.1188265885893209
0.06397687895701903 -0.06587800315540121 0.12505362649549823
0.06022144664544445 -0.0773795269204599 0.13128066440167557
0.05646601433386988 -0.08888105068551859 0.1375077023078529
0.09026490513804107 0.014632663200009634 0.08146436115225689
0.08943871714954209 0.001452942386964512 0.08474714877070601
0.08861252916104309 -0.011726778426080612 0.08802993638915513
0.08778634117254411 -0.024906499239125735 0.09131272400760423
0.08696015318404512 -0.038086220052170855 0.09459551162605337
0.08613396519554614 -0.05126594086521598 0.09787829924450248
0.08530777720704716 -0.0644456616782611 0.1011610868629516
0.08448158921854816 -0.07762538249130622 0.10444387448140072
0.08365540123004918 -0.09080510330435135 0.10772666209984984
0.0828292132415502 -0.10398482411739647 0.11100944971829896
0.09026490513804107 0.014632663200009634 0.08146436115225689
0.09245749176079902 0.0012029725935107586 0.08144715750682063
0.09465007838355699 -0.012226718012988119 0.08142995386138438
0.09684266500631496 -0.025656408619487 0.08141275021594813
0.09903525162907292 -0.03908609922598587 0.08139554657051187
0.10122783825183089 -0.052515789832484755 0.08137834292507562
0.10342042487458886 -0.06594548043898363 0.08136113927963937
0.10561301149734681 -0.0793751710454825 0.08134393563420311
0.10780559812010478 -0.09280486165198137 0.08132673198876687
0.10999818474286274 -0.10623455225848025 0.0813095283433306
0.09026490513804107 0.014632663200009634 0.08146436115225689
0.09523866558999335 0.0024083181603913777 0.07814903052486034
0.10021242604194562 -0.00981602687922688 0.0748336998974638
0.1051861864938979 -0.022040371918845145 0.07151836927006726
0.11015994694585018 -0.03426471695846339 0.06820303864267072
0.11513370739780247 -0.04648906199808166 0.06488770801527417
0.12010746784975473 -0.05871340703769992 0.06157237738787763
0.12508122830170704 -0.07093775207731817 0.05825704676048108
0.1300549887536593 -0.08316209711693642 0.05494171613308454
0.1350287492056116 -0.0953864421565547 0.051626385505687995
0.09026490513804107 0.014632663200009634 0.08146436115225689
0.09748085529837353 0.004938361192571354 0.07521017105903346
0.10469680545870597 -0.004755940814866927 0.06895598096581006
0.11191275561903842 -0.014450242822305202 0.06270179087258665
0.11912870577937087 -0.02414454482974349 0.05644760077936323
0.12634465593970332 -0.03383884683718176 0.05019341068613981
0.13356060610003578 -0.043533148844620034 0.043939220592916405
0.14077655626036822 -0.05322745085205832 0.03768503049969298
0.1479925064207007 -0.06292175285949661 0.03143084040646957
0.15520845658103313 -0.07261605486693488 0.02517665031324615
0.09026490513804107 0.014632663200009634 0.08146436115225689
0.09894108483987857 0.008518932269851497 0.07294905013356542
0.10761726454171608 0.0024052013396933603 0.06443373911487396
0.11629344424355358 -0.003708529590464779 0.05591842809618249
0.12496962394539109 -0.009822260520622916 0.04740311707749103
0.13364580364722858 -0.015935991450781055 0.03888780605879955
0.1423219833490661 -0.022049722380939194 0.030372495040108093
0.15099816305090358 -0.02816345331109733 0.021857184021416624
0.1596743427527411 -0.03427718424125546 0.01334187300272517
0.1683505224545786 -0.040390915171413605 0.004826561984033693
