# .PCD v0.7 - Point Cloud Data file format
VERSION 0.7
FIELDS x y z
SIZE 4 4 4
TYPE F F F
COUNT 1 1 1
WIDTH 700
HEIGHT 1
VIEWPOINT 0 0 0 1 0 0 0
POINTS 700
DATA ascii
0.04806494704954657 -0.0207250791717387 -0.05670971191312423
0.046777291865164404 -0.009664820836986044 -0.06061547385585864
0.04301451013619306 0.000973397163759242 -0.06406687039746072
0.036952545354247725 0.010692143580312402 -0.06690251807159689
0.02887484825514221 0.019036980631846234 -0.06898982514462057
0.01915912297751517 0.02561771301245126 -0.07023119145767238
0.008259666037095385 0.03012663298996913 -0.07056857210163357
-0.0033138760734594363 0.03235290847755568 -0.06998619153256416
-0.015020337388127945 0.03219244130773892 -0.06851128121860435
-0.026312336786633493 0.029652734747032988 -0.06621280632678979
-0.03666187292725789 0.024852542651535397 -0.06319824098849039
-0.045585013002748795 0.01801631666860128 -0.05960854292847629
-0.052664520900534154 0.009463711127273173 -0.055611562438370905
-0.05756936669962139 -0.0004053636428747499 -0.05139419388356682
-0.060070205261789765 -0.01112944067427915 -0.04715363673041819
-0.06005010015535473 -0.022207074043907152 -0.043088174718365464
-0.057509991472747955 -0.033120285927300125 -0.039387904332655745
-0.05256865187284009 -0.04335878666595447 -0.03622584610396965
-0.045457132903418324 -0.05244383534460695 -0.03374985436070526
-0.03650796128760719 -0.05995062518435017 -0.03207570372491043
-0.0261395903438721 -0.0655281470354754 -0.03128167561963013
-0.014836833573925514 -0.06891560217519434 -0.031404897916568426
-0.0031281953222182324 -0.06995459696605967 -0.03243960887807223
0.008438841499816666 -0.06859654916641035 -0.03433742656958025
0.0193234151062189 -0.06490495958199624 -0.03700961114511044
0.02901657493248778 -0.059052442838877395 -0.04033121422383087
0.03706507959832036 -0.051312656115356896 -0.04414692133747722
0.043092589970812716 -0.042047503236471474 -0.048278314262269244
0.0468172663640438 -0.03169021245335994 -0.052532213656757136
0.04806494704954657 -0.02072507917173871 -0.05670971191312423
0.049433064189972266 -0.016571589066733918 -0.04539898405228783
0.0481454090055901 -0.005511330731981264 -0.049304745995022235
0.04438262727661876 0.0051268872687640216 -0.052756142536624306
0.03832066249467342 0.014845633685317182 -0.05559179021076048
0.030242965395567898 0.023190470736851012 -0.05767909728378416
0.020527240117940857 0.029771203117456038 -0.058920463596835976
0.009627783177521072 0.034280123094973906 -0.059257844240797164
-0.001945758933033748 0.03650639858256046 -0.05867546367172776
-0.013652220247702258 0.0363459314127437 -0.05720055335776794
-0.024944219646207806 0.03380622485203776 -0.05490207846595339
-0.0352937557868322 0.029006032756540175 -0.05188751312765399
-0.0442168958623231 0.022169806773606058 -0.04829781506763989
-0.05129640376010846 0.013617201232277953 -0.044300834577534504
-0.0562012495591957 0.003748126462130029 -0.04008346602273042
-0.05870208812136407 -0.0069759505692743706 -0.03584290886958179
-0.05868198301492904 -0.01805358393890237 -0.03177744685752906
-0.05614187433232226 -0.028966795822295346 -0.028077176471819336
-0.0512005347324144 -0.03920529656094969 -0.024915118243133246
-0.04408901576299263 -0.04829034523960217 -0.02243912649986885
-0.0351398441471815 -0.05579713507934539 -0.02076497586407402
-0.024771473203446415 -0.061374656930470624 -0.01997094775879372
-0.013468716433499827 -0.06476211207018956 -0.020094170055732018
-0.0017600781817925441 -0.06580110686105489 -0.02112888101723582
0.009806958640242353 -0.06444305906140557 -0.023026698708743843
0.020691532246644585 -0.06075146947699146 -0.025698883284274037
0.03038469207291347 -0.054898952733872616 -0.02902048636299446
0.03843319673874605 -0.04715916601035212 -0.03283619347664082
0.04446070711123841 -0.037894013131466696 -0.036967586401432835
0.04818538350446949 -0.027536722348355164 -0.041221485795920734
0.049433064189972266 -0.016571589066733932 -0.04539898405228782
0.05080118133039795 -0.012418098961729143 -0.03408825619145143
0.049513526146015785 -0.0013578406269764874 -0.037994018134185834
0.045750744417044444 0.009280377373768798 -0.04144541467578791
0.039688779635099106 0.018999123790321957 -0.04428106234992408
0.03161108253599359 0.027343960841855787 -0.04636836942294777
0.021895357258366544 0.03392469322246081 -0.047609735735999574
0.01099590031794676 0.038433613199978685 -0.04794711637996077
-0.0005776417926080606 0.04065988868756524 -0.047364735810891366
-0.012284103107276569 0.04049942151774848 -0.04588982549693155
-0.02357610250578212 0.03795971495704254 -0.043591350605116985
-0.03392563864640651 0.03315952286154495 -0.04057678526681759
-0.042848778721897414 0.026323296878610833 -0.036987087206803486
-0.04992828661968277 0.017770691337282728 -0.0329901067166981
-0.05483313241877001 0.007901616567134806 -0.028772738161894018
-0.057333970980938384 -0.002822460464269594 -0.02453218100874539
-0.05731386587450335 -0.013900093833897596 -0.020466718996692664
-0.054773757191896574 -0.02481330571729057 -0.016766448610982938
-0.04983241759198871 -0.03505180645594491 -0.013604390382296848
-0.04272089862256694 -0.04413685513459739 -0.011128398639032455
-0.03377172700675581 -0.05164364497434061 -0.009454248003237622
-0.023403356063020728 -0.057221166825465845 -0.008660219897957325
-0.012100599293074138 -0.06060862196518478 -0.008783442194895621
-0.00039196104136685663 -0.06164761675605012 -0.009818153156399423
0.011175075780668042 -0.0602895689564008 -0.011715970847907447
0.022059649387070272 -0.056597979371986684 -0.014388155423437639
0.03175280921333916 -0.05074546262886784 -0.01770975850215806
0.03980131387917174 -0.04300567590534734 -0.021525465615804415
0.045828824251664096 -0.03374052302646192 -0.02565685854059644
0.04955350064489518 -0.02338323224335039 -0.029910757935084333
0.05080118133039795 -0.012418098961729155 -0.03408825619145143
0.05216929847082364 -0.008264608856724366 -0.022777528330615034
0.05088164328644147 0.0027956494780282896 -0.02668329027334944
0.04711886155747013 0.013433867478773575 -0.03013468681495151
0.04105689677552479 0.023152613895326735 -0.032970334489087684
0.032979199676419275 0.031497450946860565 -0.035057641562111365
0.023263474398792235 0.03807818332746559 -0.03629900787516318
0.012364017458372447 0.04258710330498346 -0.03663638851912437
0.0007904753478176269 0.04481337879257002 -0.036054007950054964
-0.010915985966850882 0.044652911622753255 -0.034579097636095145
-0.02220798536535643 0.04211320506204732 -0.03228062274428059
-0.032557521505980826 0.03731301296654973 -0.02926605740598119
-0.04148066158147173 0.03047678698361561 -0.025676359345967088
-0.048560169479257086 0.021924181442287506 -0.021679378855861704
-0.053465015278344324 0.012055106672139583 -0.01746201030105762
-0.0559658538405127 0.0013310296407351829 -0.013221453147908992
-0.05594574873407766 -0.009746603728892819 -0.009155991135856264
-0.05340564005147089 -0.020659815612285793 -0.00545572075014654
-0.048464300451563025 -0.030898316350940133 -0.002293662521460449
-0.041352781482141256 -0.03998336502959261 0.00018232922180394404
-0.032403609866330126 -0.04749015486933583 0.0018564798575987768
-0.022035238922595037 -0.05306767672046107 0.0026505079628790736
-0.010732482152648451 -0.05645513186018 0.0025272856659407776
0.0009761560990588309 -0.05749412665104534 0.0014925747044369764
0.012543192921093729 -0.05613607885139602 -0.00040524298707104767
0.023427766527495963 -0.052444489266981906 -0.00307742756260124
0.033120926353764846 -0.04659197252386306 -0.006399030641321663
0.04116943101959743 -0.03885218580034256 -0.010214737754968017
0.04719694139208978 -0.02958703292145714 -0.014346130679760042
0.050921617785320866 -0.01922974213834561 -0.018600030074247934
0.05216929847082364 -0.008264608856724379 -0.02277752833061503
0.05353741561124933 -0.004111118751719588 -0.01146680046977863
0.05224976042686716 0.006949139583033068 -0.015372562412513035
0.04848697869789582 0.017587357583778353 -0.018823958954115108
0.04242501391595048 0.027306104000331514 -0.02165960662825128
0.03434731681684496 0.035650941051865344 -0.023746913701274963
0.02463159153921792 0.04223167343247037 -0.024988280014326774
0.013732134598798136 0.04674059340998824 -0.025325660658287966
0.002158592488243315 0.048966868897574796 -0.024743280089218563
-0.009547868826425193 0.048806401727758034 -0.023268369775258743
-0.02083986822493074 0.0462666951670521 -0.02096989488344419
-0.031189404365555135 0.04146650307155451 -0.01795532954514479
-0.04011254444104604 0.03463027708862039 -0.014365631485130686
-0.0471920523388314 0.026077671547292285 -0.010368650995025302
-0.05209689813791864 0.01620859677714436 -0.006151282440221218
-0.05459773670008701 0.005484519745739961 -0.0019107252870725888
-0.054577631593651976 -0.0055931136238880404 0.002154736724980138
-0.0520375229110452 -0.016506325507281015 0.0058550071106898615
-0.04709618331113734 -0.026744826245935355 0.009017065339375954
-0.03998466434171557 -0.035829874924587835 0.011493057082640347
-0.031035492725904435 -0.043336664764331054 0.01316720771843518
-0.02066712178216935 -0.04891418661545629 0.013961235823715477
-0.009364365012222762 -0.052301641755175224 0.01383801352677718
0.002344273239484519 -0.053340636546040564 0.01280330256527338
0.013911310061519418 -0.051982588746391244 0.010905484873765355
0.02479588366792165 -0.04829099916197713 0.008233300298235163
0.03448904349419053 -0.04243848241885828 0.0049116972195147384
0.042537548160023114 -0.03469869569533778 0.0010959901058683853
0.04856505853251547 -0.02543354281645236 -0.003035402818923639
0.05228973492574655 -0.015076252033340832 -0.0072893022134115325
0.05353741561124933 -0.0041111187517196 -0.011466800469778627
0.054905532751675014 4.237135328519095e-05 -0.00015607260894222774
0.053617877567292846 0.011102629688037846 -0.004061834551676633
0.049855095838321505 0.021740847688783132 -0.0075132310932787055
0.04379313105637617 0.031459594105336296 -0.010348878767414877
0.03571543395727065 0.03980443115687012 -0.012436185840438561
0.02599970867964361 0.04638516353747515 -0.013677552153490372
0.015100251739223823 0.05089408351499302 -0.014014932797451564
0.003526709628669003 0.053120359002579574 -0.01343255222838216
-0.008179751685999506 0.05295989183276281 -0.011957641914422341
-0.019471751084505055 0.050420185272056876 -0.009659167022607785
-0.029821287225129448 0.045619993176559286 -0.006644601684308387
-0.03874442730062035 0.03878376719362517 -0.0030549036242942837
-0.04582393519840571 0.030231161652297063 0.0009420768658111014
-0.05072878099749295 0.02036208688214914 0.005159445420615185
-0.05322961955966132 0.00963800985074474 0.009400002573763814
-0.05320951445322629 -0.0014396235188832616 0.013465464585816541
-0.05066940577061951 -0.012352835402276236 0.017165734971526264
-0.04572806617071165 -0.022591336140930576 0.020327793200212357
-0.03861654720128988 -0.031676384819583056 0.02280378494347675
-0.029667375585478748 -0.039183174659326275 0.02447793557927158
-0.019299004641743663 -0.04476069651045151 0.02527196368455188
-0.007996247871797075 -0.048148151650170445 0.025148741387613582
0.003712390379910207 -0.049187146441035785 0.02411403042610978
0.015279427201945105 -0.047829098641386465 0.022216212734601757
0.026164000808347337 -0.04413750905697235 0.019544028159071566
0.03585716063461622 -0.0382849923138535 0.01622242508035114
0.0439056653004488 -0.030545205590333004 0.012406717966704789
0.04993317567294116 -0.021280052711447582 0.008275325041912763
0.05365785206617224 -0.010922761928336053 0.004021425647424871
0.054905532751675014 4.237135328517837e-05 -0.0001560726089422234
0.0562736498921007 0.004195861458289967 0.011154655251894168
0.05498599470771853 0.015256119793042623 0.007248893309159763
0.05122321297874719 0.025894337793787907 0.00379749676755769
0.045161248196801854 0.03561308421034107 0.0009618490934215194
0.037083551097696336 0.0439579212618749 -0.001125457979602165
0.027367825820069296 0.050538653642479926 -0.0023668242926539757
0.01646836887964951 0.0550475736199978 -0.0027042049366151674
0.00489482676909469 0.05727384910758435 -0.0021218243675457642
-0.006811634545573818 0.05711338193776759 -0.000646914053585945
-0.018103633944079368 0.054573675377061655 0.0016515608382286111
-0.02845317008470376 0.049773483281564064 0.004666126176528009
-0.037376310160194666 0.04293725729862995 0.008255824236542112
-0.044455818057980025 0.03438465175730184 0.012252804726647496
-0.04936066385706726 0.024515576987153915 0.016470173281451582
-0.051861502419235636 0.013791499955749516 0.02071073043460021
-0.0518413973128006 0.0027138665861215147 0.024776192446652936
-0.049301288630193826 -0.00819934529727146 0.02847646283236266
-0.044359949030285964 -0.0184378460359258 0.03163852106104875
-0.037248430060864195 -0.02752289471457828 0.034114512804313143
-0.02829925844505306 -0.0350296845543215 0.035788663440107976
-0.017930887501317976 -0.04060720640544673 0.03658269154538828
-0.006628130731371387 -0.04399466154516567 0.03645946924844998
0.005080507520335894 -0.04503365633603101 0.035424758286946176
0.01664754434237079 -0.04367560853638169 0.033526940595438155
0.027532117948773024 -0.03998401895196757 0.03085475601990796
0.03722527777504191 -0.034131502208848724 0.027533152941187536
0.04527378244087449 -0.02639171548532823 0.023717445827541185
0.051301292813366844 -0.017126562606442807 0.01958605290274916
0.05502596920659793 -0.006769271823331278 0.015332153508261266
0.0562736498921007 0.004195861458289954 0.011154655251894172
0.05764176703252639 0.008349351563294746 0.02246538311273057
0.05635411184814422 0.0194096098980474 0.018559621169996165
0.05259133011917288 0.030047827898792685 0.015108224628394092
0.04652936533722754 0.039766574315345846 0.012272576954257921
0.03845166823812202 0.04811141136687968 0.010185269881234237
0.028735942960494983 0.054692143747484705 0.008943903568182426
0.017836486020075197 0.05920106372500258 0.008606522924221234
0.006262943909520378 0.06142733921258913 0.009188903493290638
-0.0054435174051481305 0.06126687204277237 0.010663813807250457
-0.01673551680365368 0.05872716548206643 0.012962288699065013
-0.027085052944278074 0.05392697338656884 0.01597685403736441
-0.03600819301976898 0.047090747403634725 0.019566552097378512
-0.04308770091755434 0.03853814186230662 0.0235635325874839
-0.047992546716641576 0.028669067092158693 0.027780901142287984
-0.05049338527880995 0.017944990060754295 0.03202145829543661
-0.050473280172374915 0.006867356691126292 0.03608692030748934
-0.04793317148976814 -0.004045855192266682 0.03978719069319906
-0.04299183188986028 -0.014284355930921023 0.042949248921885154
-0.03588031292043851 -0.023369404609573503 0.045425240665149545
-0.026931141304627374 -0.030876194449316722 0.04709939130094438
-0.01656277036089229 -0.03645371630044195 0.04789341940622468
-0.0052600135909456995 -0.03984117144016089 0.04777019710928638
0.006448624660761582 -0.04088016623102623 0.04673548614778258
0.01801566148279648 -0.03952211843137691 0.04483766845627456
0.02890023508919871 -0.03583052884696279 0.04216548388074436
0.038593394915467594 -0.02997801210384395 0.03884388080202394
0.046641899581300175 -0.02223822538032345 0.03502817368837759
0.05266940995379253 -0.012973072501438029 0.03089678076358556
0.056394086347023614 -0.002615781718326499 0.02664288136909767
0.05764176703252639 0.008349351563294732 0.022465383112730573
0.059009884172952075 0.012502841668299522 0.03377611097356697
0.05772222898856991 0.02356310000305218 0.029870349030832567
0.053959447259598566 0.034201318003797464 0.026418952489230492
0.04789748247765323 0.043920064420350624 0.02358330481509432
0.03981978537854771 0.05226490147188446 0.021495997742070637
0.030104060100920673 0.05884563385248948 0.020254631429018826
0.019204603160500888 0.06335455383000735 0.019917250785057634
0.007631061049946066 0.0655808293175939 0.020499631354127038
-0.004075400264722443 0.06542036214777715 0.021974541668086857
-0.01536739966322799 0.0628806555870712 0.024273016559901415
-0.025716935803852384 0.05808046349157362 0.02728758189820081
-0.03464007587934329 0.051244237508639504 0.030877279958214914
-0.04171958377712865 0.0426916319673114 0.0348742604483203
-0.04662442957621589 0.032822557197163475 0.039091629003124385
-0.04912526813838426 0.022098480165759073 0.04333218615627301
-0.04910516303194923 0.01102084679613107 0.04739764816832574
-0.04656505434934245 0.00010763491273809602 0.05109791855403546
-0.04162371474943459 -0.010130865825916244 0.054259976782721556
-0.03451219578001282 -0.019215914504568724 0.05673596852598595
-0.025563024164201684 -0.026722704344311943 0.05841011916178078
-0.015194653220466599 -0.032300226195437175 0.05920414726706108
-0.0038918964505200116 -0.03568768133515611 0.05908092497012278
0.00781674180118727 -0.03672667612602145 0.05804621400861898
0.01938377862322217 -0.03536862832637213 0.05614839631711096
0.0302683522296244 -0.031677038741958014 0.053476211741580765
0.03996151205589328 -0.02582452199883917 0.05015460866286034
0.04801001672172586 -0.01808473527531867 0.04633890154921399
0.05403752709421822 -0.00881958239643325 0.04220750862442196
0.0577622034874493 0.0015377083866782786 0.03795360922993407
0.059009884172952075 0.01250284166829951 0.033776110973566975
0.06037800131337777 0.016656331773304302 0.04508683883440338
0.0590903461289956 0.02771659010805696 0.04118107689166897
0.05532756440002426 0.03835480810880224 0.0377296803500669
0.04926559961807892 0.0480735545253554 0.034894032675930726
0.041187902518973404 0.056418391576889236 0.032806725602907046
0.031472177241346364 0.06299912395749425 0.03156535928985523
0.020572720300926575 0.06750804393501213 0.03122797864589404
0.008999178190371755 0.06973431942259868 0.031810359214963446
-0.0027072831242967543 0.06957385225278193 0.033285269528923266
-0.013999282522802303 0.06703414569207598 0.03558374442073782
-0.024348818663426697 0.0622339535965784 0.03859830975903722
-0.0332719587389176 0.05539772761364428 0.04218800781905132
-0.04035146663670296 0.04684512207231618 0.0461849883091567
-0.045256312435790196 0.036976047302168254 0.05040235686396079
-0.04775715099795857 0.026251970270763852 0.05464291401710942
-0.047737045891523534 0.01517433690113585 0.058708376029162145
-0.04519693720891676 0.004261125017742875 0.06240864641487187
-0.040255597609008896 -0.005977375720911465 0.06557070464355796
-0.03314407863958713 -0.015062424399563944 0.06804669638682236
-0.024194907023775997 -0.022569214239307165 0.06972084702261719
-0.013826536080040912 -0.0281467360904324 0.07051487512789749
-0.0025237793100943233 -0.03153419123015133 0.07039165283095919
0.009184858941612958 -0.03257318602101667 0.06935694186945539
0.020751895763647856 -0.031215138221367355 0.06745912417794736
0.03163646937005009 -0.02752354863695324 0.06478693960241717
0.041329629196318975 -0.021671031893834392 0.06146533652369675
0.049378133862151556 -0.013931245170313892 0.05764962941005039
0.05540564423464391 -0.004666092291428471 0.053518236485258365
0.059130320627874995 0.005691198491683058 0.04926433709077047
0.06037800131337777 0.01665633177330429 0.04508683883440338
-0.006156527131915596 -0.0186907054725215 -0.050898275373763804
-0.00013191888953090945 -0.018916746994656744 -0.05154399054480385
0.005892689352853776 -0.01914278851679199 -0.0521897057158439
0.01191729759523846 -0.019368830038927233 -0.05283542088688395
0.01794190583762315 -0.019594871561062478 -0.053481136057924
0.02396651408000783 -0.019820913083197722 -0.054126851228964046
0.029991122322392514 -0.020046954605332967 -0.054772566400004094
0.03601573056477719 -0.02027299612746821 -0.055418281571044135
0.04204033880716189 -0.020499037649603456 -0.056063996742084184
0.04806494704954657 -0.0207250791717387 -0.05670971191312423
-0.006156527131915596 -0.0186907054725215 -0.050898275373763804
-0.0004617031702410387 -0.01705627815947627 -0.0521872962153172
0.005233120791433518 -0.015421850846431035 -0.0534763170568706
0.010927944753108074 -0.013787423533385804 -0.054765337898424
0.016622768714782632 -0.012152996220340571 -0.0560543587399774
0.022317592676457186 -0.01051856890729534 -0.057343379581530796
0.028012416638131744 -0.008884141594250107 -0.058632400423084194
0.0337072405998063 -0.007249714281204875 -0.05992142126463759
0.039402064561480855 -0.0056152869681596424 -0.06121044210619099
0.04509688852315541 -0.003980859655114413 -0.06249946294774439
-0.006156527131915596 -0.0186907054725215 -0.050898275373763804
-0.0014086099914968598 -0.015372924884417013 -0.05269091647642909
0.003339307148921876 -0.012055144296312525 -0.05448355757909437
0.00808722428934061 -0.008737363708208039 -0.056276198681759655
0.012835141429759347 -0.00541958312010355 -0.05806883978442494
0.01758305857017808 -0.002101802531999064 -0.05986148088709022
0.022330975710596813 0.0012159780561054243 -0.061654121989755506
0.027078892851015553 0.004533758644209909 -0.0634467630924208
0.031826809991434286 0.0078515392323144 -0.06523940419508607
0.03657472713185302 0.011169319820418884 -0.06703204529775136
-0.006156527131915596 -0.0186907054725215 -0.050898275373763804
-0.002870027306442125 -0.014049104616748942 -0.053000276258374536
0.0004164725190313454 -0.009407503760976384 -0.05510227714298526
0.0037029723445048137 -0.004765902905203825 -0.05720427802759599
0.006989472169978286 -0.00012430204943126547 -0.05930627891220672
0.010275971995451758 0.004517298806341291 -0.06140827979681745
0.013562471820925223 0.00915889966211385 -0.06351028068142818
0.016848971646398696 0.013800500517886416 -0.0656122815660389
0.02013547147187217 0.01844210137365897 -0.06771428245064963
0.023421971297345637 0.023083702229431537 -0.06981628333526035
-0.006156527131915596 -0.0186907054725215 -0.050898275373763804
-0.004687587872776462 -0.013228273823661773 -0.05308185162856815
-0.0032186486136373286 -0.0077658421748020455 -0.05526542788337249
-0.0017497093544981955 -0.0023034105259423245 -0.05744900413817683
-0.0002807700953590619 0.003159021122917409 -0.05963258039298117
0.0011881691637800717 0.008621452771777139 -0.06181615664778552
0.0026571084229192045 0.014083884420636851 -0.06399973290258985
0.004126047682058335 0.019546316069496587 -0.06618330915739419
0.005594986941197471 0.02500874771835632 -0.06836688541219854
0.007063926200336604 0.03047117936721604 -0.07055046166700288
-0.006156527131915596 -0.0186907054725215 -0.050898275373763804
-0.006664330800779567 -0.012999382258088546 -0.052926802629877166
-0.0071721344696435395 -0.007308059043655589 -0.05495532988599053
-0.007679938138507512 -0.0016167358292226372 -0.05698385714210389
-0.008187741807371484 0.004074587385210322 -0.05901238439821725
-0.008695545476235456 0.00976591059964327 -0.061040911654330614
-0.009203349145099429 0.015457233814076226 -0.06306943891044398
-0.0097111528139634 0.02114855702850919 -0.06509796616655734
-0.010218956482827371 0.026839880242942146 -0.0671264934226707
-0.010726760151691344 0.0325312034573751 -0.06915502067878407
-0.006156527131915596 -0.0186907054725215 -0.050898275373763804
-0.008586045321875497 -0.013387233872777694 -0.052551931227142856
-0.011015563511835398 -0.008083762273033887 -0.05420558708052191
-0.013445081701795298 -0.0027802906732900755 -0.05585924293390096
-0.0158745998917552 0.0025231809264537283 -0.05751289878728001
-0.0183041180817151 0.007826652526197539 -0.059166554640659064
-0.020733636271675 0.01313012412594135 -0.060820210494038116
-0.023163154461634902 0.01843359572568515 -0.06247386634741717
-0.025592672651594806 0.02373706732542896 -0.06412752220079622
-0.028022190841554707 0.029040538925172773 -0.06578117805417527
-0.006156527131915596 -0.0186907054725215 -0.050898275373763804
-0.010244483849230409 -0.014349798927139773 -0.05199786055358061
-0.014332440566545222 -0.010008892381758045 -0.05309744573339742
-0.018420397283860034 -0.00566798583637632 -0.05419703091321423
-0.02250835400117485 -0.001327079290994589 -0.055296616093031034
-0.026596310718489665 0.0030138272543871352 -0.056396201272847835
-0.030684267435804474 0.00735473379976886 -0.05749578645266464
-0.03477222415311929 0.011695640345150587 -0.05859537163248145
-0.03886018087043411 0.016036546890532324 -0.05969495681229826
-0.04294813758774892 0.02037745343591404 -0.060794541992115064
-0.006156527131915596 -0.0186907054725215 -0.050898275373763804
-0.011459928835080251 -0.015782768561798957 -0.05132463276396321
-0.016763330538244907 -0.012874831651076415 -0.05175099015416261
-0.02206673224140956 -0.009966894740353874 -0.05217734754436201
-0.027370133944574215 -0.007058957829631329 -0.05260370493456142
-0.03267353564773887 -0.004151020918908785 -0.053030062324760825
-0.03797693735090353 -0.0012430840081862464 -0.05345641971496023
-0.04328033905406819 0.0016648529025362995 -0.05388277710515963
-0.04858374075723284 0.004572789813258842 -0.054309134495359034
-0.0538871424603975 0.007480726723981384 -0.054735491885558436
-0.006156527131915596 -0.0186907054725215 -0.050898275373763804
-0.012100667955636066 -0.017530858282025108 -0.05060520253550116
-0.018044808779356537 -0.016371011091528713 -0.05031212969723852
-0.023988949603077007 -0.015211163901032318 -0.050019056858975876
-0.02993309042679748 -0.014051316710535925 -0.04972598402071323
-0.035877231250517956 -0.01289146952003953 -0.049432911182450585
-0.04182137207423842 -0.011731622329543136 -0.04913983834418795
-0.0477655128979589 -0.010571775139046743 -0.0488467655059253
-0.053709653721679365 -0.009411927948550348 -0.04855369266766266
-0.05965379454539984 -0.008252080758053953 -0.04826061982940002
-0.006156527131915596 -0.0186907054725215 -0.050898275373763804
-0.01209726718509381 -0.019404635442224982 -0.0499175312965585
-0.018038007238272025 -0.020118565411928465 -0.0489367872193532
-0.023978747291450237 -0.020832495381631948 -0.047956043142147894
-0.029919487344628452 -0.021546425351335434 -0.04697529906494259
-0.035860227397806664 -0.022260355321038917 -0.04599455498773729
-0.04180096745098488 -0.0229742852907424 -0.04501381091053199
-0.047741707504163094 -0.023688215260445882 -0.04403306683332669
-0.05368244755734131 -0.024402145230149365 -0.043052322756121385
-0.059623187610519525 -0.025116075199852848 -0.04207157867891608
-0.006156527131915596 -0.0186907054725215 -0.050898275373763804
-0.011450095049710124 -0.021201047212442627 -0.04933613889619334
-0.016743662967504652 -0.023711388952363754 -0.047774002418622875
-0.022037230885299176 -0.02622173069228488 -0.046211865941052414
-0.027330798803093706 -0.028732072432206004 -0.044649729463481946
-0.03262436672088824 -0.03124241417212713 -0.043087592985911485
-0.03791793463868276 -0.03375275591204826 -0.04152545650834102
-0.04321150255647729 -0.03626309765196938 -0.039963320030770556
-0.04850507047427182 -0.038773439391890506 -0.03840118355320009
-0.053798638392066354 -0.04128378113181164 -0.03683904707562963
-0.006156527131915596 -0.0186907054725215 -0.050898275373763804
-0.010229282692264169 -0.022725424503174357 -0.04892402822221782
-0.014302038252612743 -0.026760143533827215 -0.046949781070671846
-0.018374793812961317 -0.030794862564480073 -0.044975533919125864
-0.02244754937330989 -0.03482958159513293 -0.04300128676757988
-0.026520304933658465 -0.03886430062578579 -0.0410270396160339
-0.03059306049400704 -0.04289901965643864 -0.03905279246448792
-0.03466581605435561 -0.046933738687091504 -0.03707854531294194
-0.03873857161470419 -0.05096845771774436 -0.03510429816139596
-0.04281132717505276 -0.05500317674839723 -0.033130051009849976
-0.006156527131915596 -0.0186907054725215 -0.050898275373763804
-0.008567124074540688 -0.023812577381818665 -0.04872585786071316
-0.01097772101716578 -0.02893444929111583 -0.04655344034766251
-0.013388317959790872 -0.03405632120041299 -0.04438102283461187
-0.015798914902415966 -0.03917819310971016 -0.042208605321561225
-0.01820951184504106 -0.04430006501900733 -0.04003618780851058
-0.02062010878766615 -0.04942193692830449 -0.03786377029545994
-0.023030705730291243 -0.05454380883760166 -0.03569135278240929
-0.025441302672916333 -0.05966568074689882 -0.033518935269358646
-0.027851899615541426 -0.06478755265619598 -0.031346517756308
-0.006156527131915596 -0.0186907054725215 -0.050898275373763804
-0.006643739873818317 -0.02434469596505946 -0.04876310264527836
-0.007130952615721039 -0.02999868645759742 -0.04662792991679291
-0.00761816535762376 -0.035652676950135374 -0.04449275718830747
-0.008105378099526482 -0.04130666744267334 -0.04235758445982202
-0.008592590841429203 -0.04696065793521129 -0.040222411731336574
-0.009079803583331925 -0.05261464842774925 -0.038087239002851124
-0.009567016325234648 -0.05826863892028721 -0.03595206627436568
-0.010054229067137368 -0.06392262941282517 -0.03381689354588023
-0.01054144180904009 -0.06957661990536312 -0.03168172081739479
-0.006156527131915596 -0.0186907054725215 -0.050898275373763804
-0.004667558612626174 -0.024264116947732065 -0.04903172652559341
-0.0031785900933367526 -0.029837528422942627 -0.047165177677423
-0.0016896215740473306 -0.03541093989815319 -0.0452986288292526
-0.00020065305475790992 -0.04098435137336376 -0.0434320799810822
0.0012883154645315126 -0.046557762848574324 -0.0415655311329118
0.002777283983820934 -0.05213117432378489 -0.0396989822847414
0.0042662525031103545 -0.05770458579899545 -0.037832433436571
0.005755221022399775 -0.06327799727420601 -0.035965884588400596
0.007244189541689198 -0.06885140874941657 -0.0340993357402302
-0.006156527131915596 -0.0186907054725215 -0.050898275373763804
-0.002852730194226076 -0.023579572316676185 -0.0495026199360972
0.00045106674346344307 -0.028468439160830868 -0.0481069644984306
0.0037548636811529624 -0.03335730600498555 -0.04671130906076399
0.007058660618842481 -0.03824617284914023 -0.045315653623097384
0.010362457556532003 -0.043135039693294915 -0.043919998185430784
0.01366625449422152 -0.0480239065374496 -0.04252434274776418
0.016970051431911038 -0.052912773381604286 -0.04112868731009757
0.02027384836960056 -0.05780164022575897 -0.03973303187243096
0.02357764530729008 -0.06269050706991365 -0.03833737643476436
-0.006156527131915596 -0.0186907054725215 -0.050898275373763804
-0.0013959194377160078 -0.022365243104471074 -0.050124754269097564
0.00336468825648358 -0.02603978073642065 -0.049351233164431324
0.008125295950683167 -0.029714318368370223 -0.04857771205976509
0.012885903644882755 -0.0333888560003198 -0.04780419095509885
0.017646511339082346 -0.03706339363226937 -0.04703066985043261
0.02240711903328193 -0.04073793126421894 -0.04625714874576637
0.02716772672748152 -0.04441246889616852 -0.04548362764110013
0.0319283344216811 -0.0480870065281181 -0.04471010653643389
0.03668894211588069 -0.051761544160067674 -0.04393658543176765
-0.006156527131915596 -0.0186907054725215 -0.050898275373763804
-0.0004549943933117684 -0.020752720723518275 -0.05083071161620511
0.005246538345292058 -0.022814735974515048 -0.05076314785864641
0.010948071083895883 -0.02487675122551182 -0.050695584101087716
0.016649603822499713 -0.026938766476508592 -0.05062802034352902
0.02235113656110354 -0.029000781727505368 -0.050560456585970324
0.028052669299707362 -0.03106279697850214 -0.05049289282841163
0.033754202038311185 -0.033124812229498916 -0.05042532907085293
0.03945573477691502 -0.03518682748049569 -0.05035776531329424
0.04515726751551884 -0.03724884273149246 -0.05029020155573554
-0.006156527131915596 -0.0186907054725215 -0.050898275373763804
-0.00013191888953090945 -0.018916746994656747 -0.05154399054480385
0.005892689352853776 -0.019142788516791992 -0.0521897057158439
0.01191729759523846 -0.019368830038927237 -0.05283542088688395
0.01794190583762315 -0.019594871561062484 -0.05348113605792399
0.02396651408000783 -0.01982091308319773 -0.05412685122896404
0.029991122322392514 -0.020046954605332973 -0.05477256640000409
0.03601573056477719 -0.02027299612746822 -0.055418281571044135
0.04204033880716189 -0.020499037649603466 -0.056063996742084184
0.04806494704954657 -0.02072507917173871 -0.05670971191312423
0.006156527131915596 0.0186907054725215 0.050898275373763804
0.012181135374300281 0.018464663950386255 0.050252560202723756
0.018205743616684967 0.01823862242825101 0.04960684503168371
0.02423035185906965 0.01801258090611577 0.04896112986064366
0.03025496010145434 0.017786539383980525 0.04831541468960361
0.036279568343839025 0.01756049786184528 0.04766969951856356
0.04230417658622371 0.017334456339710036 0.04702398434752352
0.04832878482860839 0.01710841481757479 0.04637826917648347
0.054353393070993086 0.016882373295439547 0.045732554005443425
0.06037800131337777 0.016656331773304302 0.04508683883440338
0.006156527131915596 0.0186907054725215 0.050898275373763804
0.011851351093590153 0.020325132785566732 0.049609254532210406
0.01754617505526471 0.021959560098611965 0.04832023369065701
0.023240999016939264 0.023593987411657198 0.04703121284910361
0.028935822978613822 0.02522841472470243 0.04574219200755021
0.034630646940288376 0.02686284203774766 0.04445317116599681
0.04032547090196294 0.028497269350792893 0.043164150324443415
0.0460202948636375 0.030131696663838126 0.04187512948289002
0.05171511882531205 0.03176612397688336 0.04058610864133662
0.057409942786986606 0.03340055128992859 0.03929708779978323
0.006156527131915596 0.0186907054725215 0.050898275373763804
0.010904444272334331 0.022008486060625988 0.04910563427109852
0.015652361412753068 0.025326266648730476 0.04731299316843324
0.0204002785531718 0.028644047236834964 0.045520352065767954
0.025148195693590537 0.03196182782493945 0.04372771096310267
0.02989611283400927 0.035279608413043936 0.041935069860437386
0.034644029974428 0.038597389001148424 0.0401424287577721
0.03939194711484675 0.04191516958925291 0.03834978765510682
0.04413986425526548 0.0452329501773574 0.036557146552441536
0.04888778139568422 0.04855073076546189 0.03476450544977625
0.006156527131915596 0.0186907054725215 0.050898275373763804
0.009443026957389066 0.02333230632829406 0.04879627448915308
0.012729526782862537 0.02797390718406662 0.04669427360454235
0.016016026608336006 0.032615508039839175 0.044592272719931624
0.01930252643380948 0.037257108895611735 0.04249027183532089
0.022589026259282947 0.041898709751384294 0.04038827095071017
0.025875526084756413 0.046540310607156854 0.038286270066099436
0.029162025910229886 0.05118191146292942 0.03618426918148871
0.03244852573570336 0.05582351231870197 0.03408226829687798
0.03573502556117683 0.06046511317447454 0.031980267412267255
0.006156527131915596 0.0186907054725215 0.050898275373763804
0.0076254663910547285 0.02415313712138123 0.04871469911895946
0.009094405650193862 0.029615568770240956 0.046531122864155124
0.010563344909332995 0.035078000419100676 0.04434754660935078
0.01203228416847213 0.04054043206796041 0.042163970354546436
0.013501223427611262 0.04600286371682014 0.03998039409974209
0.014970162686750395 0.051465295365679856 0.037796817844937755
0.016439101945889528 0.05692772701453959 0.03561324159013341
0.017908041205028664 0.06239015866339932 0.03342966533532907
0.019376980464167796 0.06785259031225904 0.03124608908052473
0.006156527131915596 0.0186907054725215 0.050898275373763804
0.0056487234630516235 0.024382028686954455 0.04886974811765044
0.005140919794187651 0.03007335190138741 0.04684122086153708
0.004633116125323679 0.03576467511582036 0.04481269360542372
0.004125312456459708 0.041455998330253326 0.04278416634931036
0.003617508787595735 0.047147321544686274 0.040755639093196995
0.003109705118731763 0.05283864475911923 0.03872711183708363
0.002601901449867791 0.05852996797355219 0.03669858458097027
0.002094097781003819 0.06422129118798514 0.03467005732485691
0.0015862941121398467 0.0699126144024181 0.03264153006874355
0.006156527131915596 0.0186907054725215 0.050898275373763804
0.003727008941955694 0.023994177072265307 0.04924461952038475
0.0012974907519957926 0.029297648672009114 0.0475909636670057
-0.001132027437964108 0.034601120271752925 0.04593730781362665
-0.0035615456279240103 0.03990459187149673 0.0442836519602476
-0.00599106381788391 0.04520806347124054 0.042629996106868545
-0.008420582007843812 0.050511535070984354 0.04097634025348949
-0.010850100197803712 0.055815006670728154 0.03932268440011044
-0.013279618387763616 0.06111847827047196 0.03766902854673139
-0.015709136577723517 0.06642194987021577 0.03601537269335234
0.006156527131915596 0.0186907054725215 0.050898275373763804
0.0020685704146007817 0.023031612017903227 0.049798690193947
-0.002019386302714032 0.027372518563284955 0.04869910501413019
-0.0061073430200288435 0.03171342510866668 0.04759951983431339
-0.01019529973734366 0.036054331654048415 0.04649993465449658
-0.014283256454658475 0.04039523819943014 0.045400349474679774
-0.018371213171973284 0.044736144744811863 0.04430076429486297
-0.0224591698892881 0.04907705129019359 0.04320117911504616
-0.026547126606602914 0.053417957835575326 0.04210159393522935
-0.03063508332391773 0.057758864380957044 0.04100200875541255
0.006156527131915596 0.0186907054725215 0.050898275373763804
0.0008531254287509404 0.021598642383244042 0.0504719179835644
-0.004450276274413714 0.024506579293966588 0.050045560593365
-0.009753677977578371 0.027414516204689127 0.049619203203165596
-0.015057079680743025 0.030322453115411672 0.049192845812966186
-0.020360481383907683 0.03323039002613422 0.048766488422766784
-0.025663883087072337 0.03613832693685676 0.04834013103256738
-0.030967284790236995 0.0390462638475793 0.04791377364236798
-0.03627068649340164 0.04195420075830184 0.047487416252168575
-0.0415740881965663 0.04486213766902439 0.04706105886196917
0.006156527131915596 0.0186907054725215 0.050898275373763804
0.0002123863081951246 0.019850552663017895 0.05119134821202645
-0.005731754515525346 0.02101039985351429 0.05148442105028909
-0.011675895339245818 0.02217024704401068 0.05177749388855173
-0.01762003616296629 0.023330094234507076 0.05207056672681438
-0.023564176986686763 0.02448994142500347 0.05236363956507702
-0.02950831781040723 0.025649788615499866 0.05265671240333966
-0.0354524586341277 0.026809635805996258 0.05294978524160231
-0.04139659945784817 0.027969482996492653 0.05324285807986495
-0.04734074028156864 0.029129330186989048 0.0535359309181276
0.006156527131915596 0.0186907054725215 0.050898275373763804
0.0002157870787373811 0.017976775502818017 0.05187901945096911
-0.005724952974440833 0.017262845533114534 0.05285976352817441
-0.011665693027619047 0.01654891556341105 0.053840507605379714
-0.017606433080797262 0.01583498559370757 0.05482125168258502
-0.023547173133975474 0.015121055624004086 0.05580199575979032
-0.02948791318715369 0.014407125654300603 0.056782739836995624
-0.0354286532403319 0.01369319568459712 0.05776348391420093
-0.041369393293510116 0.012979265714893638 0.05874422799140623
-0.04731013334668833 0.012265335745190155 0.05972497206861153
0.006156527131915596 0.0186907054725215 0.050898275373763804
0.0008629592141210677 0.016180363732600376 0.05246041185133427
-0.00443060870367346 0.013670021992679249 0.05402254832890473
-0.009724176621467986 0.011159680252758122 0.0555846848064752
-0.015017744539262516 0.008649338512836998 0.05714682128404566
-0.020311312457057046 0.00613899677291587 0.05870895776161613
-0.025604880374851566 0.0036286550329947434 0.06027109423918659
-0.030898448292646093 0.0011183132930736213 0.06183323071675705
-0.036192016210440624 -0.0013920284468475058 0.06339536719432752
-0.04148558412823516 -0.0039023701867686327 0.06495750367189798
0.006156527131915596 0.0186907054725215 0.050898275373763804
0.0020837715715670215 0.014655986441868643 0.05287252252530979
-0.0019889839887815525 0.010621267411215787 0.05484676967685577
-0.006061739549130126 0.006586548380562929 0.056821016828401745
-0.0101344951094787 0.002551829349910073 0.05879526397994773
-0.014207250669827275 -0.0014828896807427886 0.06076951113149371
-0.01828000623017585 -0.005517608711395643 0.06274375828303969
-0.022352761790524422 -0.0095523277420485 0.06471800543458567
-0.026425517350872996 -0.013587046772701354 0.06669225258613165
-0.030498272911221567 -0.017621765803354224 0.06866649973767763
0.006156527131915596 0.0186907054725215 0.050898275373763804
0.003745930189290503 0.013568833563224336 0.05307069288681445
0.001335333246665411 0.008446961653927172 0.0552431103998651
-0.0010752636959596809 0.0033250897446300063 0.05741552791291574
-0.0034858606385847735 -0.0017967821646671575 0.059587945425966383
-0.005896457581209867 -0.006918654073964327 0.06176036293901703
-0.008307054523834958 -0.012040525983261488 0.06393278045206767
-0.010717651466460053 -0.01716239789255866 0.06610519796511832
-0.013128248409085143 -0.022284269801855817 0.06827761547816896
-0.015538845351710236 -0.02740614171115299 0.07045003299121962
0.006156527131915596 0.0186907054725215 0.050898275373763804
0.0056693143900128735 0.013036714979983542 0.053033448102249255
0.005182101648110152 0.0073827244874455815 0.0551686208307347
0.004694888906207431 0.0017287339949076258 0.05730379355922014
0.004207676164304709 -0.003925256497630337 0.05943896628770559
0.0037204634224019873 -0.009579246990168289 0.061574139016191035
0.003233250680499266 -0.015233237482706248 0.06370931174467648
0.002746037938596544 -0.02088722797524421 0.06584448447316193
0.002258825196693822 -0.026541218467782176 0.06797965720164738
0.0017716124547911007 -0.032195208960320125 0.07011482993013282
0.006156527131915596 0.0186907054725215 0.050898275373763804
0.0076454956512050165 0.013117293997310937 0.05276482422193421
0.009134464170494438 0.0075438825221003725 0.05463137307010461
0.01062343268978386 0.0019704710468898073 0.05649792191827501
0.012112401209073281 -0.003602940428320755 0.05836447076644541
0.013601369728362704 -0.00917635190353132 0.06023101961461581
0.015090338247652125 -0.014749763378741886 0.06209756846278621
0.016579306766941547 -0.020323174853952446 0.06396411731095661
0.018068275286230968 -0.025896586329163012 0.06583066615912701
0.01955724380552039 -0.031469997804373574 0.06769721500729742
0.006156527131915596 0.0186907054725215 0.050898275373763804
0.009460324069605114 0.013801838628366817 0.05229393081143041
0.012764121007294633 0.008912971784212135 0.05368958624909701
0.016067917944984154 0.004024104940057452 0.05508524168676362
0.019371714882673672 -0.0008647619040972321 0.056480897124430225
0.022675511820363193 -0.005753628748251915 0.057876552562096825
0.02597930875805271 -0.010642495592406596 0.05927220799976343
0.029283105695742228 -0.015531362436561282 0.06066786343743004
0.03258690263343175 -0.020420229280715966 0.062063518875096646
0.03589069957112127 -0.025309096124870648 0.06345917431276325
0.006156527131915596 0.0186907054725215 0.050898275373763804
0.010917134826115183 0.015016167840571927 0.051671796478430045
0.015677742520314772 0.011341630208622352 0.052445317583096285
0.02043835021451436 0.0076670925766727785 0.053218838687762525
0.025198957908713945 0.003992554944723202 0.05399235979242876
0.029959565602913536 0.0003180173127736313 0.054765880897095
0.03472017329711312 -0.003356520319175943 0.05553940200176124
0.03948078099131271 -0.007031057951125518 0.05631292310642748
0.0442413886855123 -0.010705595583075095 0.05708644421109372
0.049001996379711886 -0.01438013321502467 0.05785996531575996
0.006156527131915596 0.0186907054725215 0.050898275373763804
0.011858059870519423 0.016628690221524727 0.0509658391313225
0.01755959260912325 0.014566674970527955 0.051033402888881196
0.023261125347727073 0.01250465971953118 0.05110096664643989
0.028962658086330903 0.010442644468534408 0.05116853040399859
0.03466419082493473 0.008380629217537634 0.051236094161557284
0.040365723563538555 0.006318613966540861 0.05130365791911598
0.04606725630214238 0.004256598715544087 0.051371221676674676
0.051768789040746215 0.002194583464547315 0.05143878543423337
0.057470321779350034 0.0001325682135505425 0.05150634919179207
0.006156527131915596 0.0186907054725215 0.050898275373763804
0.012181135374300281 0.018464663950386255 0.050252560202723756
0.018205743616684967 0.01823862242825101 0.04960684503168371
0.02423035185906965 0.018012580906115763 0.048961129860643667
0.03025496010145434 0.017786539383980518 0.04831541468960362
0.036279568343839025 0.017560497861845274 0.04766969951856357
0.04230417658622371 0.017334456339710026 0.04702398434752352
0.04832878482860839 0.01710841481757478 0.04637826917648347
0.054353393070993086 0.016882373295439537 0.045732554005443425
0.06037800131337777 0.01665633177330429 0.04508683883440338
