# .PCD v0.7 - Point Cloud Data file format
VERSION 0.7
FIELDS x y z
SIZE 4 4 4
TYPE F F F
COUNT 1 1 1
WIDTH 700
HEIGHT 1
VIEWPOINT 0 0 0 1 0 0 0
POINTS 700
DATA ascii
0.11958351036042386 0.06026494085507194 -0.1597088943719625
0.11917864253789015 0.08902201537550514 -0.14598130678004884
0.11203234126376155 0.11652876725725152 -0.13156295413362754
0.09847875964307293 0.14149901135387957 -0.11712802257759729
0.07915164808868366 0.16276516680386396 -0.10335147346824394
0.054954720856335265 0.17933285181399763 -0.09087748293038624
0.027019399370459343 0.1904273798468661 -0.0802893208977297
-0.003348091784144393 0.1955299831023346 -0.07208207805902447
-0.034727802472129 0.19440206952331376 -0.0666395159677131
-0.06565245229776778 0.18709637909517257 -0.06421612277821208
-0.09467603900549351 0.17395451778263926 -0.06492521366265433
-0.12044145193825276 0.1555909844145581 -0.06873363231938127
-0.1417439290235094 0.1328644374016191 -0.07546330132475769
-0.15758739010875958 0.10683754482340446 -0.08479954883558206
-0.16723101256239928 0.07872729525005814 -0.09630582229474204
-0.17022387131661285 0.04984809270933121 -0.10944410114359181
-0.16642602362237688 0.021550296615099836 -0.12360005406530726
-0.1560150526168692 -0.004842919538011184 -0.13811176443448067
-0.13947776373334433 -0.028097438296635212 -0.15230068080285708
-0.11758742222011931 -0.04712590420916025 -0.16550334521089916
-0.09136759611698533 -0.06103856735813757 -0.1771024157445944
-0.06204429535128134 -0.06918488707753548 -0.1865555327572282
-0.030988644876303595 -0.07118395051125892 -0.19342067900367474
0.0003472276076143529 -0.06694228367494653 -0.19737684787551224
0.03049809153044533 -0.056658222195590115 -0.19823905331325944
0.05805412600543619 -0.04081263735805097 -0.19596697954891984
0.08172684148686894 -0.020146451098229816 -0.1906668662264853
0.10040932810916528 0.004374008683180331 -0.18258654075426003
0.1132280135619593 0.031602192539334585 -0.1721038301706885
0.11958351036042386 0.060264940855071905 -0.15970889437196253
0.12513811716980494 0.04642444526940968 -0.13055147382442672
0.12473324934727124 0.07518151978984287 -0.11682388623251304
0.11758694807314264 0.10268827167158925 -0.10240553358609174
0.10403336645245402 0.1276585157682173 -0.08797060203006149
0.08470625489806476 0.1489246712182017 -0.07419405292070815
0.06050932766571635 0.16549235622833539 -0.061720062382850445
0.03257400617984043 0.17658688426120384 -0.0511319003501939
0.0022065150252366973 0.18168948751667233 -0.04292465751148868
-0.029173195662747908 0.1805615739376515 -0.03748209542017731
-0.060097845488386696 0.1732558835095103 -0.03505870223067629
-0.08912143219611242 0.160114022196977 -0.03576779311511854
-0.11488684512887166 0.14175048882889585 -0.03957621177184548
-0.1361893222141283 0.11902394181595685 -0.0463058807772219
-0.1520327832993785 0.0929970492377422 -0.05564212828804627
-0.1616764057530182 0.06488679966439588 -0.06714840174720625
-0.16466926450723177 0.036007597123668945 -0.08028668059605602
-0.1608714168129958 0.007709801029437575 -0.09444263351777148
-0.15046044580748813 -0.018683415123673445 -0.10895434388694487
-0.13392315692396325 -0.041937933882297475 -0.1231432602553213
-0.11203281541073822 -0.06096639979482251 -0.13634592466336337
-0.08581298930760424 -0.07487906294379983 -0.14794499519705862
-0.05648968854190025 -0.08302538266319774 -0.1573981122096924
-0.025434038066922505 -0.08502444609692118 -0.16426325845613896
0.005901834416995443 -0.0807827792606088 -0.16821942732797646
0.03605269833982642 -0.07049871778125237 -0.16908163276572366
0.06360873281481728 -0.05465313294371323 -0.16680955900138406
0.08728144829625004 -0.03398694668389208 -0.1615094456789495
0.10596393491854637 -0.00946648690248193 -0.15342912020672425
0.1187826203713404 0.017761696953672326 -0.14294640962315272
0.12513811716980494 0.04642444526940964 -0.13055147382442675
0.13069272397918605 0.03258394968374741 -0.10139405327689092
0.13028785615665234 0.061341024204180604 -0.08766646568497724
0.12314155488252373 0.08884777608592698 -0.07324811303855594
0.10958797326183511 0.11381802018255503 -0.05881318148252569
0.09026086170744585 0.13508417563253944 -0.04503663237317235
0.06606393447509745 0.1516518606426731 -0.03256264183531464
0.03812861298922152 0.1627463886755416 -0.0219744798026581
0.00776112183461779 0.16784899193101008 -0.013767236963952881
-0.023618588853366814 0.16672107835198924 -0.008324674872641508
-0.0545432386790056 0.15941538792384805 -0.005901281683140486
-0.08356682538673132 0.14627352661131474 -0.0066103725675827375
-0.10933223831949057 0.12790999324323357 -0.010418791224309682
-0.13063471540474722 0.10518344623029457 -0.017148460229686097
-0.1464781764899974 0.07915655365207994 -0.026484707740510472
-0.1561217989436371 0.05104630407873361 -0.03799098119967045
-0.15911465769785066 0.022167101538006675 -0.05112926004852021
-0.1553168100036147 -0.006130694556224693 -0.06528521297023566
-0.14490583899810702 -0.03252391070933571 -0.07979692333940908
-0.12836855011458215 -0.05577842946795974 -0.0939858397077855
-0.10647820860135712 -0.07480689538048478 -0.10718850411582756
-0.08025838249822315 -0.0887195585294621 -0.1187875746495228
-0.05093508173251916 -0.09686587824886002 -0.12824069166215663
-0.01987943125754141 -0.09886494168258346 -0.13510583790860317
0.011456441226376535 -0.09462327484627107 -0.13906200678044067
0.04160730514920751 -0.08433921336691465 -0.13992421221818788
0.06916333962419838 -0.0684936285293755 -0.13765213845384824
0.09283605510563113 -0.04782744226955434 -0.13235202513141373
0.11151854172792747 -0.0233069824881442 -0.12427169965918844
0.12433722718072149 0.0039212013680100565 -0.11378898907561691
0.13069272397918605 0.03258394968374737 -0.10139405327689094
0.13624733078856713 0.018743454098085144 -0.07223663272935513
0.13584246296603342 0.047500528618518334 -0.05850904513744144
0.12869616169190481 0.07500728050026471 -0.04409069249102014
0.11514258007121621 0.09997752459689277 -0.029655760934989898
0.09581546851682694 0.12124368004687716 -0.015879211825636553
0.07161854128447855 0.13781136505701086 -0.0034052212877788476
0.04368321979860262 0.1489058930898793 0.007182940744877695
0.013315728643998881 0.1540084963453478 0.015390183583582915
-0.01806398204398572 0.15288058276632696 0.020832745674894286
-0.04898863186962451 0.14557489233818577 0.023256138864395308
-0.07801221857735023 0.1324330310256525 0.022547047979953057
-0.10377763151010948 0.11406949765757131 0.018738629323226112
-0.1250801085953661 0.09134295064463231 0.012008960317849699
-0.1409235696806163 0.06531605806641767 0.002672712807025324
-0.150567192134256 0.03720580849307134 -0.008833560652134654
-0.15356005088846958 0.008326605952344412 -0.02197183950098442
-0.1497622031942336 -0.019971190141886957 -0.036127792422699874
-0.13935123218872594 -0.04636440629499798 -0.05063950279187328
-0.12281394330520105 -0.06961892505362201 -0.0648284191602497
-0.10092360179197603 -0.08864739096614704 -0.07803108356829176
-0.07470377568884205 -0.10256005411512437 -0.089630154101987
-0.04538047492313806 -0.11070637383452228 -0.09908327111462081
-0.014324824448160321 -0.11270543726824572 -0.10594841736106736
0.017011048035757627 -0.10846377043193334 -0.10990458623290486
0.047161911958588605 -0.09817970895257691 -0.11076679167065206
0.07471794643357947 -0.08233412411503777 -0.10849471790631245
0.09839066191501222 -0.06166793785521661 -0.10319460458387791
0.11707314853730856 -0.037147478073806466 -0.09511427911165264
0.12989183399010257 -0.009919294217652207 -0.08463156852808111
0.13624733078856713 0.01874345409808511 -0.07223663272935514
0.14180193759794824 0.004902958512422874 -0.04307921218181932
0.14139706977541452 0.03366003303285607 -0.029351624589905638
0.13425076850128592 0.06116678491460245 -0.014933271943484339
0.12069718688059729 0.0861370290112305 -0.0004983403874540912
0.10137007532620802 0.1074031844612149 0.013278208721899254
0.07717314809385963 0.12397086947134858 0.02575219925975696
0.04923782660798371 0.13506539750421703 0.0363403612924135
0.018870335453379974 0.14016800075968552 0.04454760413111872
-0.012509375234604629 0.13904008718066468 0.04999016622243009
-0.043434025060243416 0.1317343967525235 0.05241355941193111
-0.07245761176796915 0.11859253543999021 0.05170446852748886
-0.0982230247007284 0.10022900207190905 0.04789604987076192
-0.11952550178598503 0.07750245505897005 0.0411663808653855
-0.1353689628712352 0.0514755624807554 0.03183013335456113
-0.1450125853248749 0.023365312907409074 0.020323859895401152
-0.14800544407908847 -0.0055138896333178575 0.007185581046551386
-0.1442075963848525 -0.03381168572754922 -0.006970371875164071
-0.13379662537934484 -0.060204901880660244 -0.021482082244337473
-0.11725933649581997 -0.08345942063928427 -0.035670998612713896
-0.09536899498259495 -0.1024878865518093 -0.048873663020755964
-0.06914916887946097 -0.11640054970078663 -0.0604727335544512
-0.03982586811375697 -0.12454686942018454 -0.06992585056708502
-0.008770217638779228 -0.126545932853908 -0.07679099681353156
0.02256565484513872 -0.1223042660175956 -0.08074716568536906
0.0527165187679697 -0.11202020453823917 -0.08160937112311627
0.08027255324296055 -0.09617461970070003 -0.07933729735877665
0.1039452687243933 -0.07550843344087887 -0.07403718403634212
0.12262775534668964 -0.05098797365946873 -0.06595685856411684
0.13544644079948367 -0.023759789803314477 -0.05547414798054531
0.14180193759794824 0.004902958512422842 -0.043079212181819336
0.14735654440732932 -0.008937537073239396 -0.013921791634283512
0.1469516765847956 0.019819537447193798 -0.00019420404236982985
0.139805375310667 0.047326289328940174 0.01422414860405147
0.12625179368997838 0.07229653342556823 0.028659080160081715
0.10692468213558913 0.09356268887555262 0.04243562926943506
0.08272775490324073 0.1101303738856863 0.05490961980729277
0.054792433417364804 0.12122490191855477 0.06549778183994931
0.024424942262761068 0.12632750517402327 0.07370502467865453
-0.006954768425223535 0.12519959159500244 0.0791475867699659
-0.03787941825086232 0.11789390116686123 0.08157097995946692
-0.06690300495858804 0.10475203985432793 0.08086188907502467
-0.09266841789134729 0.08638850648624677 0.07705347041829773
-0.11397089497660393 0.06366195947330777 0.07032380141292131
-0.12981435606185412 0.037635066895093126 0.06098755390209694
-0.13945797851549382 0.009524817321746804 0.04948128044293696
-0.1424508372697074 -0.019354385218980127 0.036343001594087196
-0.13865298957547142 -0.0476521813132115 0.022187048672371736
-0.12824201856996376 -0.07404539746632252 0.007675338303198333
-0.11170472968643887 -0.09729991622494655 -0.006513578065178089
-0.08981438817321384 -0.11632838213747158 -0.019716242473220156
-0.06359456207007987 -0.1302410452864489 -0.03131531300691539
-0.034271261304375876 -0.1383873650058468 -0.040768430019549204
-0.003215610829398134 -0.14038642843957025 -0.04763357626599575
0.028120261654519814 -0.13614476160325786 -0.05158974513783325
0.05827112557735079 -0.12586070012390144 -0.052451950575580455
0.08582716005234166 -0.1100151152863623 -0.05017987681124084
0.10949987553377441 -0.08934892902654115 -0.044879763488806304
0.12818236215607073 -0.064828469245131 -0.03679943801658103
0.14100104760886475 -0.03760028538897675 -0.026316727433009505
0.14735654440732932 -0.008937537073239429 -0.013921791634283526
0.15291115121671042 -0.022778032658901656 0.015235628913252273
0.1525062833941767 0.005979041861531537 0.028963216505165958
0.1453599821200481 0.03348579374327792 0.04338156915158726
0.1318064004993595 0.058456037839905974 0.057816500707617506
0.11247928894497021 0.07972219328989036 0.07159304981697084
0.08828236171262181 0.09628987830002404 0.08406704035482855
0.06034704022674589 0.1073844063328925 0.0946552023874851
0.029979549072142158 0.112487009588361 0.10286244522619031
-0.0014001616158424454 0.11135909600934016 0.10830500731750169
-0.032324811441481235 0.10405340558119897 0.11072840050700271
-0.061348398149206965 0.09091154426866567 0.11001930962256046
-0.08711381108196621 0.0725480109005845 0.10621089096583351
-0.10841628816722285 0.049821463887645516 0.0994812219604571
-0.12425974925247303 0.02379457130943087 0.09014497444963272
-0.13390337170611272 -0.004315678263915456 0.07863870099047275
-0.13689623046032628 -0.03319488080464239 0.06550042214162298
-0.13309838276609032 -0.061492676898873756 0.051344469219907526
-0.12268741176058266 -0.08788589305198478 0.03683275885073412
-0.10615012287705779 -0.11114041181060881 0.022643842482357696
-0.08425978136383276 -0.13016887772313385 0.009441178074315631
-0.058039955260698786 -0.14408154087211117 -0.002157892459379605
-0.028716654494994786 -0.15222786059150908 -0.01161100947201342
0.0023389959799829554 -0.15422692402523253 -0.018476155718459966
0.0336748684639009 -0.14998525718892014 -0.022432324590297467
0.06382573238673188 -0.1397011957095637 -0.02329453002804467
0.09138176686172274 -0.12385561087202457 -0.021022456263705053
0.11505448234315549 -0.10318942461220341 -0.01572234294127052
0.13373696896545184 -0.07866896483079326 -0.007642017469045247
0.14655565441824586 -0.05144078097463901 0.002840693114526283
0.15291115121671042 -0.02277803265890169 0.01523562891325226
0.1584657580260915 -0.03661852824456392 0.04439304946078808
0.1580608902035578 -0.00786145372413073 0.058120637052701755
0.1509145889294292 0.019645298157615648 0.07253898969912306
0.13736100730874057 0.044615542254243704 0.08697392125515331
0.1180338957543513 0.0658816977042281 0.10075047036450666
0.0938369685220029 0.08244938271436178 0.11322446090236435
0.06590164703612698 0.09354391074723024 0.12381262293502089
0.03553415588152325 0.09864651400269873 0.13201986577372612
0.0041544451935386474 0.0975186004236779 0.13746242786503748
-0.02677020463210014 0.0902129099955367 0.1398858210545385
-0.05579379133982587 0.07707104868300341 0.13917673017009627
-0.08155920427258512 0.05870751531492224 0.1353683115133693
-0.10286168135784175 0.035980968301983246 0.1286386425079929
-0.11870514244309194 0.009954075723768602 0.11930239499716852
-0.12834876489673164 -0.018156173849577725 0.10779612153800855
-0.1313416236509452 -0.04703537639030465 0.09465784268915878
-0.12754377595670924 -0.07533317248453603 0.08050188976744332
-0.11713280495120157 -0.10172638863764705 0.06599017939826993
-0.1005955160676767 -0.12498090739627107 0.0518012630298935
-0.07870517455445167 -0.1440093733087961 0.038598598621851436
-0.05248534845131769 -0.15792203645777342 0.026999528088156196
-0.023162047685613692 -0.16606835617717133 0.01754641107552238
0.007893602789364048 -0.16806741961089477 0.010681264829075837
0.039229475273281994 -0.1638257527745824 0.006725095957238335
0.06938033919611297 -0.15354169129522596 0.005862890519491131
0.09693637367110383 -0.13769610645768682 0.00813496428383075
0.12060908915253658 -0.11702992019786568 0.013435077606265283
0.13929157577483292 -0.09250946041645552 0.021515403078490553
0.15211026122762694 -0.06528127656030128 0.03199811366206209
0.1584657580260915 -0.03661852824456396 0.044393049460788064
0.1640203648354726 -0.0504590238302262 0.07355047000832389
0.1636154970129389 -0.021701949309793005 0.08727805760023757
0.1564691957388103 0.005804802571953376 0.10169641024665887
0.14291561411812168 0.03077504666858143 0.11613134180268912
0.1235885025637324 0.052041202118565826 0.12990789091204247
0.099391575331384 0.0686088871286995 0.14238188144990016
0.07145625384550808 0.07970341516156797 0.15297004348255672
0.04108876269090435 0.08480601841703646 0.16117728632126194
0.009709052002919742 0.08367810483801562 0.1666198484125733
-0.021215597822719045 0.07637241440987443 0.16904324160207432
-0.05023918453044477 0.06323055309734113 0.16833415071763208
-0.07600459746320402 0.04486701972925997 0.16452573206090512
-0.09730707454846066 0.022140472716320973 0.1577960630555287
-0.11315053563371084 -0.0038864198618936718 0.14845981554470433
-0.12279415808735054 -0.031996669435239995 0.13695354208554436
-0.1257870168415641 -0.06087587197596693 0.1238152632366946
-0.12198916914732814 -0.0891736680701983 0.10965931031497914
-0.11157819814182048 -0.11556688422330932 0.09514759994580574
-0.0950409092582956 -0.13882140298193335 0.08095868357742932
-0.07315056774507057 -0.15784986889445837 0.06775601916938725
-0.04693074164193659 -0.1717625320434357 0.05615694863569201
-0.0176074408762326 -0.1799088517628336 0.046703831623058197
0.013448209598745143 -0.18190791519655705 0.03983868537661165
0.044784082082663094 -0.17766624836024467 0.03588251650477415
0.07493494600549407 -0.16738218688088824 0.035020311067026945
0.10249098048048493 -0.1515366020433491 0.037292384831366564
0.12616369596191768 -0.13087041578352795 0.042592498153801096
0.14484618258421403 -0.1063499560021178 0.05067282362602637
0.15766486803700805 -0.07912177214596355 0.0611555342095979
0.1640203648354726 -0.050459023830226234 0.07355047000832388
0.1695749716448537 -0.06429951941588846 0.10270789055585967
0.16917010382231998 -0.035542444895455265 0.11643547814777336
0.16202380254819138 -0.008035693013708886 0.13085383079419466
0.14847022092750276 0.01693455108291917 0.14528876235022492
0.1291431093731135 0.03820070653290356 0.15906531145957825
0.10494618214076509 0.05476839154303725 0.17153930199743594
0.07701086065488917 0.0658629195759057 0.1821274640300925
0.046643369500285435 0.0709655228313742 0.19033470686879772
0.015263658812300832 0.06983760925235336 0.19577726896010908
-0.015660991013337955 0.06253191882421216 0.1982006621496101
-0.044684577721063684 0.049390057511678874 0.19749157126516786
-0.07044999065382293 0.03102652414359771 0.1936831526084409
-0.09175246773907957 0.008299977130658711 0.1869534836030645
-0.10759592882432975 -0.017726915447555933 0.17761723609224012
-0.11723955127796945 -0.04583716502090226 0.16611096263308014
-0.12023241003218302 -0.0747163675616292 0.15297268378423037
-0.11643456233794705 -0.10301416365586057 0.13881673086251492
-0.10602359133243938 -0.12940737980897157 0.12430502049334152
-0.0894863024489145 -0.1526618985675956 0.1101161041249651
-0.06759596093568948 -0.17169036448012065 0.09691343971692304
-0.041376134832555506 -0.18560302762909797 0.0853143691832278
-0.012052834066851509 -0.1937493473484959 0.07586125217059399
0.019002816408126233 -0.19574841078221933 0.06899610592414744
0.05033868889204418 -0.19150674394590694 0.06503993705230994
0.08048955281487516 -0.18122268246655052 0.06417773161456274
0.10804558728986602 -0.16537709762901137 0.06644980537890235
0.13171830277129878 -0.1447109113691902 0.07174991870133689
0.1504007893935951 -0.12019045158778006 0.07983024417356216
0.16321947484638913 -0.09296226773162582 0.09031295475713369
0.1695749716448537 -0.06429951941588849 0.10270789055585966
-0.024995730642214914 0.0622822301354802 -0.13120839246391108
-0.008931370530810605 0.0620580868821015 -0.13437511489813903
0.007132989580593704 0.061833943628722805 -0.13754183733236697
0.02319734969199802 0.06160980037534411 -0.1407085597665949
0.03926170980340232 0.06138565712196541 -0.14387528220082282
0.05532606991480664 0.06116151386858672 -0.14704200463505077
0.07139043002621095 0.06093737061520802 -0.1502087270692787
0.08745479013761526 0.060713227361829325 -0.15337544950350665
0.10351915024901956 0.060489084108450636 -0.15654217193773456
0.11958351036042386 0.06026494085507194 -0.1597088943719625
-0.024995730642214914 0.0622822301354802 -0.13120839246391108
-0.009302445501180888 0.06688851315538687 -0.132011508386475
0.006390839639853138 0.07149479617529354 -0.13281462430903887
0.022084124780887164 0.07610107919520022 -0.13361774023160275
0.03777740992192119 0.0807073622151069 -0.13442085615416663
0.05347069506295521 0.08531364523501357 -0.1352239720767305
0.06916398020398924 0.08991992825492023 -0.1360270879992944
0.08485726534502328 0.09452621127482691 -0.13683020392185827
0.1005505504860573 0.09913249429473359 -0.13763331984442218
0.11624383562709134 0.10373877731464026 -0.13843643576698605
-0.024995730642214914 0.0622822301354802 -0.13120839246391108
-0.011374131422990503 0.0712197771896201 -0.12956087180297363
0.0022474677962339078 0.08015732424375999 -0.12791335114203617
0.015869067015458316 0.08909487129789989 -0.12626583048109868
0.02949066623468273 0.09803241835203978 -0.12461830982016121
0.04311226545390712 0.10696996540617967 -0.12297078915922374
0.056733864673131545 0.11590751246031958 -0.12132326849828627
0.07035546389235596 0.12484505951445947 -0.1196757478373488
0.08397706311158037 0.13378260656859936 -0.11802822717641133
0.09759866233080479 0.14272015362273927 -0.11638070651547387
-0.024995730642214914 0.0622822301354802 -0.13120839246391108
-0.01492192898109224 0.07458251932020599 -0.12728876964700184
-0.004848127319969565 0.08688280850493177 -0.12336914683009259
0.005225674341153112 0.09918309768965754 -0.11944952401318334
0.015299476002275783 0.11148338687438333 -0.11552990119627408
0.02537327766339846 0.12378367605910912 -0.11161027837936484
0.03544707932452114 0.13608396524383487 -0.10769065556245559
0.045520880985643816 0.14838425442856068 -0.10377103274554633
0.05559468264676648 0.16068454361328646 -0.09985140992863709
0.06566848430788917 0.17298483279801224 -0.09593178711172783
-0.024995730642214914 0.0622822301354802 -0.13120839246391108
-0.019561379260314687 0.07661233425897528 -0.1254414194424566
-0.01412702787841446 0.09094243838247036 -0.11967444642100211
-0.008692676496514236 0.10527254250596545 -0.11390747339954763
-0.0032583251146140056 0.11960264662946053 -0.10814050037809313
0.002176026267286225 0.13393275075295563 -0.10237352735663864
0.007610377649186442 0.1482628548764507 -0.09660655433518416
0.013044729031086673 0.16259295899994577 -0.09083958131372966
0.018479080412986904 0.17692306312344086 -0.08507260829227517
0.023913431794887134 0.19125316724693597 -0.07930563527082067
-0.024995730642214914 0.0622822301354802 -0.13120839246391108
-0.024789725834415778 0.07708926006148843 -0.12421901024859222
-0.024583721026616642 0.09189628998749667 -0.11722962803327336
-0.024377716218817506 0.10670331991350492 -0.11024024581795448
-0.024171711411018367 0.12151034983951314 -0.1032508636026356
-0.02396570660321923 0.13631737976552138 -0.09626148138731673
-0.0237597017954201 0.15112440969152963 -0.08927209917199787
-0.023553696987620956 0.16593143961753787 -0.08228271695667899
-0.023347692179821824 0.18073846954354608 -0.07529333474136013
-0.023141687372022685 0.19554549946955438 -0.06830395252604124
-0.024995730642214914 0.0622822301354802 -0.13120839246391108
-0.030040396225935843 0.07596161441677685 -0.12375400906919685
-0.03508506180965677 0.0896409986980735 -0.11629962567448261
-0.040129727393377695 0.10332038297937014 -0.10884524227976837
-0.045174392977098625 0.1169997672606668 -0.10139085888505413
-0.05021905856081955 0.13067915154196344 -0.09393647549033987
-0.05526372414454048 0.14435853582326008 -0.08648209209562564
-0.060308389728261406 0.15803792010455672 -0.0790277087009114
-0.06535305531198234 0.1717173043858534 -0.07157332530619716
-0.07039772089570326 0.18539668866715 -0.06411894191148292
-0.024995730642214914 0.0622822301354802 -0.13120839246391108
-0.034744398825408154 0.07335159522766999 -0.1240968059972947
-0.04449306700860139 0.08442096031985978 -0.11698521953067828
-0.05424173519179463 0.09549032541204956 -0.10987363306406188
-0.06399040337498786 0.10655969050423937 -0.10276204659744546
-0.0737390715581811 0.11762905559642915 -0.09565046013082906
-0.08348773974137434 0.12869842068861892 -0.08853887366421266
-0.09323640792456757 0.13976778578080873 -0.08142728719759626
-0.10298507610776081 0.15083715087299854 -0.07431570073097984
-0.11273374429095405 0.16190651596518832 -0.06720411426436344
-0.024995730642214914 0.0622822301354802 -0.13120839246391108
-0.03839198196105912 0.06954203857192802 -0.12521025366668395
-0.051788233279903326 0.07680184700837585 -0.11921211486945682
-0.06518448459874754 0.08406165544482368 -0.11321397607222967
-0.07858073591759174 0.0913214638812715 -0.10721583727500253
-0.09197698723643592 0.09858127231771935 -0.1012176984777754
-0.10537323855528015 0.10584108075416716 -0.09521955968054825
-0.11876948987412435 0.113100889190615 -0.08922142088332112
-0.13216574119296856 0.12036069762706282 -0.08322328208609397
-0.14556199251181273 0.12762050606351064 -0.07722514328886684
-0.024995730642214914 0.0622822301354802 -0.13120839246391108
-0.040587873402057106 0.06494576902456257 -0.12697369274546563
-0.056180016161899306 0.06760930791364494 -0.12273899302702017
-0.07177215892174148 0.07027284680272733 -0.1185042933085747
-0.0873643016815837 0.0729363856918097 -0.11426959359012923
-0.10295644444142588 0.07559992458089208 -0.11003489387168376
-0.11854858720126804 0.07826346346997445 -0.1058001941532383
-0.13414072996111026 0.08092700235905682 -0.10156549443479283
-0.14973287272095248 0.08359054124813921 -0.09733079471634735
-0.16532501548079465 0.08625408013722158 -0.09309609499790189
-0.024995730642214914 0.0622822301354802 -0.13120839246391108
-0.04109411423800364 0.0600608637095009 -0.12919602724687715
-0.05719249783379236 0.057839497283521606 -0.1271836620298432
-0.07329088142958108 0.0556181308575423 -0.12517129681280925
-0.08938926502536981 0.05339676443156301 -0.12315893159577529
-0.10548764862115854 0.05117539800558371 -0.12114656637874134
-0.12158603221694725 0.04895403157960441 -0.11913420116170739
-0.13768441581273597 0.04673266515362511 -0.11712183594467344
-0.1537827994085247 0.044511298727645816 -0.1151094707276395
-0.16988118300431343 0.042289932301666514 -0.11309710551060553
-0.024995730642214914 0.0622822301354802 -0.13120839246391108
-0.03985584541918799 0.05541667791474555 -0.13163643274461787
-0.05471596019616107 0.0485511256940109 -0.13206447302532462
-0.06957607497313414 0.04168557347327625 -0.1324925133060314
-0.08443618975010722 0.0348200212525416 -0.13292055358673815
-0.0992963045270803 0.02795446903180695 -0.13334859386744494
-0.11415641930405337 0.0210889168110723 -0.1337766341481517
-0.12901653408102645 0.014223364590337658 -0.13420467442885847
-0.14387664885799953 0.007357812369603 -0.13463271470956523
-0.1587367636349726 0.0004922601488683504 -0.13506075499027198
-0.024995730642214914 0.0622822301354802 -0.13120839246391108
-0.03700725258584923 0.051516481233125674 -0.13403045343621472
-0.04901877452948355 0.04075073233077115 -0.13685251440851834
-0.06103029647311787 0.02998498342841663 -0.13967457538082198
-0.07304181841675218 0.019219234526062105 -0.1424966363531256
-0.0850533403603865 0.008453485623707584 -0.1453186973254292
-0.09706486230402082 -0.00231226327864694 -0.14814075829773285
-0.10907638424765512 -0.013078012181001455 -0.15096281927003646
-0.12108790619128944 -0.023843761083355987 -0.1537848802423401
-0.1330994281349238 -0.0346095099857105 -0.15660694121464372
-0.024995730642214914 0.0622822301354802 -0.13120839246391108
-0.032857024971951546 0.04878292049288166 -0.13611866003267478
-0.04071831930168818 0.03528361085028313 -0.14102892760143848
-0.048579613631424816 0.021784301207684584 -0.14593919517020215
-0.05644090796116144 0.008284991565086055 -0.15084946273896585
-0.06430220229089809 -0.005214318077512484 -0.15575973030772955
-0.07216349662063472 -0.01871362772011103 -0.16066999787649322
-0.08002479095037135 -0.03221293736270956 -0.16558026544525692
-0.08788608528010797 -0.04571224700530809 -0.17049053301402062
-0.09574737960984461 -0.05921155664790664 -0.1754008005827843
-0.024995730642214914 0.0622822301354802 -0.13120839246391108
-0.02785490413687728 0.04751221941578407 -0.13767476294740777
-0.030714077631539646 0.03274220869608793 -0.14414113343090446
-0.03357325112620201 0.017972197976391803 -0.15060750391440114
-0.03643242462086438 0.0032021872566956678 -0.15707387439789783
-0.039291598115526745 -0.011567823463000467 -0.16354024488139451
-0.042150771610189104 -0.02633783418269659 -0.17000661536489117
-0.04500994510485147 -0.04110784490239274 -0.1764729858483879
-0.04786911859951384 -0.055877855622088864 -0.18293935633188455
-0.0507282920941762 -0.07064786634178502 -0.18940572681538126
-0.024995730642214914 0.0622822301354802 -0.13120839246391108
-0.02254294748900853 0.04784207818049513 -0.13853013428417787
-0.02009016433580214 0.033401926225510054 -0.14585187610444464
-0.01763738118259575 0.018961774270524985 -0.15317361792471143
-0.015184598029389366 0.0045216223155399105 -0.1604953597449782
-0.012731814876182978 -0.00991852963944515 -0.16781710156524496
-0.01027903172297659 -0.024358681594430227 -0.17513884338551175
-0.007826248569770204 -0.03879883354941529 -0.1824605852057785
-0.005373465416563819 -0.05323898550440038 -0.1897823270260453
-0.0029206822633574274 -0.06767913745938542 -0.19710406884631207
-0.024995730642214914 0.0622822301354802 -0.13120839246391108
-0.017496787954641647 0.04973675147157232 -0.13859208128619221
-0.009997845267068381 0.03719127280766444 -0.14597577010847335
-0.0024989025794951163 0.024645794143756568 -0.15335945893075448
0.005000040108078151 0.012100315479848677 -0.1607431477530356
0.012498982795651419 -0.000445163184059189 -0.16812683657531674
0.019997925483224682 -0.01299064184796706 -0.17551052539759784
0.02749686817079794 -0.02553612051187496 -0.18289421421987898
0.03499581085837122 -0.03808159917578285 -0.1902779030421601
0.04249475354594448 -0.05062707783969072 -0.19766159186444124
-0.024995730642214914 0.0622822301354802 -0.13120839246391108
-0.013263255218557922 0.05299092203904224 -0.13785389103457582
-0.0015307797949009297 0.043699613942604285 -0.14449938960524053
0.010201695628756065 0.03440830584616633 -0.15114488817590524
0.021934171052413055 0.025116997749728365 -0.15779038674656995
0.033666646476070046 0.01582568965329042 -0.16443588531723466
0.045399121899727043 0.00653438155685246 -0.17108138388789937
0.057131597323384034 -0.0027569265395855002 -0.17772688245856408
0.06886407274704102 -0.012048234636023466 -0.1843723810292288
0.08059654817069803 -0.021339542732461407 -0.1910178795998935
-0.024995730642214914 0.0622822301354802 -0.13120839246391108
-0.010301118242740692 0.05725195000826063 -0.13639555789729318
0.00439349415673353 0.052221669881041065 -0.1415827233306753
0.019088106556207747 0.0471913897538215 -0.14676988876405736
0.033782718955681974 0.04216110962660193 -0.15195705419743946
0.04847733135515618 0.037130829499382366 -0.15714421963082154
0.06317194375463041 0.03210054937216281 -0.16233138506420364
0.07786655615410464 0.02707026924494324 -0.1675185504975857
0.09256116855357886 0.022039989117723667 -0.1727057159309678
0.1072557809530531 0.0170097089905041 -0.1778928813643499
-0.024995730642214914 0.0622822301354802 -0.13120839246391108
-0.008931370530810605 0.0620580868821015 -0.13437511489813903
0.007132989580593704 0.0618339436287228 -0.13754183733236697
0.02319734969199802 0.0616098003753441 -0.1407085597665949
0.03926170980340232 0.0613856571219654 -0.14387528220082285
0.05532606991480664 0.0611615138685867 -0.14704200463505077
0.07139043002621095 0.060937370615208 -0.1502087270692787
0.08745479013761526 0.060713227361829304 -0.15337544950350665
0.10351915024901956 0.0604890841084506 -0.1565421719377346
0.11958351036042386 0.060264940855071905 -0.15970889437196253
0.024995730642214914 -0.0622822301354802 0.13120839246391108
0.04106009075361922 -0.0625063733888589 0.12804167002968317
0.05712445086502353 -0.0627305166422376 0.12487494759545523
0.07318881097642785 -0.06295465989561629 0.12170822516122728
0.08925317108783215 -0.06317880314899497 0.11854150272699936
0.10531753119923647 -0.06340294640237368 0.11537478029277141
0.12138189131064078 -0.06362708965575237 0.11220805785854349
0.13744625142204508 -0.06385123290913107 0.10904133542431554
0.1535106115334494 -0.06407537616250976 0.10587461299008762
0.1695749716448537 -0.06429951941588846 0.10270789055585967
0.024995730642214914 -0.0622822301354802 0.13120839246391108
0.04068901578324894 -0.05767594711557353 0.1304052765413472
0.056382300924282966 -0.05306966409566685 0.12960216061878332
0.072075586065317 -0.04846338107576018 0.12879904469621944
0.08776887120635102 -0.043857098055853506 0.12799592877365557
0.10346215634738504 -0.03925081503594683 0.12719281285109169
0.11915544148841907 -0.03464453201604016 0.1263896969285278
0.1348487266294531 -0.030038248996133485 0.12558658100596393
0.15054201177048712 -0.02543196597622681 0.12478346508340003
0.16623529691152117 -0.02082568295632014 0.12398034916083614
0.024995730642214914 -0.0622822301354802 0.13120839246391108
0.03861732986143933 -0.0533446830813403 0.13285591312484857
0.052238929080663736 -0.04440713602720041 0.13450343378578603
0.06586052829988814 -0.03546958897306051 0.1361509544467235
0.07948212751911256 -0.026532041918920612 0.13779847510766097
0.09310372673833694 -0.01759449486478072 0.13944599576859845
0.10672532595756137 -0.008656947810640825 0.1410935164295359
0.12034692517678579 0.00028059924349906664 0.1427410370904734
0.1339685243960102 0.00921814629763897 0.14438855775141085
0.14759012361523463 0.018155693351778864 0.14603607841234834
0.024995730642214914 -0.0622822301354802 0.13120839246391108
0.03506953230333759 -0.049981940950754415 0.13512801528082036
0.04514333396446026 -0.03768165176602863 0.1390476380977296
0.05521713562558294 -0.025381362581302858 0.14296726091463885
0.06529093728670561 -0.01308107339657707 0.1468868837315481
0.07536473894782829 -0.0007807842118512801 0.15080650654845734
0.08543854060895097 0.01151950497287448 0.1547261293653666
0.09551234227007364 0.023819794157600292 0.15864575218227586
0.10558614393119631 0.03612008334232606 0.1625653749991851
0.115659945592319 0.04842037252705186 0.16648499781609435
0.024995730642214914 -0.0622822301354802 0.13120839246391108
0.03043008202411514 -0.04795212601198511 0.1369753654853656
0.03586443340601537 -0.033622021888490033 0.14274233850682008
0.04129878478791559 -0.019291917764994948 0.14850931152827457
0.04673313616981582 -0.0049618136414998635 0.15427628454972905
0.05216748755171605 0.009368290481995228 0.16004325757118354
0.05760183893361627 0.0236983946054903 0.16581023059263802
0.06303619031551651 0.03802849872898537 0.17157720361409254
0.06847054169741673 0.05235860285248047 0.17734417663554702
0.07390489307931697 0.06668870697597556 0.1831111496570015
0.024995730642214914 -0.0622822301354802 0.13120839246391108
0.02520173545001405 -0.04747520020947196 0.13819777467922997
0.025407740257813186 -0.03266817028346373 0.14518715689454884
0.02561374506561232 -0.017861140357455486 0.1521765391098677
0.02581974987341146 -0.0030541104314472526 0.1591659213251866
0.026025754681210597 0.011752919494560995 0.16615530354050545
0.026231759489009732 0.026559949420569225 0.1731446857558243
0.02643776429680887 0.04136697934657748 0.1801340679711432
0.026643769104608007 0.056174009272585694 0.18712345018646206
0.026849773912407143 0.07098103919859397 0.19411283240178095
0.024995730642214914 -0.0622822301354802 0.13120839246391108
0.019951065058493988 -0.04860284585418355 0.13866277585862533
0.014906399474773058 -0.0349234615728869 0.14611715925333957
0.009861733891052132 -0.02124407729159026 0.1535715426480538
0.004817068307331203 -0.0075646930102936044 0.16102592604276805
-0.00022759727638971587 0.006114691271003051 0.16848030943748232
-0.005272262860110649 0.01979407555229968 0.17593469283219654
-0.010316928443831579 0.03347345983359632 0.18338907622691078
-0.015361594027552508 0.04715284411489299 0.19084345962162502
-0.02040625961127343 0.06083222839618962 0.19829784301633926
0.024995730642214914 -0.0622822301354802 0.13120839246391108
0.015247062459021677 -0.05121286504329041 0.1383199789305275
0.00549839427582844 -0.040143499951100614 0.1454315653971439
-0.0042502739073648 -0.029074134858910833 0.1525431518637603
-0.013998942090558034 -0.01800476976672103 0.15965473833037672
-0.023747610273751274 -0.006935404674531243 0.16676632479699313
-0.033496278456944514 0.004133960417658531 0.17387791126360952
-0.04324494664013774 0.015203325509848339 0.18098949773022593
-0.05299361482333098 0.026272690602038136 0.18810108419684235
-0.06274228300652422 0.03734205569422792 0.19521267066345874
0.024995730642214914 -0.0622822301354802 0.13120839246391108
0.011599479323370708 -0.05502242169903237 0.13720653126113824
-0.0017967719954734974 -0.04776261326258455 0.14320467005836537
-0.015193023314317704 -0.04050280482613672 0.1492028088555925
-0.02858927463316191 -0.03324299638968889 0.15520094765281967
-0.041985525952006095 -0.025983187953241053 0.1611990864500468
-0.05538177727085032 -0.01872337951679323 0.16719722524727393
-0.06877802858969452 -0.011463571080345398 0.17319536404450106
-0.08217427990853873 -0.004203762643897582 0.17919350284172822
-0.0955705312273829 0.003056045792550247 0.18519164163895535
0.024995730642214914 -0.0622822301354802 0.13120839246391108
0.00940358788237272 -0.05961869124639782 0.13544309218235656
-0.0061885548774694744 -0.05695515235731545 0.13967779190080204
-0.02178069763731165 -0.05429161346823307 0.1439124916192475
-0.03737284039715386 -0.051628074579150696 0.14814719133769297
-0.05296498315699605 -0.04896453569006832 0.15238189105613842
-0.06855712591683821 -0.04630099680098594 0.1566165907745839
-0.08414926867668043 -0.04363745791190357 0.16085129049302938
-0.09974141143652264 -0.040973919022821194 0.16508599021147483
-0.11533355419636482 -0.038310380133738824 0.1693206899299203
0.024995730642214914 -0.0622822301354802 0.13120839246391108
0.00889734704642619 -0.0645035965614595 0.13322075768094505
-0.0072010365493625356 -0.0667249629874388 0.135233122897979
-0.023299420145151253 -0.06894632941341809 0.13724548811501294
-0.039397803740939985 -0.07116769583939739 0.1392578533320469
-0.05549618733672872 -0.07338906226537668 0.14127021854908084
-0.07159457093251742 -0.07561042869135598 0.1432825837661148
-0.08769295452830614 -0.07783179511733529 0.14529494898314876
-0.10379133812409488 -0.08005316154331459 0.1473073142001827
-0.1198897217198836 -0.08227452796929388 0.14931967941721666
0.024995730642214914 -0.0622822301354802 0.13120839246391108
0.010135615865241837 -0.06914778235621485 0.13078035218320433
-0.00472449891173124 -0.0760133345769495 0.13035231190249758
-0.019584613688704317 -0.08287888679768415 0.1299242716217908
-0.03444472846567739 -0.0897444390184188 0.12949623134108404
-0.04930484324265047 -0.09660999123915345 0.12906819106037726
-0.06416495801962355 -0.1034755434598881 0.1286401507796705
-0.07902507279659661 -0.11034109568062274 0.12821211049896372
-0.0938851875735697 -0.1172066479013574 0.12778407021825697
-0.10874530235054278 -0.12407220012209205 0.12735602993755019
0.024995730642214914 -0.0622822301354802 0.13120839246391108
0.012984208698580598 -0.07304797903783472 0.12838633149160747
0.0009726867549462833 -0.08381372794018925 0.12556427051930386
-0.011038835188688041 -0.09457947684254377 0.12274220954700021
-0.023050357132322348 -0.1053452257448983 0.1199201485746966
-0.035061879075956676 -0.11611097464725281 0.11709808760239297
-0.047073401019590996 -0.12687672354960733 0.11427602663008934
-0.05908492296322529 -0.13764247245196184 0.11145396565778572
-0.07109644490685961 -0.1484082213543164 0.10863190468548209
-0.08310796685049394 -0.1591739702566709 0.10580984371317848
0.024995730642214914 -0.0622822301354802 0.13120839246391108
0.017134436312478282 -0.07578153977807874 0.1262981248951474
0.00927314198274165 -0.08928084942067727 0.12138785732638371
0.0014118476530050159 -0.10278015906327581 0.11647758975762003
-0.006449446676731613 -0.11627946870587434 0.11156732218885634
-0.014310741006468251 -0.12977877834847287 0.10665705462009265
-0.022172035336204883 -0.14327808799107142 0.10174678705132896
-0.030033329665941515 -0.15677739763366996 0.09683651948256526
-0.03789462399567814 -0.17027670727626848 0.09192625191380158
-0.045755918325414785 -0.18377601691886702 0.08701598434503789
0.024995730642214914 -0.0622822301354802 0.13120839246391108
0.022136557147552548 -0.07705224085517633 0.12474202198041441
0.019277383652890185 -0.09182225157487246 0.11827565149691772
0.01641821015822782 -0.1065922622945686 0.11180928101342105
0.013559036663565453 -0.12136227301426473 0.10534291052992437
0.010699863168903086 -0.13613228373396086 0.09887654004642768
0.007840689674240724 -0.150902294453657 0.09241016956293101
0.0049815161795783575 -0.16567230517335313 0.08594379907943431
0.0021223426849159917 -0.18044231589304927 0.07947742859593764
-0.0007368308097463746 -0.19521232661274543 0.07301105811244094
0.024995730642214914 -0.0622822301354802 0.13120839246391108
0.027448513795421303 -0.07672238209046527 0.12388665064364432
0.029901296948627688 -0.09116253404545034 0.11656490882337754
0.032354080101834076 -0.10560268600043542 0.10924316700311076
0.03480686325504046 -0.12004283795542049 0.101921425182844
0.03725964640824685 -0.13448298991040555 0.09459968336257722
0.03971242956145324 -0.14892314186539063 0.08727794154231044
0.042165212714659624 -0.16336329382037568 0.07995619972204367
0.04461799586786601 -0.17780344577536078 0.07263445790177689
0.0470707790210724 -0.19224359773034583 0.06531271608151012
0.024995730642214914 -0.0622822301354802 0.13120839246391108
0.03249467332978818 -0.07482770879938808 0.12382470364162997
0.03999361601736145 -0.08737318746329596 0.11644101481934885
0.04749255870493471 -0.09991866612720383 0.10905732599706772
0.05499150139250798 -0.11246414479111172 0.10167363717478659
0.062490444080081246 -0.1250096234550196 0.09428994835250545
0.06998938676765451 -0.13755510211892746 0.08690625953022434
0.07748832945522777 -0.15010058078283536 0.0795225707079432
0.08498727214280105 -0.16264605944674324 0.07213888188566207
0.09248621483037431 -0.1751915381106511 0.06475519306338096
0.024995730642214914 -0.0622822301354802 0.13120839246391108
0.036728206065871905 -0.07157353823191816 0.12456289389324639
0.0484606814895289 -0.08086484632835611 0.11791739532258168
0.06019315691318589 -0.09015615442479406 0.11127189675191695
0.07192563233684289 -0.09944746252123203 0.10462639818125224
0.08365810776049988 -0.10873877061766998 0.09798089961058754
0.09539058318415687 -0.11803007871410794 0.09133540103992283
0.10712305860781386 -0.1273213868105459 0.08468990246925812
0.11885553403147085 -0.13661269490698386 0.0780444038985934
0.13058800945512786 -0.1459040030034218 0.0713989053279287
0.024995730642214914 -0.0622822301354802 0.13120839246391108
0.039690343041689134 -0.06731251026269977 0.126021227030529
0.05438495544116336 -0.07234279038991934 0.12083406159714692
0.06907956784063758 -0.07737307051713889 0.11564689616376483
0.08377418024011181 -0.08240335064435847 0.11045973073038273
0.09846879263958601 -0.08743363077157804 0.10527256529700066
0.11316340503906024 -0.09246391089879759 0.10008539986361857
0.12785801743853448 -0.09749419102601715 0.09489823443023647
0.1425526298380087 -0.10252447115323673 0.08971106899685438
0.15724724223748293 -0.1075547512804563 0.0845239035634723
0.024995730642214914 -0.0622822301354802 0.13120839246391108
0.04106009075361922 -0.0625063733888589 0.12804167002968317
0.05712445086502353 -0.0627305166422376 0.12487494759545523
0.07318881097642785 -0.0629546598956163 0.12170822516122728
0.08925317108783215 -0.063178803148995 0.11854150272699934
0.10531753119923647 -0.06340294640237369 0.11537478029277141
0.12138189131064078 -0.0636270896557524 0.11220805785854347
0.13744625142204508 -0.0638512329091311 0.10904133542431554
0.1535106115334494 -0.06407537616250979 0.1058746129900876
0.1695749716448537 -0.06429951941588849 0.10270789055585966
