# .PCD v0.7 - Point Cloud Data file format
VERSION 0.7
FIELDS x y z
SIZE 4 4 4
TYPE F F F
COUNT 1 1 1
WIDTH 700
HEIGHT 1
VIEWPOINT 0 0 0 1 0 0 0
POINTS 700
DATA ascii
0.10390243533326755 -0.05690364518747839 -0.1172879365581041
0.10118645011015823 -0.03396018001965928 -0.12805549364631305
0.09312047001910638 -0.011815508251375876 -0.137764918589772
0.08008165132447659 0.00849490987752184 -0.14596220946937558
0.06267967469682362 0.02602138178873501 -0.1522640700742279
0.0417282372223486 0.03994438913496982 -0.1563758324064612
0.018207004831507754 0.0496129075670275 -0.15810523502931575
-0.006784195791075368 0.05457484790881149 -0.15737141299823984
-0.032076803880013355 0.05459819534474059 -0.15420867901582205
-0.056488165191782305 0.04968185817465954 -0.1487649190079538
-0.0788768316027233 0.04005571886052505 -0.14129467714229837
-0.0981959339546763 0.026169884977980597 -0.13214725362591628
-0.11354213249330403 0.008673642686378031 -0.1217503718158025
-0.12419785603101491 -0.01161490317040391 -0.11059017835009383
-0.12966485477817166 -0.033747082737201214 -0.0991885114715826
-0.12968749794948997 -0.05668801989562139 -0.08807850045146542
-0.12426472677544503 -0.079365021921157 -0.07777963705715261
-0.11365010400915791 -0.10071773740277157 -0.0687734846945977
-0.09833995761387435 -0.1197477370963835 -0.061481161038654315
-0.07905017301903225 -0.13556519936664504 -0.05624364703863878
-0.056682719113230626 -0.14743051725764547 -0.05330584302811307
-0.03228347318146531 -0.15478888169215527 -0.052805117457474744
-0.006993316845691489 -0.1572962237274514 -0.05476488369789035
0.018005210291819975 -0.15483530283667393 -0.059093505258081776
0.041543204885986416 -0.14752118894555855 -0.06558858060481182
0.06252005647018666 -0.13569588189060003 -0.07394640723362512
0.0799549107784395 -0.11991231988680347 -0.08377618246041552
0.09303253340073979 -0.10090852475129716 -0.09461827692058872
0.10114142923800248 -0.07957309282341604 -0.10596572632730962
0.10390243533326755 -0.05690364518747842 -0.11728793655810409
0.10684247727677165 -0.04556066256265886 -0.09385994688400373
0.10412649205366233 -0.02261719739483975 -0.10462750397221268
0.09606051196261048 -0.0004725256265563433 -0.11433692891567164
0.08302169326798069 0.019837892502341373 -0.12253421979527519
0.06561971664032772 0.03736436441355454 -0.12883608040012753
0.0446682791658527 0.05128737175978935 -0.13294784273236082
0.02114704677501185 0.06095589019184703 -0.13467724535521539
-0.00384415384757127 0.06591783053363101 -0.13394342332413947
-0.02913676193650926 0.06594117796956012 -0.13078068934172168
-0.05354812324827821 0.06102484079947907 -0.12533692933385343
-0.0759367896592192 0.05139870148534458 -0.117866687468198
-0.0952558920111722 0.03751286760280013 -0.10871926395181591
-0.11060209054979993 0.020016625311197564 -0.09832238214170214
-0.12125781408751081 -0.0002719205455843785 -0.08716218867599346
-0.12672481283466758 -0.02240410011238168 -0.07576052179748223
-0.1267474560059859 -0.04534503727080186 -0.06465051077736506
-0.12132468483194093 -0.06802203929633747 -0.05435164738305225
-0.11071006206565381 -0.08937475477795204 -0.045345495020497326
-0.09539991567037025 -0.10840475447156397 -0.038053171364553946
-0.07611013107552815 -0.12422221674182551 -0.03281565736453841
-0.05374267716972653 -0.13608753463282594 -0.029877853354012704
-0.02934343123796121 -0.14344589906733574 -0.029377127783374375
-0.004053274902187391 -0.14595324110263186 -0.03133689402378998
0.02094525223532407 -0.1434923202118544 -0.03566551558398141
0.044483246829490515 -0.13617820632073901 -0.04216059093071144
0.06546009841369076 -0.12435289926578051 -0.050518417559524756
0.0828949527219436 -0.10856933726198394 -0.06034819278631514
0.09597257534424389 -0.08956554212647763 -0.07119028724648835
0.10408147118150658 -0.06823011019859651 -0.08253773665320925
0.10684247727677165 -0.04556066256265889 -0.09385994688400372
0.10978251922027575 -0.03421767993783933 -0.07043195720990336
0.10706653399716642 -0.011274214770020217 -0.08119951429811231
0.09900055390611458 0.01087045699826319 -0.09090893924157127
0.08596173521148479 0.031180875127160904 -0.09910623012117482
0.06855975858383181 0.04870734703837407 -0.10540809072602718
0.047608321109356797 0.06263035438460889 -0.10951985305826045
0.024087088718515948 0.07229887281666657 -0.111249255681115
-0.0009041119040671719 0.07726081315845056 -0.11051543365003912
-0.02619671999300516 0.07728416059437966 -0.10735269966762132
-0.05060808130477411 0.07236782342429861 -0.10190893965975306
-0.0729967477157151 0.06274168411016412 -0.09443869779409764
-0.0923158500676681 0.04885585022761966 -0.08529127427771555
-0.10766204860629583 0.031359607936017095 -0.07489439246760177
-0.11831777214400671 0.011071062079235154 -0.06373419900189309
-0.12378477089116346 -0.011061117487562147 -0.05233253212338187
-0.12380741406248177 -0.03400205464598232 -0.041222521103264693
-0.11838464288843684 -0.05667905667151794 -0.03092365770895188
-0.10777002012214972 -0.0780317721531325 -0.021917505346396957
-0.09245987372686615 -0.09706177184674443 -0.014625181690453577
-0.07317008913202405 -0.11287923411700597 -0.009387667690438042
-0.05080263522622243 -0.1247445520080064 -0.006449863679912335
-0.02640338929445711 -0.1321029164425162 -0.005949138109274006
-0.0011132329586832931 -0.13461025847781233 -0.007908904349689612
0.02388529417882817 -0.13214933758703487 -0.012237525909881038
0.047423288772994614 -0.12483522369591948 -0.018732601256611074
0.06840014035719486 -0.11300991664096097 -0.027090427885424387
0.0858349946654477 -0.09722635463716439 -0.03692020311221477
0.09891261728774799 -0.0782225595016581 -0.04776229757238798
0.10702151312501068 -0.05688712757377698 -0.059109746979108875
0.10978251922027575 -0.03421767993783935 -0.07043195720990335
0.11272256116377985 -0.022874697313019794 -0.04700396753580299
0.11000657594067052 6.876785479931412e-05 -0.057771524624011944
0.10194059584961868 0.022213439623082722 -0.06748094956747089
0.08890177715498888 0.042523857751980434 -0.07567824044707445
0.07149980052733591 0.060050329663193604 -0.0819801010519268
0.050548363052860895 0.07397333700942842 -0.08609186338416007
0.027027130662020046 0.0836418554414861 -0.08782126600701463
0.002035930039436926 0.08860379578327009 -0.08708744397593873
-0.023256678049501062 0.08862714321919919 -0.08392470999352093
-0.04766803936127001 0.08371080604911814 -0.07848094998565269
-0.070056705772211 0.07408466673498365 -0.07101070811999727
-0.089375808124164 0.06019883285243919 -0.06186328460361517
-0.10472200666279173 0.042702590560836626 -0.0514664027935014
-0.11537773020050261 0.022414044704054687 -0.04030620932779271
-0.12084472894765937 0.00028186513725738386 -0.0289045424492815
-0.12086737211897768 -0.022659072021162793 -0.01779453142916432
-0.11544460094493274 -0.045336074046698406 -0.007495668034851511
-0.10482997817864562 -0.06668878952831298 0.0015104843277034127
-0.08951983178336205 -0.0857187892219249 0.008802807983646792
-0.07023004718851995 -0.10153625149218644 0.014040321983662327
-0.04786259328271833 -0.11340156938318686 0.016978125994188034
-0.023463347350953012 -0.12075993381769666 0.017478851564826363
0.001826808984820805 -0.12326727585299278 0.015519085324410757
0.026825336122332268 -0.12080635496221534 0.011190463764219331
0.05036333071649871 -0.11349224107109995 0.004695388417489295
0.07134018230069895 -0.10166693401614144 -0.0036624382113240174
0.0887750366089518 -0.08588337201234486 -0.013492213438114402
0.10185265923125209 -0.06687957687683857 -0.024334307898287607
0.10996155506851478 -0.04554414494895745 -0.035681757305008506
0.11272256116377985 -0.02287469731301982 -0.04700396753580298
0.11566260310728395 -0.01153171468820026 -0.023575977861702617
0.11294661788417462 0.011411750479618848 -0.03434353494991157
0.10488063779312277 0.03355642224790226 -0.04405295989337052
0.09184181909849298 0.05386684037679997 -0.05225025077297408
0.07443984247084001 0.07139331228801314 -0.05855211137782643
0.053488404996364994 0.08531631963424795 -0.0626638737100597
0.029967172605524145 0.09498483806630563 -0.06439327633291426
0.004975971982941025 0.09994677840808962 -0.06365945430183836
-0.020316636105996964 0.09997012584401872 -0.06049672031942056
-0.04472799741776591 0.09505378867393767 -0.05505296031155232
-0.0671166638287069 0.08542764935980318 -0.04758271844589689
-0.0864357661806599 0.07154181547725873 -0.0384352949295148
-0.10178196471928763 0.054045573185656164 -0.028038413119401025
-0.11243768825699851 0.03375702732887422 -0.016878219653692336
-0.11790468700415527 0.011624847762076918 -0.005476552775181124
-0.11792733017547358 -0.011316089396343256 0.005633458244936053
-0.11250455900142864 -0.033993091421878875 0.015932321639248865
-0.10188993623514152 -0.05534580690349344 0.02493847400180379
-0.08657978983985795 -0.07437580659710537 0.03223079765774717
-0.06729000524501585 -0.09019326886736691 0.0374683116577627
-0.04492255133921423 -0.10205858675836733 0.04040611566828841
-0.020523305407448914 -0.10941695119287713 0.04090684123892674
0.0047668509283249035 -0.11192429322817325 0.03894707499851113
0.029765378065836366 -0.10946337233739581 0.03461845343831971
0.05330337266000281 -0.10214925844628042 0.02812337809158967
0.07428022424420305 -0.0903239513913219 0.019765551462776358
0.09171507855245589 -0.07454038938752533 0.009935776235985972
0.10479270117475618 -0.05553659425201903 -0.0009063182241872327
0.11290159701201888 -0.03420116232413792 -0.012253767630908132
0.11566260310728395 -0.011531714688200285 -0.023575977861702603
0.11860264505078803 -0.000188732063380726 -0.00014798818760224447
0.1158866598276787 0.02275473310443838 -0.010915545275811197
0.10782067973662686 0.04489940487272179 -0.02062497021927015
0.09478186104199707 0.06520982300161951 -0.02882226109887371
0.0773798844143441 0.08273629491283267 -0.03512412170372606
0.05642844693986909 0.09665930225906748 -0.03923588403595933
0.032907214549028244 0.10632782069112516 -0.04096528665881389
0.007916013926445123 0.11128976103290915 -0.040231464627737995
-0.017376594162492865 0.11131310846883825 -0.037068730645320194
-0.04178795547426181 0.1063967712987572 -0.03162497063745195
-0.06417662188520282 0.09677063198462271 -0.024154728771796523
-0.08349572423715582 0.08288479810207826 -0.015007305255414426
-0.09884192277578355 0.0653885558104757 -0.004610423445300655
-0.10949764631349443 0.04510000995369375 0.0065497700204080345
-0.11496464506065118 0.02296783038689645 0.01795143689891925
-0.11498728823196949 2.689322847627664e-05 0.029061447919036424
-0.10956451705792455 -0.02265010879705934 0.03936031131334924
-0.09894989429163743 -0.044002824278673906 0.04836646367590416
-0.08363974789635387 -0.06303282397228584 0.05565878733184754
-0.06434996330151177 -0.07885028624254738 0.06089630133186307
-0.04198250939571013 -0.0907156041335478 0.06383410534238879
-0.017583263463944815 -0.0980739685680576 0.06433483091302711
0.007706892871829002 -0.10058131060335372 0.0623750646726115
0.032705420009340465 -0.09812038971257628 0.058046443112420076
0.05624341460350691 -0.09080627582146089 0.05155136776569004
0.07722026618770714 -0.07898096876650237 0.04319354113687673
0.09465512049595998 -0.0631974067627058 0.03336376591008634
0.10773274311826027 -0.0441936116271995 0.022521671449913138
0.11584163895552296 -0.022858179699318384 0.01117422204319224
0.11860264505078803 -0.00018873206338075203 -0.00014798818760223233
0.12154268699429213 0.011154250561438803 0.023280001486498118
0.1188267017711828 0.03409771572925791 0.012512444398289165
0.11076072168013096 0.05624238749754132 0.0028030194548302133
0.09772190298550117 0.07655280562643903 -0.005394271424773347
0.0803199263578482 0.0940792775376522 -0.011696132029625694
0.05936848888337319 0.10800228488388701 -0.01580789436185897
0.03584725649253234 0.11767080331594469 -0.017537296984713527
0.01085605586994922 0.12263274365772868 -0.016803474953637633
-0.014436552218988768 0.12265609109365778 -0.01364074097121983
-0.03884791353075771 0.11773975392357673 -0.008196980963351584
-0.06123657994169871 0.10811361460944224 -0.0007267390976961595
-0.08055568229365172 0.09422778072689779 0.008420684418685936
-0.09590188083227945 0.07673153843529522 0.018817566228799706
-0.10655760436999033 0.05644299257851328 0.029977759694508395
-0.11202460311714708 0.03431081301171598 0.04137942657301961
-0.1120472462884654 0.011369875853295805 0.05248943759313679
-0.10662447511442046 -0.011307126172239812 0.0627883009874496
-0.09600985234813333 -0.032659841653854375 0.07179445335000452
-0.08069970595284977 -0.051689841347466306 0.0790867770059479
-0.061409921358007664 -0.06750730361772785 0.08432429100596343
-0.039042467452206034 -0.07937262150872827 0.08726209501648914
-0.014643221520440718 -0.08673098594323807 0.08776282058712748
0.0106469348153331 -0.08923832797853419 0.08580305434671187
0.035645461952844563 -0.08677740708775675 0.08147443278652045
0.05918345654701101 -0.07946329319664136 0.07497935743979041
0.08016030813121124 -0.06763798614168284 0.06662153081097709
0.09759516243946408 -0.05185442413788627 0.056791755584186705
0.11067278506176437 -0.03285062900237997 0.045949661124013504
0.11878168089902706 -0.011515197074498855 0.0346022117172926
0.12154268699429213 0.011154250561438777 0.023280001486498128
0.12448272893779623 0.022497233186258334 0.04670799116059848
0.1217667437146869 0.04544069835407744 0.03594043407238953
0.11370076362363506 0.06758537012236085 0.02623100912893058
0.10066194492900526 0.08789578825125857 0.01803371824932702
0.0832599683013523 0.10542226016247173 0.011731857644474675
0.06230853082687729 0.11934526750870654 0.0076200953122414015
0.03878729843603644 0.12901378594076424 0.005890692689386844
0.013796097813453319 0.13397572628254822 0.006624514720462738
-0.01149651027548467 0.13399907371847733 0.009787248702880539
-0.035907871587253615 0.12908273654839628 0.015231008710748785
-0.05829653799819461 0.11945659723426177 0.02270125057640421
-0.07761564035014762 0.10557076335171732 0.03184867409278631
-0.09296183888877535 0.08807452106011476 0.04224555590290008
-0.10361756242648623 0.06778597520333282 0.053405749368608764
-0.10908456117364299 0.045653795636535516 0.06480741624711998
-0.1091072043449613 0.022712858478115338 0.07591742726723716
-0.10368443317091636 3.5856452579721045e-05 0.08621629066154997
-0.09306981040462924 -0.021316859029034844 0.09522244302410489
-0.07775966400934567 -0.040346858722646775 0.10251476668004827
-0.058469879414503566 -0.056164320992908315 0.1077522806800638
-0.036102425508701935 -0.06802963888390874 0.11069008469058951
-0.01170317957693662 -0.07538800331841854 0.11119081026122785
0.013586976758837197 -0.07789534535371466 0.10923104402081224
0.03858550389634866 -0.07543442446293722 0.10490242246062081
0.06212349849051511 -0.06812031057182183 0.09840734711389078
0.08310035007471533 -0.05629500351686331 0.09004952048507746
0.10053520438296817 -0.04051144151306674 0.08021974525828708
0.11361282700526847 -0.02150764637756044 0.06937765079811387
0.12172172284253116 -0.00017221444967932192 0.05803020139139297
0.12448272893779623 0.02249723318625831 0.0467079911605985
0.12742277088130033 0.03384021581107787 0.07013598083469887
0.124706785658191 0.05678368097889698 0.059368423746489915
0.11664080556713916 0.0789283527471804 0.049658998803030964
0.10360198687250936 0.0992387708760781 0.041461707923427404
0.08620001024485639 0.11676524278729128 0.035159847318575056
0.06524857277038139 0.13068825013352608 0.031048084986341783
0.04172734037954054 0.14035676856558377 0.029318682363487225
0.016736139756957417 0.14531870890736776 0.03005250439456312
-0.008556468331980571 0.14534205634329686 0.03321523837698092
-0.032967829643749516 0.1404257191732158 0.038658998384849166
-0.055356496054690514 0.1307995798590813 0.04612924025050459
-0.07467559840664352 0.11691374597653686 0.05527666376688669
-0.09002179694527125 0.0994175036849343 0.06567354557700046
-0.10067752048298213 0.07912895782815235 0.07683373904270915
-0.10614451923013889 0.056996778261355054 0.08823540592122037
-0.1061671624014572 0.03405584110293487 0.09934541694133754
-0.10074439122741226 0.011378839077399259 0.10964428033565035
-0.09012976846112514 -0.009973876404215307 0.11865043269820527
-0.07481962206584157 -0.029003876097827237 0.12594275635414864
-0.05552983747099947 -0.04482133836808878 0.13118027035416419
-0.03316238356519784 -0.0566866562590892 0.1341180743646899
-0.00876313763343252 -0.06404502069359899 0.13461879993532821
0.016527018702341297 -0.06655236272889511 0.1326590336949126
0.04152554583985276 -0.06409144183811767 0.12833041213472118
0.0650635404340192 -0.05677732794700229 0.12183533678799116
0.08604039201821943 -0.044952020892043774 0.11347751015917784
0.10347524632647227 -0.0291684588882472 0.10364773493238746
0.11655286894877256 -0.010164663752740902 0.09280564047221425
0.12466176478603526 0.011170768175140216 0.08145819106549336
0.12742277088130033 0.033840215811077844 0.07013598083469888
0.13036281282480444 0.0451831984358974 0.09356397050879924
0.1276468276016951 0.06812666360371651 0.08279641342059028
0.11958084751064325 0.09027133537199993 0.07308698847713134
0.10654202881601346 0.11058175350089763 0.06488969759752777
0.08914005218836049 0.1281082254121108 0.058587836992675425
0.06818861471388549 0.14203123275834562 0.05447607466044215
0.04466738232304464 0.1516997511904033 0.052746672037587594
0.019676181700461516 0.15666169153218729 0.05348049406866349
-0.005616426388476472 0.1566850389681164 0.05664322805108129
-0.03002778770024542 0.15176870179803534 0.062086988058949535
-0.052416454111186415 0.14214256248390084 0.06955722992460496
-0.07173555646313942 0.1282567286013564 0.07870465344098705
-0.08708175500176715 0.11076048630975383 0.08910153525110083
-0.09773747853947803 0.09047194045297188 0.10026172871680952
-0.10320447728663479 0.06833976088617458 0.11166339559532074
-0.1032271204579531 0.04539882372775441 0.12277340661543791
-0.09780434928390816 0.02272182170221879 0.13307227000975072
-0.08718972651762104 0.0013691062206042258 0.14207842237230564
-0.07187958012233747 -0.017660893473007706 0.149370746028249
-0.05258979552749537 -0.033478355743269246 0.15460826002826455
-0.03022234162169374 -0.04534367363426967 0.15754606403879026
-0.005823095689928422 -0.05270203806877947 0.15804678960942858
0.019467060645845396 -0.05520938010407559 0.15608702336901298
0.04446558778335686 -0.05274845921329815 0.15175840180882155
0.0680035823775233 -0.04543434532218276 0.14526332646209153
0.08898043396172353 -0.033609038267224244 0.1369054998332782
0.10641528826997637 -0.01782547626342767 0.12707572460648783
0.11949291089227666 0.0011783188720786307 0.11623363014631462
0.12760180672953936 0.022513750799959747 0.10488618073959373
0.13036281282480444 0.04518319843589738 0.09356397050879925
-0.013230188745768442 -0.051043421811687896 -0.10542595353345167
-0.00021545273698666558 -0.05169455774233129 -0.10674395164730194
0.01279928327179511 -0.052345693672974675 -0.10806194976115222
0.025814019280576885 -0.05299682960361806 -0.10937994787500248
0.03882875528935866 -0.053647965534261446 -0.11069794598885274
0.05184349129814044 -0.05429910146490484 -0.11201594410270302
0.06485822730692221 -0.054950237395548225 -0.11333394221655328
0.077872963315704 -0.05560137332619161 -0.11465194033040356
0.09088769932448577 -0.056252509256835004 -0.11596993844425382
0.10390243533326755 -0.05690364518747839 -0.1172879365581041
-0.013230188745768442 -0.051043421811687896 -0.10542595353345167
-0.0009168491866423029 -0.04783175153292877 -0.10852616212784709
0.011396490372483836 -0.04462008125416964 -0.11162637072224252
0.023709829931609975 -0.041408410975410516 -0.11472657931663793
0.03602316949073611 -0.03819674069665139 -0.11782678791103336
0.04833650904986225 -0.03498507041789226 -0.12092699650542878
0.06064984860898839 -0.031773400139133136 -0.1240272050998242
0.07296318816811455 -0.02856172986037401 -0.12712741369421962
0.08527652772724068 -0.02535005958161488 -0.13022762228861506
0.09758986728636683 -0.022138389302855752 -0.13332783088301048
-0.013230188745768442 -0.051043421811687896 -0.10542595353345167
-0.002952587038678228 -0.044316979632428775 -0.10997241690249676
0.007325014668411985 -0.037590537453169655 -0.11451888027154185
0.017602616375502193 -0.030864095273910534 -0.11906534364058693
0.027880218082592414 -0.024137653094651414 -0.12361180700963204
0.03815781978968262 -0.017411210915392293 -0.12815827037867714
0.048435421496772824 -0.010684768736133174 -0.1327047337477222
0.05871302320386305 -0.003958326556874054 -0.1372511971167673
0.06899062491095327 0.002768115622385067 -0.1417976604858124
0.07926822661804347 0.009494557801644194 -0.14634412385485748
-0.013230188745768442 -0.051043421811687896 -0.10542595353345167
-0.00610206250909898 -0.04153112211355569 -0.11092599182546264
0.0010260637275704822 -0.03201882241542348 -0.11642603011747363
0.008154189964239942 -0.02250652271729128 -0.12192606840948461
0.015282316200909406 -0.012994223019159071 -0.1274261067014956
0.022410442437578868 -0.0034819233210268714 -0.13292614499350658
0.02953856867424833 0.006030376377105335 -0.13842618328551756
0.036666694910917785 0.015542676075237549 -0.14392622157752855
0.04379482114758725 0.025054975773369757 -0.14942625986953953
0.05092294738425673 0.034567275471501964 -0.1549262981615505
-0.013230188745768442 -0.051043421811687896 -0.10542595353345167
-0.010023981061537386 -0.03977606986551265 -0.11128355225760198
-0.006817773377306331 -0.0285087179193374 -0.11714115098175228
-0.003611565693075276 -0.017241365973162157 -0.12299874970590258
-0.00040535800884422004 -0.005974014026986907 -0.1288563484300529
0.0028008496753868365 0.005293337919188344 -0.13471394715420318
0.006007057359617889 0.016560689865363583 -0.1405715458783535
0.009213265043848949 0.027828041811538827 -0.14642914460250378
0.012419472728080002 0.039095393757714085 -0.1522867433266541
0.015625680412311063 0.05036274570388933 -0.1581443420508044
-0.013230188745768442 -0.051043421811687896 -0.10542595353345167
-0.01429334196600031 -0.0392420100318166 -0.11100635097797068
-0.015356495186232179 -0.0274405982519453 -0.11658674842248969
-0.016419648406464045 -0.01563918647207401 -0.1221671458670087
-0.017482801626695913 -0.0038377746922027087 -0.1277475433115277
-0.01854595484692778 0.007963637087668575 -0.13332794075604673
-0.01960910806715965 0.019765048867539874 -0.13890833820056572
-0.020672261287391518 0.03156646064741118 -0.14448873564508474
-0.021735414507623386 0.04336787242728248 -0.15006913308960376
-0.022798567727855254 0.05516928420715376 -0.15564953053412278
-0.013230188745768442 -0.051043421811687896 -0.10542595353345167
-0.018447493722529202 -0.039986816282240656 -0.11012442704643785
-0.02366479869928996 -0.02893021075279341 -0.11482290055942403
-0.028882103676050715 -0.017873605223346162 -0.11952137407241022
-0.034099408652811476 -0.006816999693898923 -0.12421984758539639
-0.03931671362957224 0.004239605835548331 -0.12891832109838258
-0.04453401860633299 0.01529621136499557 -0.13361679461136874
-0.04975132358309376 0.026352816894442806 -0.13831526812435493
-0.054968628559854515 0.03740942242389005 -0.14301374163734112
-0.06018593353661528 0.048466027953337314 -0.14771221515032731
-0.013230188745768442 -0.051043421811687896 -0.10542595353345167
-0.022036269529998286 -0.04192977730269163 -0.10873335060544483
-0.03084235031422813 -0.03281613279369537 -0.11204074767743798
-0.03964843109845797 -0.02370248828469911 -0.11534814474943111
-0.048454511882687824 -0.014588843775702841 -0.11865554182142428
-0.057260592666917666 -0.005475199266706582 -0.12196293889341743
-0.0660666734511475 0.0036384452422896767 -0.12527033596541057
-0.07487275423537734 0.012752089751285936 -0.12857773303740372
-0.0836788350196072 0.021865734260282217 -0.13188513010939687
-0.09248491580383703 0.03097937876927847 -0.13519252718139002
-0.013230188745768442 -0.051043421811687896 -0.10542595353345167
-0.02467076984407415 -0.044860343118457185 -0.10698386637214811
-0.036111350942379855 -0.03867726442522647 -0.10854177921084457
-0.047551932040685564 -0.03249418573199576 -0.11009969204954102
-0.05899251313899127 -0.02631110703876504 -0.11165760488823748
-0.07043309423729698 -0.020128028345534326 -0.11321551772693393
-0.08187367533560268 -0.013944949652303614 -0.11477343056563039
-0.0933142564339084 -0.007761870959072903 -0.11633134340432684
-0.1047548375322141 -0.0015787922658421856 -0.1178892562430233
-0.1161954186305198 0.004604286427388525 -0.11944716908171973
-0.013230188745768442 -0.051043421811687896 -0.10542595353345167
-0.02606550567724244 -0.048460941450985284 -0.10506555810927029
-0.03890082260871644 -0.045878461090282666 -0.1047051626850889
-0.051736139540190434 -0.043295980729580054 -0.10434476726090752
-0.06457145647166443 -0.040713500368877435 -0.10398437183672614
-0.07740677340313844 -0.038131020008174824 -0.10362397641254475
-0.09024209033461242 -0.035548539647472205 -0.10326358098836338
-0.10307740726608644 -0.032966059286769586 -0.102903185564182
-0.11591272419756042 -0.030383578926066974 -0.10254279014000062
-0.12874804112903446 -0.027801098565364356 -0.10218239471581923
-0.013230188745768442 -0.051043421811687896 -0.10542595353345167
-0.02606933576042312 -0.052341391601907 -0.10318630428271369
-0.038908482775077795 -0.05363936139212609 -0.10094665503197571
-0.05174762978973247 -0.054937331182345193 -0.09870700578123773
-0.06458677680438715 -0.056235300972564295 -0.09646735653049975
-0.07742592381904183 -0.05753327076278339 -0.09422770727976176
-0.09026507083369649 -0.05883124055300249 -0.09198805802902378
-0.10310421784835117 -0.060129210343221585 -0.0897484087782858
-0.11594336486300585 -0.06142718013344069 -0.08750875952754782
-0.12878251187766054 -0.06272514992365978 -0.08526911027680983
-0.013230188745768442 -0.051043421811687896 -0.10542595353345167
-0.02468184504467369 -0.056081186585982074 -0.10154975120421326
-0.036133501343578935 -0.061118951360276244 -0.09767354887497487
-0.047585157642484194 -0.06615671613457043 -0.09379734654573647
-0.05903681394138943 -0.0711944809088646 -0.08992114421649806
-0.07048847024029468 -0.07623224568315877 -0.08604494188725967
-0.08194012653919994 -0.08127001045745295 -0.08216873955802127
-0.09339178283810518 -0.08630777523174712 -0.07829253722878288
-0.10484343913701041 -0.0913455400060413 -0.07441633489954447
-0.11629509543591567 -0.09638330478033547 -0.07054013257030607
-0.013230188745768442 -0.051043421811687896 -0.10542595353345167
-0.02205338967818229 -0.059275061587787864 -0.10033324479356197
-0.030876590610596142 -0.06750670136388784 -0.09524053605367228
-0.03969979154300999 -0.0757383411399878 -0.09014782731378258
-0.04852299247542385 -0.08396998091608777 -0.08505511857389289
-0.0573461934078377 -0.09220162069218774 -0.0799624098340032
-0.06616939434025154 -0.10043326046828771 -0.0748697010941135
-0.07499259527266539 -0.10866490024438769 -0.0697769923542238
-0.08381579620507924 -0.11689654002048766 -0.0646842836143341
-0.09263899713749309 -0.1251281797965876 -0.05959157487444442
-0.013230188745768442 -0.051043421811687896 -0.10542595353345167
-0.01846880358459546 -0.06157691069280193 -0.0996686123963957
-0.023707418423422482 -0.07211039957391598 -0.09391127125933972
-0.028946033262249503 -0.08264388845503 -0.08815393012228374
-0.03418464810107653 -0.09317737733614405 -0.08239658898522777
-0.03942326293990355 -0.10371086621725809 -0.07663924784817179
-0.04466187777873057 -0.11424435509837211 -0.07088190671111583
-0.049900492617557586 -0.12477784397948616 -0.06512456557405985
-0.05513910745638461 -0.1353113328606002 -0.059367224437003874
-0.06037772229521163 -0.14584482174171423 -0.0536098832999479
-0.013230188745768442 -0.051043421811687896 -0.10542595353345167
-0.014316532287737367 -0.0627372928336271 -0.09962787724578161
-0.015402875829706291 -0.07443116385556629 -0.09382980095811155
-0.016489219371675214 -0.08612503487750549 -0.0880317246704415
-0.01757556291364414 -0.0978189058994447 -0.08223364838277143
-0.018661906455613064 -0.10951277692138388 -0.07643557209510138
-0.019748249997581988 -0.12120664794332307 -0.07063749580743132
-0.020834593539550913 -0.13290051896526228 -0.06483941951976126
-0.021920937081519837 -0.14459438998720148 -0.05904134323209118
-0.023007280623488762 -0.15628826100914067 -0.05324326694442112
-0.013230188745768442 -0.051043421811687896 -0.10542595353345167
-0.010046538811750112 -0.06263046260012088 -0.10021545362735974
-0.006862888877731783 -0.07421750338855387 -0.09500495372126781
-0.0036792389437134538 -0.08580454417698687 -0.08979445381517588
-0.0004955890096951241 -0.09739158496541986 -0.08458395390908395
0.002688060924323206 -0.10897862575385284 -0.07937345400299203
0.005871710858341534 -0.12056566654228583 -0.0741629540969001
0.009055360792359862 -0.13215270733071882 -0.06895245419080819
0.012239010726378194 -0.1437397481191518 -0.06374195428471624
0.015422660660396522 -0.1553267889075848 -0.0585314543786243
-0.013230188745768442 -0.051043421811687896 -0.10542595353345167
-0.006121543205532271 -0.06126799670572557 -0.10136766852299917
0.0009871023347039003 -0.07149257159976324 -0.09730938351254666
0.008095747874940074 -0.08171714649380092 -0.09325109850209415
0.015204393415176242 -0.0919417213878386 -0.08919281349164164
0.022313038955412413 -0.10216629628187628 -0.08513452848118913
0.02942168449564859 -0.11239087117591395 -0.08107624347073662
0.03653033003588475 -0.12261544606995163 -0.07701795846028411
0.043638975576120925 -0.1328400209639893 -0.0729596734498316
0.050747621116357104 -0.143064595858027 -0.0689013884393791
-0.013230188745768442 -0.051043421811687896 -0.10542595353345167
-0.0029668796455993847 -0.05879753947093545 -0.10295966157030115
0.007296429454569672 -0.06655165713018302 -0.10049336960715063
0.017559738554738732 -0.07430577478943057 -0.09802707764400012
0.027823047654907788 -0.08205989244867813 -0.09556078568084961
0.03808635675507685 -0.0898140101079257 -0.09309449371769908
0.0483496658552459 -0.09756812776717325 -0.09062820175454857
0.05861297495541496 -0.10532224542642081 -0.08816190979139805
0.06887628405558402 -0.11307636308566837 -0.08569561782824754
0.07913959315575309 -0.12083048074491594 -0.08322932586509703
-0.013230188745768442 -0.051043421811687896 -0.10542595353345167
-0.0009244048783187684 -0.055486803270233635 -0.10481891562027325
0.011381378989130905 -0.059930184728779375 -0.10421187770709482
0.02368716285658057 -0.06437356618732512 -0.10360483979391641
0.03599294672403025 -0.06881694764587086 -0.10299780188073798
0.04829873059147992 -0.0732603291044166 -0.10239076396755956
0.06060451445892958 -0.07770371056296234 -0.10178372605438114
0.07291029832637928 -0.08214709202150808 -0.10117668814120272
0.08521608219382895 -0.08659047348005382 -0.1005696502280243
0.09752186606127862 -0.09103385493859956 -0.09996261231484588
-0.013230188745768442 -0.051043421811687896 -0.10542595353345167
-0.00021545273698666558 -0.05169455774233129 -0.10674395164730194
0.01279928327179511 -0.05234569367297468 -0.1080619497611522
0.025814019280576885 -0.05299682960361807 -0.10937994787500248
0.03882875528935866 -0.05364796553426146 -0.11069794598885274
0.05184349129814044 -0.05429910146490485 -0.11201594410270302
0.06485822730692221 -0.054950237395548246 -0.11333394221655328
0.077872963315704 -0.05560137332619163 -0.11465194033040355
0.09088769932448577 -0.056252509256835025 -0.11596993844425382
0.10390243533326755 -0.05690364518747842 -0.11728793655810409
0.013230188745768442 0.051043421811687896 0.10542595353345167
0.026244924754550217 0.05039228588104451 0.1041079554196014
0.039259660763332 0.049741149950401124 0.10278995730575113
0.05227439677211377 0.04909001401975773 0.10147195919190086
0.06528913278089554 0.048438878089114346 0.1001539610780506
0.07830386878967732 0.04778774215847096 0.09883596296420032
0.09131860479845909 0.04713660622782757 0.09751796485035005
0.10433334080724087 0.04648547029718418 0.09619996673649978
0.11734807681602265 0.045834334366540795 0.09488196862264951
0.13036281282480444 0.0451831984358974 0.09356397050879924
0.013230188745768442 0.051043421811687896 0.10542595353345167
0.02554352830489458 0.05425509209044702 0.10232574493905625
0.03785686786402072 0.05746676236920615 0.09922553634466082
0.05017020742314686 0.060678432647965276 0.0961253277502654
0.062483546982273 0.06389010292672441 0.09302511915586997
0.07479688654139914 0.06710177320548354 0.08992491056147456
0.08711022610052527 0.07031344348424266 0.08682470196707913
0.09942356565965142 0.07352511376300179 0.08372449337268371
0.11173690521877755 0.07673678404176092 0.08062428477828829
0.1240502447779037 0.07994845432052004 0.07752407618389287
0.013230188745768442 0.051043421811687896 0.10542595353345167
0.023507790452858654 0.05776986399094702 0.10087949016440657
0.03378539215994887 0.06449630617020614 0.09633302679536149
0.044062993867039074 0.07122274834946526 0.0917865634263164
0.0543405955741293 0.07794919052872439 0.0872401000572713
0.06461819728121951 0.0846756327079835 0.08269363668822621
0.07489579898830971 0.09140207488724263 0.07814717331918113
0.08517340069539993 0.09812851706650175 0.07360070995013604
0.09545100240249015 0.10485495924576087 0.06905424658109094
0.10572860410958035 0.11158140142501999 0.06450778321204585
0.013230188745768442 0.051043421811687896 0.10542595353345167
0.020358314982437904 0.0605557215098201 0.09992591524144069
0.027486441219107365 0.07006802120795232 0.09442587694942971
0.034614567455776825 0.07958032090608451 0.08892583865741872
0.04174269369244629 0.08909262060421673 0.08342580036540774
0.04887081992911575 0.09860492030234892 0.07792576207339676
0.05599894616578521 0.10811722000048113 0.07242572378138579
0.06312707240245467 0.11762951969861335 0.06692568548937479
0.07025519863912413 0.12714181939674554 0.06142564719736381
0.07738332487579361 0.13665411909487776 0.05592560890535282
0.013230188745768442 0.051043421811687896 0.10542595353345167
0.016436396429999497 0.06231077375786315 0.09956835480930136
0.019642604114230553 0.07357812570403839 0.09371075608515106
0.022848811798461606 0.08484547765021364 0.08785315736100076
0.026055019482692662 0.0961128295963889 0.08199555863685046
0.02926122716692372 0.10738018154256414 0.07613795991270014
0.032467434851154775 0.11864753348873938 0.07028036118854986
0.03567364253538583 0.1299148854349146 0.06442276246439956
0.03887985021961689 0.14118223738108987 0.05856516374024924
0.042086057903847944 0.15244958932726513 0.05270756501609894
0.013230188745768442 0.051043421811687896 0.10542595353345167
0.012167035525536574 0.0628448335915592 0.09984555608893265
0.011103882305304706 0.0746462453714305 0.09426515864441365
0.010040729085072838 0.08644765715130179 0.08868476119989464
0.00897757586484097 0.09824906893117309 0.08310436375537562
0.007914422644609101 0.11005048071104437 0.07752396631085662
0.006851269424377235 0.12185189249091567 0.07194356886633761
0.005788116204145367 0.13365330427078698 0.06636317142181859
0.0047249629839134985 0.14545471605065827 0.06078277397729957
0.00366180976368163 0.15725612783052956 0.05520237653278056
0.013230188745768442 0.051043421811687896 0.10542595353345167
0.008012883769007682 0.06210002734113514 0.10072748002046548
0.002795578792246924 0.07315663287058238 0.09602900650747931
-0.0024217261845138325 0.08421323840002963 0.09133053299449313
-0.007639031161274594 0.09526984392947688 0.08663205948150694
-0.012856336138035352 0.10632644945892412 0.08193358596852077
-0.018073641114796108 0.11738305498837137 0.07723511245553459
-0.023290946091556877 0.1284396605178186 0.0725366389425484
-0.02850825106831763 0.13949626604726584 0.06783816542956222
-0.03372555604507839 0.1505528715767131 0.06313969191657604
0.013230188745768442 0.051043421811687896 0.10542595353345167
0.004424107961538597 0.06015706632068416 0.10211855646145852
-0.004381972822691248 0.06927071082968042 0.09881115938946537
-0.013188053606921086 0.07838435533867669 0.09550376231747222
-0.02199413439115094 0.08749799984767295 0.09219636524547907
-0.03080021517538078 0.09661164435666922 0.08888896817348592
-0.03960629595961061 0.10572528886566547 0.08558157110149277
-0.048412376743840455 0.11483893337466174 0.08227417402949962
-0.05721845752807032 0.12395257788365802 0.07896677695750647
-0.06602453831230015 0.13306622239265425 0.07565937988551331
0.013230188745768442 0.051043421811687896 0.10542595353345167
0.0017896076474627346 0.05722650050491861 0.10386804069475522
-0.009650973450842973 0.06340957919814932 0.10231012785605877
-0.02109155454914868 0.06959265789138004 0.10075221501736231
-0.032532135647454385 0.07577573658461076 0.09919430217866586
-0.043972716745760095 0.08195881527784146 0.0976363893399694
-0.0554132978440658 0.08814189397107218 0.09607847650127295
-0.06685387894237152 0.0943249726643029 0.09452056366257651
-0.07829446004067722 0.10050805135753361 0.09296265082388006
-0.08973504113898292 0.10669113005076432 0.0914047379851836
0.013230188745768442 0.051043421811687896 0.10542595353345167
0.0003948718142944439 0.053625902172390515 0.10578634895763304
-0.012440445117179554 0.056208382533093126 0.10614674438181443
-0.02527576204865355 0.058790862893795745 0.10650713980599581
-0.03811107898012755 0.06137334325449836 0.1068675352301772
-0.05094639591160156 0.06395582361520097 0.10722793065435858
-0.06378171284307554 0.06653830397590359 0.10758832607853995
-0.07661702977454957 0.0691207843366062 0.10794872150272133
-0.08945234670602355 0.07170326469730882 0.10830911692690272
-0.10228766363749757 0.07428574505801144 0.1086695123510841
0.013230188745768442 0.051043421811687896 0.10542595353345167
0.00039104173111376476 0.0497454520214688 0.10766560278418964
-0.012448105283540912 0.0484474822312497 0.10990525203492763
-0.025287252298195586 0.0471495124410306 0.11214490128566561
-0.038126399312850265 0.045851542650811504 0.11438455053640359
-0.05096554632750495 0.0445535728605924 0.11662419978714157
-0.06380469334215962 0.04325560307037331 0.11886384903787955
-0.07664384035681429 0.041957633280154207 0.12110349828861754
-0.08948298737146898 0.040659663489935105 0.12334314753935552
-0.10232213438612366 0.039361693699716004 0.12558279679009351
0.013230188745768442 0.051043421811687896 0.10542595353345167
0.0017785324468631949 0.046005657037393725 0.10930215586269007
-0.009673123852042052 0.04096789226309955 0.11317835819192847
-0.02112478015094731 0.03593012748880537 0.11705456052116688
-0.032576436449852544 0.0308923627145112 0.12093076285040527
-0.0440280927487578 0.025854597940217022 0.12480696517964367
-0.055479749047663056 0.020816833165922845 0.12868316750888206
-0.0669314053465683 0.015779068391628674 0.13255936983812047
-0.07838306164547354 0.010741303617334505 0.13643557216735885
-0.08983471794437879 0.005703538843040328 0.14031177449659726
0.013230188745768442 0.051043421811687896 0.10542595353345167
0.004406987813354591 0.04281178203558793 0.11051866227334137
-0.004416213119059259 0.03458014225948796 0.11561137101323106
-0.013239414051473107 0.02634850248338799 0.12070407975312075
-0.022062614983886963 0.018116862707288017 0.12579678849301046
-0.030885815916300813 0.009885222931188058 0.13088949723290014
-0.039709016848714654 0.001653583155088083 0.13598220597278984
-0.048532217781128505 -0.006578056621011892 0.14107491471267955
-0.05735541871354236 -0.01480969639711186 0.14616762345256923
-0.06617861964595621 -0.023041336173211822 0.1512603321924589
0.013230188745768442 0.051043421811687896 0.10542595353345167
0.007991573906941421 0.04050993293057386 0.11118329467050764
0.0027529590681144 0.02997644404945982 0.11694063580756361
-0.0024856557707126207 0.019442955168345794 0.12269797694461959
-0.007724270609539641 0.008909466287231745 0.12845531808167557
-0.012962885448366665 -0.0016240225938822918 0.13421265921873154
-0.018201500287193684 -0.012157511474996307 0.13997000035578752
-0.023440115126020702 -0.02269100035611036 0.1457273414928435
-0.028678729964847726 -0.03322448923722441 0.15148468262989948
-0.03391734480367474 -0.043757978118338446 0.15724202376695545
0.013230188745768442 0.051043421811687896 0.10542595353345167
0.012143845203799518 0.0393495507897487 0.11122402982112173
0.011057501661830593 0.0276556797678095 0.1170221061087918
0.009971158119861668 0.01596180874587031 0.12282018239646185
0.008884814577892744 0.004267937723931104 0.1286182586841319
0.007798471035923821 -0.007425933298008084 0.13441633497180197
0.006712127493954896 -0.019119804319947274 0.140214411259472
0.005625783951985972 -0.030813675341886483 0.14601248754714208
0.004539440410017047 -0.04250754636382569 0.15181056383481215
0.0034530968680481218 -0.05420141738576487 0.1576086401224822
0.013230188745768442 0.051043421811687896 0.10542595353345167
0.016413838679786772 0.03945638102325491 0.11063645343954359
0.0195974886138051 0.027869340234821918 0.11584695334563552
0.02278113854782343 0.016282299446388933 0.12105745325172745
0.02596478848184176 0.004695258657955942 0.12626795315781938
0.029148438415860088 -0.006891782130477043 0.13147845306391132
0.03233208834987842 -0.01847882291891003 0.13668895297000325
0.035515738283896744 -0.030065863707343023 0.14189945287609515
0.038699388217915076 -0.041652904495776015 0.1471099527821871
0.04188303815193341 -0.05323994528420901 0.15232045268827904
0.013230188745768442 0.051043421811687896 0.10542595353345167
0.020338834286004612 0.04081884691765022 0.10948423854390417
0.027447479826240784 0.030594272023612545 0.11354252355435668
0.03455612536647696 0.020369697129574867 0.11760080856480919
0.041664770906713125 0.010145122235537195 0.1216590935752617
0.0487734164469493 -7.945265850048245e-05 0.12571737858571422
0.055882061987185476 -0.01030402755253816 0.1297756635961667
0.06299070752742164 -0.020528602446575832 0.13383394860661924
0.07009935306765781 -0.03075317734061351 0.13789223361707173
0.07720799860789399 -0.0409777522346512 0.14195051862752425
0.013230188745768442 0.051043421811687896 0.10542595353345167
0.0234934978459375 0.04328930415244034 0.10789224549660219
0.033756806946106555 0.03553518649319278 0.1103585374597527
0.04402011604627561 0.02778106883394522 0.11282482942290321
0.05428342514644467 0.02002695117469766 0.11529112138605374
0.06454673424661374 0.012272833515450105 0.11775741334920425
0.07481004334678279 0.004518715856202548 0.12022370531235477
0.08507335244695184 -0.0032354018030450096 0.12268999727550528
0.0953366615471209 -0.010989519462292574 0.1251562892386558
0.10559997064728996 -0.01874363712154014 0.1276225812018063
0.013230188745768442 0.051043421811687896 0.10542595353345167
0.025535972613218116 0.04660004035314216 0.10603299144663009
0.03784175648066779 0.04215665889459642 0.10664002935980851
0.050147540348117456 0.03771327743605068 0.10724706727298693
0.06245332421556714 0.03326989597750494 0.10785410518616535
0.0747591080830168 0.028826514518959196 0.10846114309934378
0.08706489195046646 0.024383133060413457 0.10906818101252219
0.09937067581791616 0.019939751601867714 0.10967521892570062
0.11167645968536583 0.015496370143321976 0.11028225683887904
0.1239822435528155 0.011052988684776244 0.11088929475205746
0.013230188745768442 0.051043421811687896 0.10542595353345167
0.026244924754550217 0.0503922858810445 0.1041079554196014
0.039259660763332 0.04974114995040112 0.10278995730575113
0.05227439677211377 0.049090014019757724 0.10147195919190086
0.06528913278089554 0.04843887808911433 0.1001539610780506
0.07830386878967732 0.047787742158470946 0.09883596296420033
0.09131860479845909 0.04713660622782755 0.09751796485035005
0.10433334080724087 0.04648547029718416 0.09619996673649979
0.11734807681602265 0.04583433436654077 0.09488196862264951
0.13036281282480444 0.04518319843589738 0.09356397050879925
