# .PCD v0.7 - Point Cloud Data file format
VERSION 0.7
FIELDS x y z
SIZE 4 4 4
TYPE F F F
COUNT 1 1 1
WIDTH 700
HEIGHT 1
VIEWPOINT 0 0 0 1 0 0 0
POINTS 700
DATA ascii
0.08837793612590962 -0.039173074005344866 -0.13240214636430553
0.07271556462994193 -0.02413884880526202 -0.14493198515746622
0.053232963373062166 -0.011687299350738941 -0.15461298886958694
0.03084111713668596 -0.002400646255365851 -0.16099248452675172
0.006587043764076639 0.003286876903491132 -0.1637721740023317
-0.01839516323032905 0.005109327864151908 -0.16282208210585175
-0.042937363613201496 0.002981490845204682 -0.15818663407843994
-0.06589199137133414 -0.0029971388592655353 -0.15008257831792762
-0.08618571362299317 -0.012547007169047391 -0.13888885146466529
-0.10286961847054324 -0.025221572855891758 -0.12512885974537763
-0.11516358506614131 -0.04042818731504979 -0.10944600507972618
-0.12249276119553977 -0.05745580615534935 -0.09257360032163574
-0.12451444272872211 -0.07550823684465713 -0.07530058036526356
-0.12113409808413435 -0.09374136778777671 -0.05843461242618682
-0.11250978842037422 -0.11130263804647735 -0.042764330420059754
-0.09904477687208738 -0.1273709021414123 -0.029022459317221253
-0.08136867241398625 -0.14119482590209528 -0.017851553737447307
-0.06030799004495254 -0.15212801801766443 -0.009773952810078358
-0.03684750386529507 -0.1596592545761661 -0.005167356176869506
-0.012084200134317002 -0.16343638332649285 -0.004247163176525226
0.012824016587956528 -0.16328278992625664 -0.0070564010110204965
0.03671246577108651 -0.15920565623214564 -0.013463712841457951
0.058464150081374094 -0.15139562448428784 -0.023169499887861985
0.07706198493573103 -0.14021788308698627 -0.0357199303351502
0.0916363562463764 -0.12619509080481145 -0.050528160004409045
0.10150578260907468 -0.10998293781966362 -0.06690177253446913
0.10620878061618573 -0.09233948638661443 -0.08407515600138814
0.10552544330790384 -0.0740897246853855 -0.10124530208109768
0.09948772277728944 -0.05608699128997281 -0.11760935382615742
0.08837793612590963 -0.039173074005344886 -0.13240214636430553
0.09037461306975098 -0.02153468552628483 -0.11373416408854514
0.07471224157378328 -0.006500460326201984 -0.12626400288170583
0.05522964031690352 0.005951089128321094 -0.13594500659382655
0.03283779408052731 0.015237742223694185 -0.14232450225099133
0.008583720707917993 0.020925265382551166 -0.14510419172657132
-0.0163984862864877 0.022747716343211943 -0.14415409983009136
-0.04094068666936014 0.020619879324264716 -0.13951865180267956
-0.06389531442749279 0.0146412496197945 -0.13141459604216724
-0.08418903667915181 0.005091381310012644 -0.12022086918890491
-0.10087294152670188 -0.007583184376831721 -0.10646087746961724
-0.11316690812229996 -0.022789798835989753 -0.0907780228039658
-0.12049608425169842 -0.03981741767628931 -0.07390561804587535
-0.12251776578488076 -0.057869848365597096 -0.056632598089503175
-0.11913742114029299 -0.07610297930871668 -0.03976663015042643
-0.11051311147653287 -0.09366424956741731 -0.02409634814429937
-0.09704809992824602 -0.10973251366235229 -0.010354477041460865
-0.0793719954701449 -0.12355643742303524 0.0008164285383130806
-0.058311313101111185 -0.1344896295386044 0.00889402946568203
-0.03485082692145371 -0.14202086609710604 0.013500626098890882
-0.010087523190475648 -0.14579799484743283 0.014420819099235161
0.014820693531797881 -0.14564440144719662 0.01161158126473989
0.03870914271492786 -0.14156726775308562 0.005204269434302437
0.06046082702521545 -0.13375723600522782 -0.004501517612101597
0.07905866187957239 -0.12257949460792623 -0.01705194805938982
0.09363303319021775 -0.1085567023257514 -0.03186017772864866
0.10350245955291604 -0.09234454934060358 -0.04823379025870875
0.10820545756002709 -0.0747010979075544 -0.06540717372562775
0.10752212025174519 -0.05645133620632546 -0.0825773198053373
0.1014843997211308 -0.03844860281091278 -0.09894137155039703
0.09037461306975099 -0.02153468552628485 -0.11373416408854513
0.09237129001359233 -0.0038962970472248026 -0.09506618181278477
0.07670891851762464 0.011137928152858042 -0.10759602060594546
0.057226317260744876 0.02358947760738112 -0.11727702431806616
0.034834471024368666 0.03287613070275421 -0.12365651997523094
0.010580397651759344 0.038563653861611195 -0.12643620945081094
-0.014401809342646345 0.04038610482227197 -0.12548611755433098
-0.038944009725518786 0.038258267803324746 -0.12085066952691918
-0.06189863748365144 0.03227963809885453 -0.11274661376640686
-0.08219235973531046 0.02272976978907267 -0.10155288691314453
-0.09887626458286053 0.010055204102228306 -0.08779289519385686
-0.1111702311784586 -0.005151410356929727 -0.07211004052820542
-0.11849940730785706 -0.022179029197229288 -0.05523763577011498
-0.1205210888410394 -0.04023145988653707 -0.0379646158137428
-0.11714074419645164 -0.058464590829656646 -0.021098647874666056
-0.10851643453269151 -0.0760258610883573 -0.0054283658685389926
-0.09505142298440467 -0.09209412518329226 0.008313505234299513
-0.07737531852630354 -0.10591804894397522 0.01948441081407346
-0.05631463615726983 -0.11685124105954438 0.02756201174144241
-0.03285414997761236 -0.12438247761804602 0.032168608374651256
-0.008090846246634297 -0.12815960636837279 0.033088801374995536
0.01681737047563923 -0.12800601296813657 0.03027956354050027
0.04070581965876922 -0.12392887927402559 0.023872251710062815
0.062457503969056805 -0.11611884752616779 0.01416646466365878
0.08105533882341374 -0.10494110612886622 0.0016160342163705585
0.0956297101340591 -0.09091831384669138 -0.013192195452888283
0.10549913649675739 -0.07470616086154355 -0.02956580798294837
0.11020213450386844 -0.05706270942849437 -0.04673919144986737
0.10951879719558655 -0.038812947727265436 -0.06390933752957692
0.10348107666497215 -0.020810214331852754 -0.08027338927463666
0.09237129001359234 -0.0038962970472248234 -0.09506618181278476
0.09436796695743369 0.013742091431835229 -0.07639819953702438
0.078705595461466 0.028776316631918073 -0.08892803833018509
0.059222994204586224 0.04122786608644115 -0.09860904204230578
0.036831147968210014 0.05051451918181424 -0.10498853769947056
0.012577074595600698 0.05620204234067122 -0.10776822717505055
-0.012405132398804992 0.058024493301332 -0.10681813527857059
-0.03694733278167744 0.05589665628238477 -0.1021826872511588
-0.05990196053981009 0.049918026577914554 -0.09407863149064648
-0.0801956827914691 0.0403681582681327 -0.08288490463738415
-0.09687958763901917 0.027693592581288336 -0.06912491291809648
-0.10917355423461725 0.012486978122130305 -0.05344205825244504
-0.1165027303640157 -0.004540640718169256 -0.03656965349435459
-0.11852441189719805 -0.02259307140747704 -0.019296633537982416
-0.11514406725261028 -0.04082620235059662 -0.002430665598905675
-0.10651975758885016 -0.05838747260929726 0.01323961640722139
-0.09305474604056331 -0.07445573670423222 0.026981487510059896
-0.07537864158246219 -0.08827966046491519 0.03815239308983384
-0.05431795921342848 -0.09921285258048435 0.04622999401720279
-0.030857473033771007 -0.10674408913898599 0.05083659065041164
-0.006094169302792944 -0.11052121788931277 0.05175678365075592
0.018814047419480586 -0.11036762448907655 0.04894754581626065
0.042702496602610565 -0.10629049079496555 0.0425402339858232
0.06445418091289816 -0.09848045904710775 0.032834446939419164
0.0830520157672551 -0.08730271764980618 0.020284016492130942
0.09762638707790046 -0.07327992536763135 0.005475786822872098
0.10749581344059875 -0.05706777238248353 -0.01089782570718799
0.1121988114477098 -0.03942432094943434 -0.028071209174106986
0.1115154741394279 -0.021174559248205403 -0.04524135525381654
0.10547775360881351 -0.0031718258527927224 -0.061605406998876275
0.0943679669574337 0.013742091431835208 -0.07639819953702437
0.09636464390127504 0.031380479910895265 -0.057730217261264
0.08070227240530735 0.04641470511097811 -0.0702600560544247
0.06121967114842758 0.05886625456550119 -0.07994105976654539
0.03882782491205137 0.06815290766087427 -0.08632055542371017
0.014573751539442051 0.07384043081973125 -0.08910024489929017
-0.010408455454963638 0.07566288178039203 -0.0881501530028102
-0.03495065583783608 0.0735350447614448 -0.08351470497539841
-0.057905283595968735 0.06755641505697459 -0.07541064921488609
-0.07819900584762775 0.05800654674719274 -0.06421692236162377
-0.09488291069517782 0.04533198106034837 -0.05045693064233609
-0.1071768772907759 0.03012536660119034 -0.03477407597668465
-0.11450605342017435 0.013097747760890779 -0.017901671218594206
-0.1165277349533567 -0.004954682928417007 -0.0006286512622220302
-0.11314739030876893 -0.02318781387153658 0.016237316676854713
-0.1045230806450088 -0.04074908413023722 0.03190759868298178
-0.09105806909672196 -0.05681734822517219 0.04564946978582028
-0.07338196463862083 -0.07064127198585515 0.05682037536559423
-0.05232128226958713 -0.08157446410142431 0.06489797629296318
-0.028860796089929655 -0.08910570065992596 0.06950457292617203
-0.004097492358951591 -0.09288282941025273 0.07042476592651631
0.020810724363321938 -0.09272923601001652 0.06761552809202104
0.04469917354645192 -0.08865210231590552 0.061208216261583584
0.06645085785673951 -0.08084207056804772 0.05150242921517955
0.08504869271109645 -0.06966432917074615 0.03895199876789133
0.09962306402174181 -0.05564153688857131 0.024143769098632487
0.1094924903844401 -0.039429383903423494 0.007770156568572397
0.11419548839155115 -0.021785932470374303 -0.0094032268983466
0.11351215108326926 -0.0035361707691453684 -0.02657337297805615
0.10747443055265486 0.014466562626267313 -0.04293742472311589
0.09636464390127505 0.031380479910895244 -0.05773021726126398
0.09836132084511638 0.0490188683899553 -0.03906223498550361
0.08269894934914869 0.06405309359003815 -0.05159207377866431
0.06321634809226893 0.07650464304456123 -0.061273077490785005
0.040824501855892724 0.08579129613993432 -0.06765257314794978
0.016570428483283405 0.0914788192987913 -0.07043226262352978
-0.008411778511122287 0.09330127025945208 -0.06948217072704982
-0.03295397889399473 0.09117343324050485 -0.06484672269963802
-0.05590860665212738 0.08519480353603463 -0.056742666939125705
-0.0762023289037864 0.07564493522625278 -0.045548940085863375
-0.09288623375133648 0.0629703695394084 -0.031788948366575705
-0.10518020034693455 0.047763755080250374 -0.016106093700924265
-0.11250937647633301 0.030736136239950813 0.0007663110571661806
-0.11453105800951535 0.01268370555064303 0.018039331013538357
-0.11115071336492759 -0.005549425392476546 0.0349052989526151
-0.10252640370116746 -0.02311069565117719 0.050575580958742164
-0.08906139215288061 -0.03917895974611216 0.06431745206158067
-0.07138528769477949 -0.05300288350679511 0.07548835764135461
-0.05032460532574577 -0.06393607562236427 0.08356595856872356
-0.0268641191460883 -0.07146731218086591 0.08817255520193241
-0.0021008154151102377 -0.07524444093119269 0.0890927482022767
0.022807401307163293 -0.07509084753095648 0.08628351036778142
0.046695850490293275 -0.07101371383684547 0.07987619853734397
0.06844753480058086 -0.06320368208898768 0.07017041149093994
0.0870453696549378 -0.05202594069168611 0.057619981043651715
0.10161974096558316 -0.03800314840951128 0.04281175137439287
0.11148916732828144 -0.021790995424363458 0.026438138844332784
0.11619216533539249 -0.004147543991314269 0.009264755377413787
0.1155088280271106 0.014102217709914667 -0.007905390702295765
0.1094711074964962 0.03210495110532735 -0.024269442447355502
0.0983613208451164 0.04901886838995528 -0.0390622349855036
0.10035799778895774 0.06665725686901533 -0.020394252709743235
0.08469562629299004 0.08169148206909817 -0.03292409150290393
0.06521302503611029 0.09414303152362125 -0.042605095215024626
0.04282117879973407 0.10342968461899434 -0.048984590872189405
0.018567105427124756 0.10911720777785132 -0.0517642803477694
-0.0064151015672809335 0.1109396587385121 -0.05081418845128944
-0.030957301950153376 0.10881182171956487 -0.046178740423877644
-0.05391192970828603 0.10283319201509465 -0.038074684663365325
-0.07420565195994505 0.0932833237053128 -0.026880957810103
-0.09088955680749512 0.08060875801846844 -0.013120966090815327
-0.1031835234030932 0.0654021435593104 0.0025618885748361128
-0.11051269953249165 0.04837452471901084 0.019434293332926556
-0.112534381065674 0.030322094029703053 0.036707313289298736
-0.10915403642108623 0.01208896308658348 0.05357328122837548
-0.1005297267573261 -0.005472307172117162 0.06924356323450254
-0.08706471520903926 -0.021540571267052132 0.08298543433734104
-0.06938861075093813 -0.03536449502773509 0.09415633991711499
-0.048327928381904424 -0.04629768714330425 0.10223394084448394
-0.02486744220224695 -0.05382892370180589 0.10684053747769279
-0.00010413847126888545 -0.05760605245213267 0.10776073047803707
0.024804078251004644 -0.05745245905189646 0.1049514926435418
0.04869252743413462 -0.053375325357785455 0.09854418081310434
0.07044421174442221 -0.04556529360992766 0.08883839376670032
0.08904204659877915 -0.034387552212626085 0.0762879633194121
0.10361641790942451 -0.020364759930451254 0.06147973365015325
0.1134858442721228 -0.004152606945303431 0.045106121120093164
0.11818884227923385 0.013490844487745757 0.027932737653174163
0.11750550497095195 0.031740606188974695 0.010762591573464613
0.11146778444033756 0.049743339584387376 -0.005601460171595124
0.10035799778895775 0.0666572568690153 -0.02039425270974322
0.10235467473279909 0.08429564534807535 -0.0017262704339828505
0.0866923032368314 0.0993298705481582 -0.014256109227143548
0.06720970197995164 0.11178142000268128 -0.023937112939264246
0.04481785574357543 0.12106807309805437 -0.030316608596429026
0.020563782370966108 0.12675559625691135 -0.03309629807200902
-0.004418424623439581 0.12857804721757213 -0.03214620617552906
-0.028960625006312024 0.1264502101986249 -0.027510758148117265
-0.051915252764444676 0.12047158049415468 -0.019406702387604946
-0.0722089750161037 0.11092171218437283 -0.008212975534342614
-0.08889287986365377 0.09824714649752846 0.005547016184945055
-0.10118684645925184 0.08304053203837043 0.021229870850596494
-0.1085160225886503 0.06601291319807087 0.03810227560868694
-0.11053770412183264 0.047960482508763086 0.055375295565059116
-0.10715735947724488 0.02972735156564351 0.07224126350413586
-0.09853304981348475 0.01216608130694287 0.08791154551026292
-0.0850680382651979 -0.0039021827879920997 0.10165341661310143
-0.06739193380709678 -0.017726106548675055 0.11282432219287537
-0.04633125143806307 -0.028659298664244215 0.12090192312024432
-0.022870765258405597 -0.03619053522274586 0.12550851975345317
0.0018925384725724673 -0.03996766397307264 0.12642871275379747
0.026800755194845996 -0.039814070572836424 0.12361947491930218
0.05068920437797598 -0.03573693687872542 0.11721216308886473
0.07244088868826357 -0.027926905130867624 0.1075063760424607
0.0910387235426205 -0.016749163733566053 0.09495594559517248
0.10561309485326587 -0.0027263714513912217 0.08014771592591363
0.11548252121596415 0.0134857815337566 0.06377410339585354
0.1201855192230752 0.031129232966805788 0.046600719928934546
0.11950218191479331 0.04937899466803472 0.029430573849224994
0.11346446138417891 0.0673817280634474 0.013066522104165259
0.1023546747327991 0.08429564534807533 -0.0017262704339828367
0.10435135167664045 0.1019340338271354 0.016941711841777538
0.08868898018067276 0.11696825902721823 0.004411873048616838
0.06920637892379299 0.1294198084817413 -0.005269130663503858
0.04681453268741678 0.13870646157711441 -0.011648626320668638
0.022560459314807463 0.1443939847359714 -0.014428315796248632
-0.0024217476795982277 0.14621643569663217 -0.013478223899768672
-0.02696394806247067 0.14408859867768495 -0.008842775872356877
-0.04991857582060332 0.13810996897321473 -0.0007387201118445577
-0.07021229807226234 0.12856010066343287 0.010455006741417772
-0.08689620291981241 0.1158855349765885 0.024214998460705444
-0.09919016951541049 0.10067892051743046 0.03989785312635688
-0.10651934564480894 0.0836513016771309 0.056770257884447325
-0.10854102717799129 0.06559887098782312 0.0740432778408195
-0.10516068253340352 0.04736574004470354 0.09090924577989624
-0.0965363728696434 0.029804469786002905 0.10657952778602331
-0.08307136132135655 0.013736205691067935 0.12032139888886181
-0.06539525686325542 -8.771806961502004e-05 0.13149230446863577
-0.044334574494221714 -0.01102091018518418 0.13956990539600472
-0.02087408831456424 -0.018552146743685823 0.14417650202921356
0.0038892154164138206 -0.0223292754940126 0.14509669502955785
0.02879743213868735 -0.022175682093776388 0.14228745719506258
0.052685881321817334 -0.018098548399665387 0.13588014536462512
0.07443756563210492 -0.01028851665180759 0.12617435831822107
0.09303540048646186 0.0008892247454939826 0.11362392787093287
0.10760977179710722 0.014912017027668813 0.09881569820167402
0.11747919815980551 0.031124170012816636 0.08244208567161393
0.12218219616691656 0.04876762144586582 0.06526870220469494
0.12149885885863466 0.06701738314709475 0.048098556124985384
0.11546113832802027 0.08502011654250743 0.03173450437992564
0.10435135167664046 0.10193403382713537 0.016941711841777552
0.1063480286204818 0.11957242230619543 0.03560969411753792
0.09068565712451411 0.13460664750627827 0.023079855324377226
0.07120305586763434 0.14705819696080136 0.01339885161225653
0.04881120963125814 0.15634485005617443 0.007019355955091749
0.024557136258648814 0.16203237321503142 0.004239666479511755
-0.00042507073575687437 0.1638548241756922 0.005189758375991715
-0.024967271118629317 0.16172698715674497 0.009825206403403512
-0.047921898876761966 0.15574835745227475 0.01792926216391583
-0.06821562112842099 0.1461984891424929 0.02912298901717816
-0.08489952597597106 0.13352392345564854 0.04288298073646583
-0.09719349257156913 0.1183173089964905 0.05856583540211727
-0.10452266870096759 0.10128969015619094 0.07543824016020771
-0.10654435023414993 0.08323725946688315 0.09271126011657989
-0.10316400558956217 0.06500412852376358 0.10957722805565663
-0.09453969592580204 0.04744285826506294 0.1252475100617837
-0.0810746843775152 0.03137459417012797 0.1389893811646222
-0.06339857991941407 0.017550670409445017 0.15016028674439616
-0.04233789755038036 0.0066174782938758555 0.1582378876717651
-0.01887741137072289 -0.0009137582646257887 0.16284448430497395
0.005885892360255174 -0.0046908870149525665 0.16376467730531824
0.030794109082528703 -0.004537293614716354 0.16095543947082297
0.05468255826565869 -0.0004601599206053521 0.1545481276403855
0.07643424257594628 0.007349871827252446 0.14484234059398146
0.09503207743030322 0.01852761322455402 0.13229191014669325
0.10960644874094858 0.03255040550672885 0.1174836804774344
0.11947587510364686 0.04876255849187667 0.10111006794737432
0.12417887311075791 0.06640600992492586 0.08393668448045533
0.12349553580247602 0.0846557716261548 0.06676653840074577
0.11745781527186162 0.10265850502156748 0.05040248665568603
0.10634802862048182 0.1195724223061954 0.035609694117537935
-0.008985046247286087 -0.07937274815577014 -0.08400592024092172
0.0018330629052912125 -0.07490611769461178 -0.08938327869907549
0.012651172057868514 -0.07043948723345342 -0.09476063715722924
0.02346928121044581 -0.06597285677229506 -0.100137995615383
0.03428739036302311 -0.06150622631113669 -0.10551535407353675
0.04510549951560042 -0.05703959584997832 -0.11089271253169052
0.05592360866817771 -0.05257296538881996 -0.11627007098984427
0.06674171782075501 -0.0481063349276616 -0.12164742944799802
0.07755982697333232 -0.04363970446650323 -0.1270247879061518
0.08837793612590962 -0.039173074005344866 -0.13240214636430553
-0.008985046247286087 -0.07937274815577014 -0.08400592024092172
-0.0009996297804657434 -0.07246726090741051 -0.09138464824886994
0.0069857866863546015 -0.06556177365905087 -0.09876337625681814
0.014971203153174944 -0.05865628641069125 -0.10614210426476633
0.022956619619995292 -0.051750799162331614 -0.11352083227271455
0.030942036086815634 -0.04484531191397198 -0.12089956028066275
0.03892745255363597 -0.03793982466561235 -0.12827828828861096
0.046912869020456334 -0.031034337417252707 -0.13565701629655916
0.05489828548727667 -0.02412885016889308 -0.14303574430450736
0.06288370195409701 -0.01722336292053344 -0.15041447231245558
-0.008985046247286087 -0.07937274815577014 -0.08400592024092172
-0.004697666246905695 -0.07077672081324368 -0.09258641812624155
-0.000410286246525302 -0.06218069347071722 -0.10116691601156137
0.0038770937538550833 -0.05358466612819075 -0.1097474138968812
0.008164473754235485 -0.04498863878566429 -0.11832791178220102
0.012451853754615876 -0.03639261144313782 -0.12690840966752084
0.016739233754996256 -0.02779658410061136 -0.13548890755284065
0.02102661375537665 -0.019200556758084894 -0.1440694054381605
0.025313993755757058 -0.010604529415558428 -0.1526499033234803
0.029601373756137434 -0.002008502073031956 -0.16123040120880014
-0.008985046247286087 -0.07937274815577014 -0.08400592024092172
-0.008860306861941935 -0.07001769366274654 -0.09285835791759617
-0.00873556747659778 -0.06066263916972294 -0.10171079559427061
-0.008610828091253627 -0.05130758467669934 -0.11056323327094505
-0.008486088705909473 -0.041952530183675736 -0.1194156709476195
-0.008361349320565325 -0.032597475690652127 -0.12826810862429394
-0.008236609935221167 -0.02324242119762853 -0.13712054630096837
-0.008111870549877016 -0.01388736670460492 -0.14597298397764283
-0.007987131164532858 -0.004532312211581324 -0.15482542165431726
-0.007862391779188713 0.004822742281442286 -0.16367785933099172
-0.008985046247286087 -0.07937274815577014 -0.08400592024092172
-0.013036464924911204 -0.07027243182519519 -0.0921709987269599
-0.01708788360253632 -0.06117211549462022 -0.10033607721299806
-0.02113930228016143 -0.052071799164045265 -0.10850115569903623
-0.02519072095778655 -0.0429714828334703 -0.11666623418507441
-0.02924213963541166 -0.03387116650289534 -0.12483131267111257
-0.03329355831303677 -0.02477085017232039 -0.13299639115715073
-0.03734497699066189 -0.01567053384174543 -0.1411614696431889
-0.04139639566828702 -0.006570217511170448 -0.14932654812922708
-0.04544781434591212 0.0025300988194045058 -0.15749162661526525
-0.008985046247286087 -0.07937274815577014 -0.08400592024092172
-0.01677358890992188 -0.07151333046801844 -0.09059882658811491
-0.02456213157255767 -0.06365391278026675 -0.0971917329353081
-0.032350674235193465 -0.05579449509251505 -0.10378463928250128
-0.040139216897829254 -0.04793507740476336 -0.11037754562969448
-0.04792775956046504 -0.040075659717011665 -0.11697045197688767
-0.05571630222310084 -0.03221624202925996 -0.12356335832408084
-0.06350484488573663 -0.02435682434150825 -0.13015626467127406
-0.07129338754837242 -0.016497406653756576 -0.13674917101846723
-0.0790819302110082 -0.008637988966004864 -0.14334207736566043
-0.008985046247286087 -0.07937274815577014 -0.08400592024092172
-0.01966670344574477 -0.07360591896874012 -0.0883122107470693
-0.030348360644203456 -0.0678390897817101 -0.09261850125321686
-0.04103001784266214 -0.06207226059468008 -0.09692479175936443
-0.05171167504112083 -0.056305431407650056 -0.101231082265512
-0.06239333223957952 -0.050538602220620024 -0.10553737277165957
-0.0730749894380382 -0.044771773033590014 -0.10984366327780713
-0.08375664663649689 -0.03900494384655998 -0.1141499537839547
-0.09443830383495556 -0.033238114659529965 -0.11845624429010226
-0.10511996103341426 -0.02747128547249994 -0.12276253479624985
-0.008985046247286087 -0.07937274815577014 -0.08400592024092172
-0.021402294681126144 -0.07632343289345095 -0.08555894151070079
-0.0338195431149662 -0.07327411763113174 -0.08711196278047985
-0.04623679154880625 -0.07022480236881254 -0.08866498405025891
-0.05865403998264631 -0.06717548710649333 -0.09021800532003796
-0.07107128841648637 -0.06412617184417414 -0.09177102658981702
-0.08348853685032641 -0.06107685658185493 -0.09332404785959608
-0.09590578528416648 -0.05802754131953573 -0.09487706912937513
-0.10832303371800653 -0.05497822605721652 -0.0964300903991542
-0.12074028215184658 -0.05192891079489733 -0.09798311166893325
-0.008985046247286087 -0.07937274815577014 -0.08400592024092172
-0.021792284375239657 -0.07937138744183538 -0.08263737832214385
-0.03459952250319323 -0.07937002672790061 -0.08126883640336598
-0.047406760631146794 -0.07936866601396585 -0.07990029448458809
-0.06021399875910037 -0.07936730530003108 -0.07853175256581021
-0.07302123688705393 -0.07936594458609632 -0.07716321064703234
-0.0858284750150075 -0.07936458387216155 -0.07579466872825447
-0.09863571314296107 -0.07936322315822679 -0.07442612680947658
-0.11144295127091465 -0.07936186244429203 -0.0730575848906987
-0.12425018939886821 -0.07936050173035726 -0.07168904297192082
-0.008985046247286087 -0.07937274815577014 -0.08400592024092172
-0.02079441109341452 -0.0824194894446883 -0.0798641178856023
-0.03260377593954296 -0.08546623073360646 -0.07572231553028287
-0.044413140785671386 -0.0885129720225246 -0.07158051317496343
-0.05622250563179983 -0.09155971331144276 -0.067438710819644
-0.06803187047792826 -0.09460645460036092 -0.06329690846432458
-0.07984123532405668 -0.09765319588927907 -0.059155106109005144
-0.09165060017018513 -0.10069993717819722 -0.05501330375368572
-0.10345996501631356 -0.10374667846711538 -0.050871501398366284
-0.115269329862442 -0.10679341975603354 -0.04672969904304685
-0.008985046247286087 -0.07937274815577014 -0.08400592024092172
-0.01851680988933579 -0.08513742975382492 -0.07753968600094477
-0.02804857353138549 -0.0909021113518797 -0.07107345176096783
-0.037580337173435195 -0.09666679294993448 -0.06460721752099087
-0.0471121008154849 -0.10243147454798926 -0.058140983281013914
-0.0566438644575346 -0.10819615614604403 -0.05167474904103696
-0.0661756280995843 -0.1139608377440988 -0.04520851480106001
-0.07570739174163399 -0.11972551934215359 -0.03874228056108305
-0.0852391553836837 -0.12549020094020835 -0.032276046321106096
-0.0947709190257334 -0.13125488253826315 -0.025809812081129143
-0.008985046247286087 -0.07937274815577014 -0.08400592024092172
-0.015206294194089342 -0.08723067736356115 -0.07591597093015075
-0.021427542140892597 -0.09508860657135214 -0.06782602161937978
-0.027648790087695847 -0.10294653577914313 -0.059736072308608806
-0.03387003803449911 -0.11080446498693412 -0.05164612299783783
-0.040091285981302356 -0.11866239419472513 -0.04355617368706685
-0.04631253392810561 -0.12652032340251612 -0.03546622437629589
-0.05253378187490887 -0.13437825261030711 -0.027376275065524914
-0.05875502982171213 -0.1422361818180981 -0.019286325754753936
-0.06497627776851539 -0.15009411102588913 -0.011196376443982959
-0.008985046247286087 -0.07937274815577014 -0.08400592024092172
-0.011221609751198774 -0.08847239641529883 -0.07516892739567597
-0.01345817325511146 -0.09757204467482752 -0.06633193455043022
-0.015694736759024146 -0.10667169293435622 -0.057494941705184474
-0.017931300262936833 -0.1157713411938849 -0.048657948859938724
-0.020167863766849526 -0.12487098945341359 -0.039820956014692974
-0.022404427270762202 -0.1339706377129423 -0.030983963169447227
-0.02464099077467489 -0.14307028597247098 -0.022146970324201463
-0.026877554278587578 -0.15216993423199965 -0.013309977478955726
-0.029114117782500264 -0.16126958249152834 -0.004472984633709961
-0.008985046247286087 -0.07937274815577014 -0.08400592024092172
-0.006994558948800837 -0.08872802738252597 -0.07537950915605554
-0.005004071650315586 -0.09808330660928179 -0.06675309807118936
-0.003013584351830333 -0.1074385858360376 -0.05812668698632316
-0.0010230970533450833 -0.11679386506279342 -0.049500275901456975
0.0009673902451401733 -0.12614914428954924 -0.04087386481659078
0.0029578775436254227 -0.13550442351630504 -0.03224745373172459
0.004948364842110679 -0.14485970274306087 -0.0236210426468584
0.006938852140595922 -0.1542149819698167 -0.014994631561992228
0.008929339439081179 -0.1635702611965725 -0.00636822047712603
-0.008985046247286087 -0.07937274815577014 -0.08400592024092172
-0.0029832083307864644 -0.08796986868342033 -0.07652489641003965
0.0030186295857131595 -0.0965669892110705 -0.06904387257915756
0.009020467502212786 -0.10516410973872069 -0.06156284874827547
0.015022305418712408 -0.11376123026637086 -0.05408182491739339
0.021024143335212034 -0.12235835079402103 -0.0466008010865113
0.02702598125171166 -0.1309554713216712 -0.03911977725562922
0.03302781916821129 -0.1395525918493214 -0.03163875342474713
0.0390296570847109 -0.14814971237697158 -0.024157729593865054
0.04503149500121053 -0.15674683290462174 -0.016676705762982958
-0.008985046247286087 -0.07937274815577014 -0.08400592024092172
0.00037775002086457796 -0.08628007857707432 -0.0784809686761447
0.009740546289015245 -0.0931874089983785 -0.07295601711136766
0.01910334255716591 -0.10009473941968267 -0.06743106554659065
0.028466138825316577 -0.10700206984098685 -0.06190611398181361
0.037828935093467235 -0.11390940026229102 -0.05638116241703659
0.0471917313616179 -0.12081673068359519 -0.050856210852259554
0.056554527629768564 -0.12772406110489937 -0.045331259287482537
0.06591732389791924 -0.13463139152620354 -0.03980630772270549
0.0752801201660699 -0.14153872194750772 -0.034281356157928475
-0.008985046247286087 -0.07937274815577014 -0.08400592024092172
0.0027241041181088046 -0.08384177204130557 -0.08103575517274979
0.014433254483503698 -0.08831079592684099 -0.07806559010457784
0.026142404848898588 -0.0927798198123764 -0.0750954250364059
0.03785155521429348 -0.09724884369791183 -0.07212525996823395
0.04956070557968838 -0.10171786758344724 -0.06915509490006201
0.06126985594508326 -0.10618689146898265 -0.06618492983189007
0.07297900631047814 -0.11065591535451806 -0.06321476476371812
0.08468815667587305 -0.1151249392400535 -0.060244599695546165
0.09639730704126794 -0.11959396312558891 -0.057274434627374235
-0.008985046247286087 -0.07937274815577014 -0.08400592024092172
0.003801590087074795 -0.0809191774234887 -0.08391240514135083
0.01658822642143568 -0.08246560669120724 -0.08381889004177992
0.02937486275579657 -0.08401203595892578 -0.08372537494220902
0.04216149909015744 -0.08555846522664434 -0.08363185984263811
0.05494813542451833 -0.08710489449436289 -0.0835383447430672
0.06773477175887922 -0.08865132376208143 -0.08344482964349631
0.08052140809324011 -0.09019775302979997 -0.08335131454392541
0.09330804442760098 -0.09174418229751853 -0.0832577994443545
0.10609468076196187 -0.09329061156523707 -0.0831642843447836
-0.008985046247286087 -0.07937274815577014 -0.08400592024092172
0.0034934456041076757 -0.0778290031991921 -0.08679918892202665
0.01597193745550144 -0.07628525824261406 -0.08959245760313157
0.0284504293068952 -0.07474151328603602 -0.09238572628423648
0.040928921158288965 -0.07319776832945799 -0.0951789949653414
0.05340741300968272 -0.07165402337287995 -0.09797226364644633
0.06588590486107648 -0.07011027841630191 -0.10076553232755125
0.07836439671247027 -0.06856653345972386 -0.10355880100865618
0.09084288856386402 -0.06702278850314583 -0.1063520696897611
0.10332138041525778 -0.06547904354656779 -0.10914533837086603
-0.008985046247286087 -0.07937274815577014 -0.08400592024092172
0.0018330629052912143 -0.07490611769461178 -0.08938327869907549
0.012651172057868518 -0.07043948723345342 -0.09476063715722924
0.02346928121044582 -0.06597285677229506 -0.10013799561538299
0.03428739036302312 -0.0615062263111367 -0.10551535407353675
0.045105499515600424 -0.057039595849978336 -0.1108927125316905
0.05592360866817772 -0.05257296538881997 -0.11627007098984427
0.06674171782075503 -0.048106334927661615 -0.121647429447998
0.07755982697333233 -0.04363970446650325 -0.12702478790615176
0.08837793612590963 -0.039173074005344886 -0.13240214636430553
0.008985046247286087 0.07937274815577014 0.08400592024092172
0.01980315539986339 0.08383937861692851 0.07862856178276798
0.03062126455244069 0.08830600907808688 0.07325120332461421
0.04143937370501799 0.09277263953924524 0.06787384486646046
0.052257482857595294 0.0972392700004036 0.0624964864083067
0.0630755920101726 0.10170590046156197 0.05711912795015294
0.07389370116274989 0.10617253092272033 0.051741769491999184
0.0847118103153272 0.11063916138387869 0.046364411033845435
0.0955299194679045 0.11510579184503705 0.04098705257569167
0.1063480286204818 0.11957242230619543 0.03560969411753792
0.008985046247286087 0.07937274815577014 0.08400592024092172
0.016970462714106432 0.08627823540412978 0.07662719223297353
0.024955879180926777 0.0931837226524894 0.06924846422502531
0.03294129564774712 0.10008920990084905 0.061869736217077115
0.04092671211456747 0.10699469714920867 0.05449100820912891
0.04891212858138781 0.11390018439756831 0.047112280201180703
0.056897545048208154 0.12080567164592794 0.039733552193232505
0.06488296151502851 0.12771115889428758 0.03235482418528429
0.07286837798184885 0.1346166461426472 0.024976096177336097
0.08085379444866919 0.14152213339100686 0.017597368169387884
0.008985046247286087 0.07937274815577014 0.08400592024092172
0.013272426247666481 0.08796877549829661 0.0754254223556019
0.017559806248046875 0.09656480284082307 0.06684492447028208
0.02184718624842726 0.10516083018334954 0.05826442658496226
0.02613456624880766 0.113756857525876 0.049683928699642436
0.03042194624918805 0.12235288486840247 0.04110343081432262
0.034709326249568434 0.13094891221092894 0.032522932929002796
0.038996706249948825 0.1395449395534554 0.023942435043682975
0.043284086250329236 0.14814096689598186 0.015361937158363152
0.04757146625070961 0.15673699423850834 0.006781439273043327
0.008985046247286087 0.07937274815577014 0.08400592024092172
0.009109785632630242 0.08872780264879375 0.07515348256424728
0.009234525017974395 0.09808285714181735 0.06630104488757284
0.009359264403318548 0.10743791163484095 0.0574486072108984
0.009484003788662702 0.11679296612786455 0.04859616953422396
0.00960874317400685 0.12614802062088817 0.03974373185754951
0.009733482559351008 0.13550307511391177 0.030891294180875082
0.00985822194469516 0.14485812960693537 0.02203885650420063
0.009982961330039317 0.15421318409995896 0.013186418827526195
0.010107700715383462 0.16356823859298258 0.004333981150851737
0.008985046247286087 0.07937274815577014 0.08400592024092172
0.004933627569660972 0.08847306448634511 0.07584084175488356
0.0008822088920358563 0.09757338081692007 0.06767576326884539
-0.0031692097855892535 0.10667369714749503 0.05951068478280722
-0.0072206284632143755 0.11577401347807 0.05134560629676905
-0.011272047140839486 0.12487432980864495 0.04318052781073088
-0.015323465818464596 0.1339746461392199 0.035015449324692714
-0.01937488449608971 0.14307496246979487 0.026850370838654557
-0.02342630317371484 0.15217527880036985 0.018685292352616376
-0.027477721851339943 0.1612755951309448 0.010520213866578202
0.008985046247286087 0.07937274815577014 0.08400592024092172
0.0011965035846502976 0.08723216584352184 0.07741301389372854
-0.006592039077985493 0.09509158353127353 0.07082010754653535
-0.014380581740621286 0.10295100121902524 0.06422720119934217
-0.022169124403257075 0.11081041890677693 0.05763429485214897
-0.029957667065892864 0.11866983659452862 0.051041388504955786
-0.03774620972852866 0.12652925428228032 0.044448482157762606
-0.04553475239116445 0.13438867197003204 0.037855575810569406
-0.053323295053800235 0.1422480896577837 0.03126266946337622
-0.061111837716436024 0.15010750734553543 0.024669763116183036
0.008985046247286087 0.07937274815577014 0.08400592024092172
-0.0016966109511725959 0.08513957734280017 0.07969962973477417
-0.012378268149631281 0.09090640652983019 0.0753933392286266
-0.023059925348089965 0.0966732357168602 0.07108704872247902
-0.033741582546548646 0.10244006490389024 0.06678075821633146
-0.04442323974500734 0.10820689409092027 0.06247446771018388
-0.055104896943466014 0.11397372327795027 0.05816817720403632
-0.0657865541419247 0.1197405524649803 0.053861886697888745
-0.07646821134038338 0.12550738165201034 0.049555596191741186
-0.08714986853884207 0.13127421083904034 0.0452493056855936
0.008985046247286087 0.07937274815577014 0.08400592024092172
-0.0034322021865539664 0.08242206341808934 0.08245289897114266
-0.015849450620394022 0.08547137868040855 0.08089987770136362
-0.02826669905423407 0.08852069394272775 0.07934685643158455
-0.04068394748807413 0.09157000920504696 0.07779383516180549
-0.05310119592191419 0.09461932446736615 0.07624081389202644
-0.06551844435575423 0.09766863972968536 0.07468779262224737
-0.0779356927895943 0.10071795499200456 0.07313477135246832
-0.09035294122343435 0.10376727025432377 0.07158175008268926
-0.1027701896572744 0.10681658551664296 0.0700287288129102
0.008985046247286087 0.07937274815577014 0.08400592024092172
-0.0038221918806674816 0.0793741088697049 0.08537446215969961
-0.016629430008621052 0.07937546958363967 0.08674300407847749
-0.029436668136574615 0.07937683029757445 0.08811154599725536
-0.04224390626452819 0.0793781910115092 0.08948008791603324
-0.05505114439248175 0.07937955172544398 0.09084862983481112
-0.06785838252043531 0.07938091243937874 0.092217171753589
-0.08066562064838889 0.07938227315331349 0.09358571367236687
-0.09347285877634247 0.07938363386724825 0.09495425559114476
-0.10628009690429603 0.07938499458118303 0.09632279750992263
0.008985046247286087 0.07937274815577014 0.08400592024092172
-0.0028243185988423456 0.076326006866852 0.08814772259624115
-0.01463368344497078 0.07327926557793384 0.09228952495156059
-0.026443048291099207 0.07023252428901568 0.09643132730688002
-0.038252413137227645 0.06718578300009753 0.10057312966219945
-0.05006177798335608 0.06413904171117937 0.10471493201751889
-0.0618711428294845 0.06109230042226122 0.10885673437283831
-0.07368050767561295 0.05804555913334306 0.11299853672815774
-0.08548987252174138 0.0549988178444249 0.11714033908347717
-0.09729923736786981 0.05195207655550675 0.1212821414387966
0.008985046247286087 0.07937274815577014 0.08400592024092172
-0.0005467173947636138 0.07360806655771537 0.09047215448089868
-0.010078481036813317 0.0678433849596606 0.09693838872087564
-0.019610244678863017 0.062078703361605814 0.10340462296085258
-0.02914200832091272 0.056314021763551034 0.10987085720082954
-0.03867377196296242 0.05054934016549626 0.11633709144080649
-0.04820553560501212 0.04478465856744149 0.12280332568078345
-0.05773729924706181 0.03901997696938671 0.1292695599207604
-0.06726906288911152 0.03325529537133193 0.13573579416073736
-0.07680082653116121 0.027490613773277155 0.1422020284007143
0.008985046247286087 0.07937274815577014 0.08400592024092172
0.0027637983004828335 0.07151481894797915 0.0920958695516927
-0.0034574496463204213 0.06365688974018816 0.10018581886246368
-0.009678697593123672 0.055798960532397156 0.10827576817323464
-0.01589994553992693 0.04794103132460616 0.11636571748400562
-0.02212119348673018 0.04008310211681516 0.1244556667947766
-0.02834244143353343 0.032225172909024165 0.13254561610554758
-0.03456368938033669 0.024367243701233172 0.14063556541631855
-0.04078493732713995 0.01650931449344218 0.14872551472708953
-0.04700618527394321 0.008651385285651158 0.1568154640378605
0.008985046247286087 0.07937274815577014 0.08400592024092172
0.006748482743373402 0.07027309989624146 0.09284291308616748
0.004511919239460716 0.06117345163671277 0.10167990593141323
0.002275355735548031 0.05207380337718408 0.11051689877665898
3.879223163534295e-05 0.04297415511765539 0.11935389162190473
-0.0021977712722773502 0.0338745068581267 0.1281908844671505
-0.004434334776190026 0.024774858598598008 0.13702787731239624
-0.006670898280102716 0.015675210339069316 0.145864870157642
-0.008907461784015403 0.006575562079540636 0.15470186300288774
-0.01114402528792809 -0.0025240861799880557 0.1635388558481335
0.008985046247286087 0.07937274815577014 0.08400592024092172
0.010975533545771339 0.07001746892901432 0.09263233132578791
0.01296602084425659 0.06066218970225851 0.1012587424106541
0.014956508142741843 0.05130691047550269 0.10988515349552029
0.016946995441227092 0.04195163124874687 0.11851156458038647
0.01893748273971235 0.03259635202199106 0.12713797566525267
0.0209279700381976 0.02324107279523524 0.13576438675011887
0.022918457336682855 0.013885793568479415 0.14439079783498507
0.024908944635168098 0.0045305143417235984 0.15301720891985124
0.026899431933653354 -0.004824764885032218 0.16164362000471744
0.008985046247286087 0.07937274815577014 0.08400592024092172
0.014986884163785711 0.07077562762811997 0.09148694407180381
0.020988722080285335 0.062178507100469786 0.0989679679026859
0.02699055999678496 0.053581386572819606 0.10644899173356798
0.03299239791328459 0.04498426604516943 0.11393001556445007
0.03899423582978421 0.03638714551751926 0.12141103939533215
0.04499607374628384 0.027790024989869072 0.12889206322621424
0.050997911662783474 0.019192904462218885 0.13637308705709633
0.05699974957928308 0.010595783934568717 0.1438541108879784
0.0630015874957827 0.0019986634069185435 0.1513351347188605
0.008985046247286087 0.07937274815577014 0.08400592024092172
0.018347842515436755 0.07246541773446596 0.08953087180569876
0.02771063878358742 0.06555808731316179 0.09505582337047579
0.03707343505173809 0.05865075689185762 0.10058077493525282
0.046436231319888756 0.05174342647055344 0.10610572650002985
0.05579902758803942 0.04483609604924927 0.11163067806480687
0.06516182385619008 0.037928765627945095 0.1171556296295839
0.07452462012434075 0.031021435206640927 0.12268058119436091
0.08388741639249142 0.024114104785336737 0.12820553275913796
0.09325021266064208 0.01720677436403257 0.133730484323915
0.008985046247286087 0.07937274815577014 0.08400592024092172
0.02069419661268098 0.07490372427023473 0.08697608530909368
0.03240334697807588 0.0704347003846993 0.08994625037726561
0.044112497343470766 0.06596567649916389 0.09291641544543755
0.05582164770886566 0.061496652613628466 0.0958865805136095
0.06753079807426056 0.057027628728093055 0.09885674558178145
0.07923994843965544 0.052558604842557644 0.10182691064995339
0.09094909880505032 0.048089580957022225 0.10479707571812533
0.10265824917044523 0.04362055707148679 0.10776724078629729
0.11436739953584012 0.03915153318595138 0.11073740585446921
0.008985046247286087 0.07937274815577014 0.08400592024092172
0.02177168258164697 0.0778263188880516 0.08409943534049263
0.03455831891600786 0.07627988962033305 0.08419295044006353
0.04734495525036875 0.07473346035261451 0.08428646553963444
0.060131591584729624 0.07318703108489595 0.08437998063920533
0.07291822791909051 0.07164060181717741 0.08447349573877624
0.0857048642534514 0.07009417254945886 0.08456701083834714
0.0984915005878123 0.0685477432817403 0.08466052593791805
0.11127813692217316 0.06700131401402176 0.08475404103748896
0.12406477325653405 0.06545488474630322 0.08484755613705985
0.008985046247286087 0.07937274815577014 0.08400592024092172
0.021463538098679853 0.08091649311234818 0.0812126515598168
0.033942029950073616 0.08246023806892623 0.07841938287871189
0.04642052180146738 0.08400398302550427 0.07562611419760697
0.05889901365286115 0.08554772798208231 0.07283284551650204
0.0713775055042549 0.08709147293866035 0.07003957683539712
0.08385599735564866 0.08863521789523839 0.06724630815429221
0.09633448920704245 0.09017896285181642 0.06445303947318727
0.1088129810584362 0.09172270780839446 0.061659770792082354
0.12129147290982996 0.0932664527649725 0.05886650211097743
0.008985046247286087 0.07937274815577014 0.08400592024092172
0.019803155399863392 0.08383937861692851 0.07862856178276798
0.030621264552440693 0.08830600907808688 0.07325120332461421
0.041439373705018 0.09277263953924524 0.06787384486646046
0.0522574828575953 0.0972392700004036 0.062496486408306705
0.0630755920101726 0.10170590046156196 0.05711912795015295
0.0738937011627499 0.10617253092272032 0.05174176949199919
0.08471181031532721 0.11063916138387868 0.04636441103384545
0.09552991946790451 0.11510579184503704 0.040987052575691685
0.10634802862048182 0.1195724223061954 0.035609694117537935
