# .PCD v0.7 - Point Cloud Data file format
VERSION 0.7
FIELDS x y z
SIZE 4 4 4
TYPE F F F
COUNT 1 1 1
WIDTH 700
HEIGHT 1
VIEWPOINT 0 0 0 1 0 0 0
POINTS 700
DATA ascii
0.19467788555917045 0.03438279030147795 -0.03155007506118456
0.1875537958967963 0.06398517124763438 -0.028399544647494578
0.17535828928941824 0.09204911110218292 -0.029214622261085975
0.1586616140716653 0.1172623712283538 -0.033957195778640877
0.13824448821969784 0.13844600760517317 -0.04240550773347034
0.11506159384634837 0.15460949693958181 -0.054164524448190886
0.0901969373265782 0.1649970524347309 -0.06868440737043054
0.06481316236417095 0.16912296354060594 -0.08528622291243618
0.04009718606432917 0.16679430723951708 -0.10319368863105635
0.017204700008998826 0.15811996891198762 -0.12156947133200702
-0.0027938685970436486 0.14350555097737833 -0.1395543398394073
-0.0189634089125923 0.12363440737555251 -0.15630734169059687
-0.030547851203645386 0.0994356906961417 -0.1710451251386383
-0.0370055198238561 0.07204090603613328 -0.183078567809371
-0.03803446136572663 0.042731003079112984 -0.19184499929772247
-0.033586563666345416 0.01287648031173353 -0.19693451101048623
-0.023869805478652313 -0.016126697962321215 -0.19810912303655936
-0.009338531616102812 -0.0429223753616739 -0.19531391182309024
0.009327791705841186 -0.06625761579238718 -0.18867957833976653
0.03125634795477391 -0.08504128934717788 -0.1785163366467364
0.05542178221233507 -0.09839509232717773 -0.16529940862993409
0.08069414563059221 -0.10569461574672794 -0.1496468031538648
0.10589173058432216 -0.10659854200356793 -0.13229041865396807
0.12983632600619274 -0.10106460451056974 -0.11404182037922322
0.1514083092267837 -0.0893515640343762 -0.09575429250309705
0.1695989982862375 -0.07200710932954463 -0.07828293950394981
0.1835578167816329 -0.049842247821096114 -0.06244470243000745
0.19263206587423765 -0.02389338379869155 -0.048980159643911385
0.1963974437617851 0.0046261426960725075 -0.03851889820157483
0.19467788555917045 0.034382790301477915 -0.03155007506118456
0.17710123881581455 0.02747532452609053 -0.00639246174388262
0.1699771491534404 0.057077705472246956 -0.0032419313301926367
0.15778164254606236 0.0851416453267955 -0.0040570089437840335
0.14108496732830939 0.11035490545296638 -0.008799582461338936
0.12066784147634195 0.13153854182978575 -0.0172478944161684
0.09748494710299248 0.1477020311641944 -0.029006911130888945
0.07262029058322231 0.15808958665934347 -0.0435267940531286
0.04723651562081506 0.1622154977652185 -0.06012860959513424
0.02252053932097328 0.15988684146412965 -0.07803607531375442
-0.0003719467343570616 0.1512125031366002 -0.09641185801470509
-0.020370515340399537 0.1365980852019909 -0.11439672652210536
-0.036540055655948186 0.11672694160016509 -0.13114972837329492
-0.04812449794700127 0.09252822492075427 -0.14588751182133636
-0.05458216656721199 0.06513344026074586 -0.15792095449206908
-0.05561110810908251 0.03582353730372556 -0.16668738598042054
-0.0511632104097013 0.005969014536346109 -0.17177689769318427
-0.0414464522220082 -0.023034163737708637 -0.17295150971925743
-0.0269151783594587 -0.04982984113706131 -0.1701562985057883
-0.0082488550375147 -0.0731650815677746 -0.1635219650224646
0.013679701211418023 -0.0919487551225653 -0.15335872332943448
0.03784513546897918 -0.10530255810256516 -0.14014179531263213
0.06311749888723632 -0.11260208152211536 -0.12448918983656286
0.08831508384096627 -0.11350600777895535 -0.10713280533666614
0.11225967926283686 -0.10797207028595716 -0.08888420706192128
0.13383166248342782 -0.09625902980976363 -0.07059667918579512
0.15202235154288163 -0.07891457510493205 -0.053125326186647864
0.16598117003827703 -0.05674971359648353 -0.03728708911270551
0.17505541913088177 -0.030800849574078974 -0.023822546326609444
0.17882079701842923 -0.0022813230793149127 -0.013361284884272889
0.17710123881581455 0.027475324526090496 -0.00639246174388262
0.15952459207245867 0.020567858750703112 0.01876515157341931
0.15240050241008452 0.050170239696859534 0.021915681987109293
0.14020499580270648 0.07823417955140809 0.021100604373517896
0.12350832058495352 0.10344743967757897 0.016358030855962994
0.10309119473298607 0.12463107605439833 0.007909718901133529
0.0799083003596366 0.14079456538880697 -0.0038492978135870157
0.05504364383986642 0.15118212088395605 -0.018369180735826673
0.02965986887745918 0.1553080319898311 -0.03497099627783232
0.004943892577617399 0.15297937568874223 -0.052878461996452485
-0.01794859347771294 0.14430503736121278 -0.07125424469740316
-0.03794716208375542 0.12969061942660348 -0.08923911320480343
-0.05411670239930407 0.10981947582477768 -0.105992115055993
-0.06570114469035715 0.08562075914536686 -0.12072989850403443
-0.07215881331056787 0.058225974485358434 -0.13276334117476715
-0.07318775485243839 0.028916071528338146 -0.1415297726631186
-0.06873985715305718 -0.0009384512390413083 -0.14661928437588234
-0.05902309896536408 -0.029941629513096053 -0.1477938964019555
-0.04449182510281458 -0.056737306912448736 -0.14499868518848638
-0.02582550178087058 -0.080072547343162 -0.13836435170516267
-0.0038969455319378577 -0.0988562208979527 -0.12820111001213255
0.0202684887256233 -0.11221002387795256 -0.11498418199533021
0.045540852143880435 -0.11950954729750277 -0.09933157651926093
0.0707384370976104 -0.12041347355434276 -0.08197519201936421
0.09468303251948099 -0.11487953606134457 -0.06372659374461935
0.11625501574007194 -0.10316649558515104 -0.045439065868493195
0.13444570479952575 -0.08582204088031946 -0.027967712869345938
0.14840452329492115 -0.06365717937187094 -0.01212947579540358
0.1574787723875259 -0.03770831534946639 0.001335066990692485
0.16124415027507336 -0.009188788854702331 0.011796328433029041
0.15952459207245867 0.02056785875070308 0.01876515157341931
0.1419479453291028 0.013660392975315693 0.04392276489072125
0.13482385566672864 0.04326277392147212 0.04707329530441123
0.12262834905935059 0.07132671377602066 0.046258217690819836
0.10593167384159763 0.09653997390219154 0.041515644173264935
0.0855145479896302 0.1177236102790109 0.03306733221843547
0.06233165361628071 0.13388709961341955 0.021308315503714925
0.03746699709651054 0.14427465510856863 0.006788432581475267
0.012083222134103294 0.14840056621444367 -0.009813382960530375
-0.012632754165738488 0.1460719099133548 -0.027720848679150548
-0.03552524022106883 0.13739757158582536 -0.04609663138010121
-0.055523808827111304 0.12278315365121606 -0.06408149988750149
-0.07169334914265996 0.10291201004939025 -0.08083450173869106
-0.08327779143371304 0.07871329336997944 -0.09557228518673248
-0.08973546005392376 0.05131850870997102 -0.10760572785746521
-0.09076440159579428 0.022008605752950723 -0.11637215934581667
-0.08631650389641307 -0.00784591701442873 -0.12146167105858041
-0.07659974570871997 -0.03684909528848347 -0.12263628308465356
-0.06206847184617047 -0.06364477268783615 -0.11984107187118444
-0.04340214852422647 -0.08698001311854943 -0.11320673838786073
-0.021473592275293746 -0.10576368667334013 -0.10304349669483061
0.0026918419822674106 -0.11911748965333999 -0.08982656867802827
0.02796420540052455 -0.1264170130728902 -0.07417396320195899
0.05316179035425451 -0.12732093932973018 -0.05681757870206227
0.0771063857761251 -0.121787001836732 -0.03856898042731741
0.09867836899671605 -0.11007396136053846 -0.02028145255119125
0.11686905805616986 -0.09272950665570688 -0.002810099552043998
0.13082787655156528 -0.07056464514725837 0.013028137521898358
0.13990212564417 -0.04461578112485381 0.026492680307994426
0.14366750353171748 -0.016096254630089752 0.03695394175033098
0.1419479453291028 0.013660392975315658 0.04392276489072125
0.1243712985857469 0.006752927199928272 0.0690803782080232
0.11724720892337274 0.036355308146084696 0.07223090862171318
0.1050517023159947 0.06441924800063324 0.07141583100812178
0.08835502709824174 0.08963250812680412 0.06667325749056688
0.0679379012462743 0.11081614450362348 0.058224945535737406
0.04475500687292482 0.12697963383803212 0.04646592882101686
0.01989035035315465 0.1373671893331812 0.031946045898777205
-0.005493424609252594 0.14149310043905625 0.015344230356771566
-0.030209400909094377 0.13916444413796739 -0.0025632353618486067
-0.053101886964424715 0.13049010581043793 -0.020939018062799273
-0.0731004555704672 0.11587568787582864 -0.03892388657019955
-0.08926999588601585 0.09600454427400283 -0.05567688842138912
-0.10085443817706893 0.07180582759459202 -0.07041467186943054
-0.10731210679727965 0.044411042934583596 -0.08244811454016326
-0.10834104833915018 0.015101139977563302 -0.09121454602851473
-0.10389315063976896 -0.01475338278981615 -0.09630405774127847
-0.09417639245207586 -0.043756561063870894 -0.09747866976735162
-0.07964511858952636 -0.07055223846322357 -0.0946834585538825
-0.060978795267582354 -0.09388747889393685 -0.08804912507055879
-0.03905023901864963 -0.11267115244872755 -0.07788588337752866
-0.014884804761088477 -0.1260249554287274 -0.06466895536072632
0.010387558657168663 -0.1333244788482776 -0.04901634988465705
0.035585143610898616 -0.1342284051051176 -0.03165996538476033
0.05952973903276921 -0.12869446761211942 -0.013411367110015475
0.08110172225336015 -0.11698142713592588 0.004876160766110688
0.09929241131281397 -0.0996369724310943 0.022347513765257943
0.11325122980820937 -0.07747211092264579 0.0381857508392003
0.1223254789008141 -0.05152324690024123 0.05165029362529636
0.12609085678836157 -0.02300372040547717 0.06211155506763292
0.1243712985857469 0.006752927199928238 0.0690803782080232
0.10679465184239102 -0.00015453857545914872 0.09423799152532512
0.09967056218001687 0.029447842370697273 0.09738852193901511
0.08747505557263882 0.05751178222524582 0.09657344432542371
0.07077838035488586 0.0827250423514167 0.09183087080786881
0.05036125450291841 0.10390867872823606 0.08338255885303934
0.027178360129568934 0.1200721680626447 0.0716235421383188
0.0023137036097987626 0.13045972355779378 0.05710365921607915
-0.02307007135260848 0.13458563466366882 0.04050184367407351
-0.047786047652450266 0.13225697836257996 0.022594377955453333
-0.0706785337077806 0.12358264003505051 0.004218595254502666
-0.09067710231382307 0.10896822210044121 -0.01376627325289761
-0.10684664262937173 0.08909707849861541 -0.03051927510408718
-0.11843108492042481 0.0648983618192046 -0.0452570585521286
-0.12488875354063553 0.03750357715919617 -0.05729050122286133
-0.12591769508250605 0.008193674202175883 -0.0660569327112128
-0.12146979738312484 -0.02166084856520357 -0.07114644442397654
-0.11175303919543174 -0.050664026839258317 -0.07232105645004969
-0.09722176533288224 -0.077459704238611 -0.06952584523658056
-0.07855544201093824 -0.10079494466932427 -0.06289151175325686
-0.05662688576200552 -0.11957861822411497 -0.05272827006022673
-0.032461451504444364 -0.13293242120411483 -0.03951134204342439
-0.007189088086187225 -0.14023194462366503 -0.02385873656735511
0.01800849686754273 -0.14113587088050503 -0.006502352067458391
0.04195309228941332 -0.13560193338750684 0.011746246207286466
0.06352507551000428 -0.1238888929113133 0.030033774083412627
0.08171576456945809 -0.10654443820648173 0.047505127082559884
0.09567458306485349 -0.08437957669803321 0.06334336415650224
0.10474883215745823 -0.05843071267562865 0.0768079069425983
0.1085142100450057 -0.029911186180864593 0.08726916838493486
0.10679465184239102 -0.00015453857545918255 0.09423799152532512
0.08921800509903514 -0.007062004350846566 0.11939560484262705
0.08209391543666099 0.022540376595309858 0.12254613525631704
0.06989840882928294 0.050604316449858404 0.12173105764272564
0.053201733611529974 0.07581757657602928 0.11698848412517074
0.03278460775956253 0.09700121295284864 0.10854017217034127
0.009601713386213052 0.11316470228725728 0.09678115545562073
-0.015262943133557118 0.12355225778240636 0.08226127253338107
-0.04064671809596436 0.1276781688882814 0.06565945699137543
-0.06536269439580614 0.12534951258719254 0.04775199127275526
-0.08825518045113648 0.11667517425966309 0.029376208571804594
-0.10825374905717895 0.10206075632505379 0.011391340064404318
-0.1244232893727276 0.08218961272322799 -0.005361661786785248
-0.1360077316637807 0.05799089604381718 -0.020099445234826676
-0.1424654002839914 0.030596111383808758 -0.0321328879055594
-0.14349434182586193 0.0012862084267884649 -0.04089931939391086
-0.13904644412648073 -0.028568314340590987 -0.0459888311066746
-0.12932968593878763 -0.05757149261464573 -0.04716344313274775
-0.11479841207623812 -0.08436717001399842 -0.044368231919278626
-0.09613208875429412 -0.1077024104447117 -0.03773389843595492
-0.0742035325053614 -0.1264860839995024 -0.0275706567429248
-0.05003809824780024 -0.13983988697950225 -0.01435372872612246
-0.024765734829543105 -0.14713941039905246 0.0012988767499468212
0.0004318501241868498 -0.14804333665589245 0.018655261249843538
0.02437644554605744 -0.14250939916289426 0.0369038595245884
0.04594842876664839 -0.13079635868670073 0.05519138740071456
0.06413911782610221 -0.11345190398186915 0.07266274039986181
0.07809793632149761 -0.09128704247342063 0.08850097747380417
0.08717218541410235 -0.06533817845101607 0.10196552025990023
0.09093756330164982 -0.03681865195625201 0.11242678170223679
0.08921800509903514 -0.0070620043508466 0.11939560484262705
0.07164135835567925 -0.013969470126233986 0.144553218159929
0.0645172686933051 0.015632910819922435 0.14770374857361898
0.05232176208592705 0.04369685067447098 0.14688867096002758
0.03562508686817409 0.06891011080064187 0.14214609744247267
0.015207961016206644 0.09009374717746123 0.13369778548764322
-0.007974933357142834 0.10625723651186987 0.12193876877292267
-0.032839589876913 0.11664479200701895 0.10741888585068302
-0.05822336483932025 0.12077070311289399 0.09081707030867738
-0.08293934113916203 0.11844204681180513 0.0729096045900572
-0.10583182719449237 0.10976770848427568 0.054533821889106535
-0.12583039580053484 0.09515329054966638 0.03654895338170626
-0.1419999361160835 0.07528214694784058 0.019795951530516692
-0.1535843784071366 0.05108343026842976 0.0050581680824752645
-0.1600420470273473 0.023688645608421335 -0.00697527458825746
-0.16107098856921784 -0.005621257348598955 -0.015741706076608922
-0.1566230908698366 -0.035475780115978406 -0.020831217789372664
-0.1469063326821435 -0.06447895839003315 -0.022005829815445813
-0.13237505881959402 -0.09127463578938583 -0.01921061860197669
-0.11370873549765001 -0.1146098762200991 -0.012576285118652983
-0.09178017924871729 -0.13339354977488982 -0.00241304342562286
-0.06761474499115613 -0.14674735275488968 0.01080388459117948
-0.04234238157289899 -0.15404687617443988 0.02645649006724876
-0.01714479661916904 -0.15495080243127987 0.04381287456714548
0.006799798802701552 -0.14941686493828168 0.062061472841890335
0.0283717820232925 -0.13770382446208815 0.0803490007180165
0.04656247108274632 -0.12035936975725656 0.09782035371716374
0.06052128957814172 -0.09819450824880804 0.1136585907911061
0.06959553867074646 -0.07224564422640349 0.12712313357720217
0.07336091655829392 -0.04372611773163943 0.13758439501953873
0.07164135835567925 -0.013969470126234021 0.144553218159929
0.05406471161232336 -0.02087693590162141 0.16971083147723093
0.046940621949949204 0.008725445044535015 0.1728613618909209
0.03474511534257116 0.03678938489908356 0.17204628427732951
0.0180484401248182 0.06200264502525444 0.16730371075977463
-0.0023686857271492437 0.0831862814020738 0.15885539880494515
-0.02555158010049872 0.09934977073648245 0.1470963820902246
-0.050416236620268895 0.10973732623163153 0.13257649916798495
-0.07580001158267613 0.11386323733750657 0.11597468362597932
-0.10051598788251792 0.11153458103641771 0.09806721790735914
-0.12340847393784826 0.10286024270888826 0.07969143520640848
-0.14340704254389072 0.08824582477427896 0.061706566699008196
-0.15957658285943938 0.06837468117245316 0.04495356484781863
-0.17116102515049247 0.044175964493042334 0.030215781399777205
-0.1776186937707032 0.016781179833033916 0.01818233872904448
-0.17864763531257372 -0.012528723123986377 0.009415907240693019
-0.1741997376131925 -0.04238324589136583 0.004326395527929276
-0.1644829794254994 -0.07138642416542057 0.0031517835018561274
-0.1499517055629499 -0.09818210156477325 0.00594699471532525
-0.1312853822410059 -0.12151734199548653 0.012581328198648958
-0.10935682599207318 -0.14030101555027724 0.02274456989167908
-0.08519139173451203 -0.1536548185302771 0.03596149790848142
-0.05991902831625488 -0.1609543419498273 0.0516141033845507
-0.034721443362524924 -0.1618582682066673 0.06897048788444742
-0.010776847940654337 -0.1563243307136691 0.08721908615919227
0.010795135279936615 -0.14461129023747557 0.10550661403531844
0.02898582433939043 -0.12726683553264398 0.12297796703446569
0.04294464283478583 -0.10510197402419547 0.13881620410840806
0.052018891927390565 -0.07915311000179091 0.1522807468945041
0.05578426981493803 -0.050633583507026854 0.16274200833684066
0.05406471161232336 -0.02087693590162144 0.16971083147723093
0.036488064868967475 -0.027784401677008828 0.19486844479453289
0.02936397520659332 0.0018179792691475944 0.19801897520822287
0.017168468599215274 0.02988191912369614 0.19720389759463147
0.00047179338146231104 0.055095179249867024 0.19246132407707656
-0.01994533247050513 0.07627881562668638 0.1840130121222471
-0.04312822684385461 0.09244230496109503 0.17225399540752656
-0.06799288336362479 0.10282986045624411 0.1577341124852869
-0.09337665832603202 0.10695577156211915 0.14113229694328125
-0.11809263462587381 0.10462711526103029 0.12322483122466109
-0.14098512068120414 0.09595277693350084 0.10484904852371041
-0.16098368928724663 0.08133835899889154 0.08686418001631013
-0.17715322960279528 0.06146721539706573 0.07011117816512057
-0.18873767189384835 0.03726849871765492 0.055373394717079145
-0.19519534051405907 0.009873714057646494 0.04333995204634642
-0.1962242820559296 -0.019436188899373798 0.03457352055799496
-0.1917763843565484 -0.04929071166675325 0.029484008845231217
-0.1820596261688553 -0.07829388994080799 0.02830939681915807
-0.16752835230630578 -0.10508956734016067 0.03110460803262719
-0.1488620289843618 -0.12842480777087395 0.0377389415159509
-0.12693347273542907 -0.14720848132566466 0.04790218320898102
-0.1027680384778679 -0.16056228430566452 0.06111911122578336
-0.07749567505961077 -0.16786180772521472 0.07677171670185264
-0.052298090105880816 -0.16876573398205472 0.09412810120174936
-0.028353494684010223 -0.16323179648905653 0.11237669947649422
-0.006781511463419272 -0.151518756012863 0.13066422735262037
0.01140917759603454 -0.1341743013080314 0.14813558035176763
0.025367996091429944 -0.11200943979958289 0.16397381742571
0.03444224518403468 -0.08606057577717834 0.17743836021180606
0.038207623071582146 -0.05754104928241427 0.18789962165414262
0.036488064868967475 -0.027784401677008862 0.19486844479453289
0.0790949103451015 0.03108359598924339 -0.11320925992785871
0.0919374631466647 0.03145017313504723 -0.10413601716489493
0.10478001594822793 0.03181675028085107 -0.09506277440193113
0.11762256874979114 0.03218332742665491 -0.08598953163896733
0.13046512155135437 0.03254990457245875 -0.07691628887600353
0.14330767435291758 0.03291648171826259 -0.06784304611303973
0.1561502271544808 0.033283058864066434 -0.05876980335007595
0.168992779956044 0.03364963600987027 -0.04969656058711216
0.18183533275760724 0.03401621315567411 -0.040623317824148346
0.19467788555917045 0.03438279030147795 -0.03155007506118456
0.0790949103451015 0.03108359598924339 -0.11320925992785871
0.09049951934386195 0.03641131752150729 -0.10377848305845484
0.10190412834262243 0.04173903905377118 -0.09434770618905097
0.1133087373413829 0.047066760586035074 -0.0849169293196471
0.12471334634014337 0.052394482118298974 -0.07548615245024322
0.13611795533890386 0.057722203650562874 -0.06605537558083935
0.1475225643376643 0.06304992518282676 -0.056624598711435485
0.15892717333642478 0.06837764671509067 -0.0471938218420316
0.17033178233518526 0.07370536824735456 -0.03776304497262773
0.18173639133394573 0.07903308977961845 -0.02833226810322386
0.0790949103451015 0.03108359598924339 -0.11320925992785871
0.087825709195302 0.04079512061182938 -0.10444291995939507
0.09655650804550252 0.05050664523441538 -0.09567657999093143
0.10528730689570304 0.060218169857001375 -0.08691024002246779
0.11401810574590356 0.06992969447958737 -0.07814390005400414
0.12274890459610406 0.07964121910217337 -0.0693775600855405
0.13147970344630458 0.08935274372475936 -0.06061122011707686
0.14021050229650509 0.09906426834734536 -0.05184488014861322
0.14894130114670562 0.10877579296993134 -0.04307854018014957
0.15767209999690612 0.11848731759251735 -0.03431220021168593
0.0790949103451015 0.03108359598924339 -0.11320925992785871
0.08420578151902046 0.044126529319463655 -0.10605732581969797
0.08931665269293944 0.05716946264968392 -0.09890539171153721
0.09442752386685842 0.0702123959799042 -0.09175345760337647
0.0995383950407774 0.08325532931012446 -0.08460152349521571
0.10464926621469639 0.09629826264034475 -0.07744958938705496
0.10976013738861536 0.10934119597056499 -0.07029765527889421
0.11487100856253434 0.12238412930078527 -0.06314572117073347
0.11998187973645331 0.13542706263100554 -0.055993787062572714
0.12509275091037228 0.14846999596122581 -0.048841852954411964
0.0790949103451015 0.03108359598924339 -0.11320925992785871
0.08003201164770764 0.04604453381880581 -0.10844675471431178
0.08096911295031378 0.06100547164836823 -0.10368424950076485
0.08190621425291993 0.07596640947793065 -0.09892174428721792
0.08284331555552607 0.09092734730749308 -0.09415923907367098
0.08378041685813221 0.1058882851370555 -0.08939673386012405
0.08471751816073837 0.12084922296661792 -0.08463422864657712
0.08565461946334452 0.13581016079618033 -0.07987172343303019
0.08659172076595066 0.15077109862574278 -0.07510921821948324
0.0875288220685568 0.1657320364553052 -0.07034671300593631
0.0790949103451015 0.03108359598924339 -0.11320925992785871
0.07575669230963254 0.04634128856144594 -0.11135227494669576
0.0724184742741636 0.06159898113364849 -0.1094952899655328
0.06908025623869467 0.07685667370585103 -0.10763830498436985
0.06574203820322572 0.0921143662780536 -0.10578132000320689
0.06240382016775678 0.10737205885025615 -0.10392433502204393
0.059065602132287835 0.12262975142245867 -0.10206735004088098
0.05572738409681889 0.13788744399466127 -0.10021036505971802
0.05238916606134995 0.15314513656686382 -0.09835338007855506
0.04905094802588101 0.16840282913906635 -0.09649639509739211
0.0790949103451015 0.03108359598924339 -0.11320925992785871
0.07184312069349025 0.044984635566394725 -0.11445902831587955
0.06459133104187902 0.05888567514354606 -0.11570879670390037
0.05733954139026778 0.07278671472069739 -0.1169585650919212
0.05008775173865654 0.08668775429784874 -0.11820833347994203
0.0428359620870453 0.10058879387500008 -0.11945810186796285
0.03558417243543406 0.1144898334521514 -0.12070787025598367
0.028332382783822822 0.12839087302930274 -0.1219576386440045
0.021080593132211584 0.1422919126064541 -0.12320740703202533
0.013828803480600345 0.15619295218360546 -0.12445717542004615
0.0790949103451015 0.03108359598924339 -0.11320925992785871
0.06871539300921013 0.04212158923630611 -0.11743034988806669
0.058335875673318785 0.05315958248336883 -0.12165143984827466
0.047956358337427424 0.06419757573043154 -0.12587252980848262
0.03757684100153608 0.07523556897749427 -0.1300936197686906
0.027197323665644715 0.08627356222455698 -0.13431470972889858
0.01681780632975336 0.0973115554716197 -0.13853579968910654
0.006438288993862014 0.10834954871868241 -0.14275688964931452
-0.003941228342029333 0.11938754196574514 -0.14697797960952247
-0.014320745677920695 0.13042553521280786 -0.15119906956973045
0.0790949103451015 0.03108359598924339 -0.11320925992785871
0.06671244708307937 0.03806240506578623 -0.11994425086610619
0.05432998382105724 0.045041214142329075 -0.12667924180435364
0.04194752055903511 0.052020023218871926 -0.1334142327426011
0.029565057297012996 0.05899883229541476 -0.14014922368084856
0.017182594034990874 0.06597764137195761 -0.14688421461909604
0.004800130772968737 0.07295645044850047 -0.1536192055573435
-0.007582332489053385 0.07993525952504331 -0.160354196495591
-0.019964795751075494 0.08691406860158614 -0.16708918743383844
-0.032347259013097616 0.09389287767812898 -0.17382417837208589
0.0790949103451015 0.03108359598924339 -0.11320925992785871
0.06605133318510242 0.03324695864444289 -0.12172831107183472
0.05300775602510337 0.03541032129964239 -0.1302473622158107
0.039964178865104304 0.03757368395484188 -0.1387664133597867
0.02692060170510524 0.039737046610041384 -0.14728546450376273
0.013877024545106163 0.04190040926524088 -0.15580451564773873
0.0008334473851071211 0.04406377192044038 -0.16432356679171473
-0.012210129774891935 0.04622713457563987 -0.17284261793569072
-0.025253706934891006 0.04839049723083937 -0.18136166907966672
-0.038297284094890076 0.05055385988603887 -0.18988072022364275
0.0790949103451015 0.03108359598924339 -0.11320925992785871
0.0668036932643642 0.028197078311378444 -0.12258919989941529
0.05451247618362689 0.025310560633513498 -0.13196913987097186
0.04222125910288959 0.022424042955648555 -0.14134907984252842
0.02993004202215229 0.01953752527778361 -0.150729019814085
0.017638824941414985 0.016651007599918662 -0.16010895978564157
0.005347607860677693 0.01376448992205372 -0.16948889975719814
-0.006943609220059592 0.010877972244188776 -0.17886883972875472
-0.019234826300796905 0.007991454566323827 -0.18824877970031131
-0.03152604338153419 0.005104936888458883 -0.19762871967186788
0.0790949103451015 0.03108359598924339 -0.11320925992785871
0.0688879974322072 0.023459996957647205 -0.12243362668631305
0.0586810845193129 0.01583639792605102 -0.13165799344476736
0.048474171606418606 0.008212798894454837 -0.1408823602032217
0.03826725869352431 0.0005891998628586472 -0.15010672696167604
0.028060345780630012 -0.007034399168737539 -0.15933109372013038
0.01785343286773572 -0.014657998200333717 -0.1685554604785847
0.007646519954841426 -0.022281597231929903 -0.17777982723703903
-0.002560392958052861 -0.029905196263526095 -0.18700419399549334
-0.012767305870947175 -0.03752879529512228 -0.1962285607539477
0.0790949103451015 0.03108359598924339 -0.11320925992785871
0.07207837899073424 0.019549050851316474 -0.12127845020413475
0.06506184763636699 0.00801450571338956 -0.12934764048041078
0.058045316281999736 -0.003520039424537363 -0.13741683075668681
0.051028784927632485 -0.015054584562464269 -0.14548602103296285
0.04401225357326523 -0.02658912970039119 -0.15355521130923885
0.036995722218897985 -0.03812367483831812 -0.1616244015855149
0.029979190864530735 -0.04965821997624503 -0.16969359186179092
0.022962659510163484 -0.06119276511417193 -0.17776278213806695
0.015946128155796234 -0.07272731025209885 -0.185831972414343
0.0790949103451015 0.03108359598924339 -0.11320925992785871
0.07602911059420848 0.016888051687588564 -0.11924885174913434
0.07296331084331548 0.0026925073859337396 -0.12528844357040997
0.06989751109242247 -0.011503036915721094 -0.13132803539168558
0.06683171134152946 -0.02569858121737591 -0.1373676272129612
0.06376591159063646 -0.039894125519030765 -0.14340721903423684
0.060700111839743456 -0.05408966982068558 -0.14944681085551245
0.05763431208885045 -0.06828521412234041 -0.15548640267678807
0.05456851233795744 -0.08248075842399522 -0.1615259944980637
0.05150271258706444 -0.09667630272565005 -0.16756558631933932
0.0790949103451015 0.03108359598924339 -0.11320925992785871
0.08031206917147651 0.015765360015509645 -0.11656476980637594
0.08152922799785153 0.0004471240417758983 -0.11992027968489315
0.08274638682422655 -0.014871111931957833 -0.12327578956341036
0.08396354565060157 -0.030189347905691593 -0.12663129944192758
0.0851807044769766 -0.04550758387942534 -0.1299868093204448
0.08639786330335161 -0.06082581985315906 -0.133342319198962
0.08761502212972663 -0.07614405582689283 -0.1366978290774792
0.08883218095610165 -0.09146229180062658 -0.14005333895599642
0.09004933978247667 -0.10678052777436033 -0.14340884883451363
0.0790949103451015 0.03108359598924339 -0.11320925992785871
0.0844631297037417 0.016302636898105644 -0.11351706630217986
0.08983134906238191 0.0015216778069679008 -0.113824872676501
0.09519956842102213 -0.013259281284169842 -0.11413267905082214
0.10056778777966234 -0.028040240375307588 -0.11444048542514329
0.10593600713830256 -0.04282119946644533 -0.11474829179946443
0.11130422649694277 -0.05760215855758308 -0.11505609817378556
0.11667244585558298 -0.07238311764872082 -0.11536390454810672
0.1220406652142232 -0.08716407673985857 -0.11567171092242785
0.12740888457286342 -0.1019450358309963 -0.11597951729674899
0.0790949103451015 0.03108359598924339 -0.11320925992785871
0.08803246037199254 0.01844166004843749 -0.1104360072012181
0.09697001039888359 0.005799724107631589 -0.10766275447457747
0.10590756042577465 -0.0068422118331743055 -0.10488950174793685
0.1148451104526657 -0.01948414777398021 -0.10211624902129623
0.12378266047955676 -0.032126083714786105 -0.09934299629465561
0.1327202105064478 -0.044768019655592003 -0.09656974356801498
0.14165776053333884 -0.0574099555963979 -0.09379649084137437
0.1505953105602299 -0.07005189153720381 -0.09102323811473374
0.15953286058712096 -0.08269382747800971 -0.08824998538809312
0.0790949103451015 0.03108359598924339 -0.11320925992785871
0.09063326881445233 0.021950633117802827 -0.10765547306463759
0.10217162728380318 0.012817670246362267 -0.10210168620141645
0.11370998575315401 0.0036847073749217032 -0.09654789933819531
0.12524834422250486 -0.005448255496518857 -0.09099411247497417
0.1367867026918557 -0.014581218367959416 -0.08544032561175303
0.14832506116120653 -0.023714181239399983 -0.07988653874853191
0.15986341963055736 -0.03284714411084054 -0.07433275188531077
0.17140177809990823 -0.04198010698228111 -0.06877896502208963
0.18294013656925906 -0.051113069853721674 -0.0632251781588685
0.0790949103451015 0.03108359598924339 -0.11320925992785871
0.09198371708067958 0.02644930442680885 -0.10547677791056927
0.10487252381625767 0.021815012864374306 -0.09774429589327982
0.11776133055183576 0.017180721301939768 -0.09001181387599037
0.13065013728741387 0.012546429739505226 -0.08227933185870093
0.14353894402299194 0.007912138177070684 -0.07454684984141147
0.15642775075857002 0.0032778466146361446 -0.06681436782412203
0.16931655749414812 -0.0013564449477983975 -0.059081885806832574
0.18220536422972622 -0.00599073651023294 -0.05134940378954313
0.19509417096530432 -0.010625028072667481 -0.04361692177225369
0.0790949103451015 0.03108359598924339 -0.11320925992785871
0.0919374631466647 0.03145017313504723 -0.10413601716489493
0.10478001594822793 0.03181675028085106 -0.09506277440193113
0.11762256874979114 0.0321833274266549 -0.08598953163896733
0.13046512155135437 0.03254990457245874 -0.07691628887600353
0.14330767435291758 0.03291648171826257 -0.06784304611303973
0.1561502271544808 0.033283058864066406 -0.05876980335007596
0.168992779956044 0.03364963600987025 -0.04969656058711216
0.18183533275760724 0.03401621315567408 -0.040623317824148346
0.19467788555917045 0.034382790301477915 -0.03155007506118456
-0.0790949103451015 -0.03108359598924339 0.11320925992785871
-0.06625235754353827 -0.03071701884343955 0.12228250269082251
-0.05340980474197505 -0.03035044169763571 0.1313557454537863
-0.04056725194041183 -0.02998386455183187 0.1404289882167501
-0.027724699138848605 -0.02961728740602803 0.1495022309797139
-0.014882146337285386 -0.02925071026022419 0.1585754737426777
-0.0020395935357221742 -0.028884133114420348 0.16764871650564148
0.010802959265841038 -0.02851755596861651 0.1767219592686053
0.023645512067404277 -0.02815097882281267 0.1857952020315691
0.036488064868967475 -0.027784401677008828 0.19486844479453289
-0.0790949103451015 -0.03108359598924339 0.11320925992785871
-0.06769030134634102 -0.025755874456979494 0.1226400367972626
-0.056285692347580546 -0.020428152924715597 0.13207081366666645
-0.04488108334882007 -0.015100431392451704 0.14150159053607034
-0.0334764743500596 -0.009772709860187804 0.15093236740547422
-0.022071865351299125 -0.004444988327923906 0.16036314427487808
-0.010667256352538658 0.0008827332043399831 0.16979392114428196
0.0007373526462218156 0.006210454736603884 0.17922469801368585
0.01214196164498229 0.011538176268867783 0.1886554748830897
0.023546570643742763 0.016865897801131676 0.1980862517524936
-0.0790949103451015 -0.03108359598924339 0.11320925992785871
-0.07036411149490097 -0.021372071366657395 0.12197559989632237
-0.061633312644700455 -0.011660546744071403 0.130741939864786
-0.05290251379449994 -0.0019490221214854028 0.13950827983324965
-0.044171714944299424 0.0077625025011005865 0.1482746198017133
-0.03544091609409891 0.01747402712368658 0.15704095977017693
-0.0267101172438984 0.027185551746272584 0.16580729973864058
-0.01797931839369788 0.03689707636885858 0.1745736397071042
-0.009248519543497362 0.046608600991444565 0.18333997967556787
-0.0005177206932968431 0.056320125614030575 0.19210631964403152
-0.0790949103451015 -0.03108359598924339 0.11320925992785871
-0.07398403917118251 -0.018040662659023123 0.12036119403601947
-0.06887316799726353 -0.004997729328802855 0.12751312814418023
-0.06376229682334456 0.008045204001417412 0.13466506225234096
-0.058651425649425576 0.02108813733163768 0.1418169963605017
-0.05354055447550659 0.03413107066185797 0.14896893046866247
-0.04842968330158762 0.04717400399207822 0.15612086457682323
-0.043318812127668645 0.06021693732229849 0.16327279868498396
-0.03820794095374966 0.07325987065251875 0.1704247327931447
-0.033097069779830686 0.08630280398273904 0.17757666690130547
-0.0790949103451015 -0.03108359598924339 0.11320925992785871
-0.07815780904249534 -0.016122658159680968 0.11797176514140566
-0.07722070773988919 -0.0011617203301185447 0.12273427035495259
-0.07628360643728305 0.013799217499443874 0.12749677556849953
-0.0753465051346769 0.0287601553290063 0.13225928078204646
-0.07440940383207076 0.04372109315856873 0.1370217859955934
-0.0734723025294646 0.05868203098813114 0.14178429120914032
-0.07253520122685846 0.07364296881769355 0.14654679642268725
-0.07159809992425231 0.088603906647256 0.15130930163623418
-0.07066099862164617 0.10356484447681842 0.15607180684978111
-0.0790949103451015 -0.03108359598924339 0.11320925992785871
-0.08243312838057043 -0.015825903417040838 0.11506624490902168
-0.08577134641603937 -0.0005682108448382851 0.11692322989018464
-0.08910956445150832 0.014689481727364253 0.11878021487134759
-0.09244778248697726 0.02994717429956682 0.12063719985251055
-0.0957860005224462 0.045204866871769375 0.1224941848336735
-0.09912421855791514 0.0604625594439719 0.12435116981483646
-0.10246243659338408 0.07572025201617448 0.12620815479599942
-0.10580065462885303 0.09097794458837703 0.12806513977716238
-0.10913887266432197 0.10623563716057956 0.12992212475832532
-0.0790949103451015 -0.03108359598924339 0.11320925992785871
-0.08634669999671273 -0.017182556412092053 0.11195949153983789
-0.09359848964832396 -0.003281516834940715 0.11070972315181707
-0.1008502792999352 0.010619522742210615 0.10945995476379623
-0.10810206895154643 0.02452056231936196 0.10821018637577541
-0.11535385860315768 0.03842160189651331 0.10696041798775459
-0.12260564825476891 0.052322641473664624 0.10571064959973375
-0.12985743790638016 0.06622368105081597 0.10446088121171293
-0.1371092275579914 0.08012472062796731 0.10321111282369211
-0.14436101720960262 0.09402576020511867 0.10196134443567129
-0.0790949103451015 -0.03108359598924339 0.11320925992785871
-0.08947442768099284 -0.02004560274218067 0.10898816996765075
-0.09985394501688419 -0.009007609495117953 0.10476708000744278
-0.11023346235277555 0.002030383751944764 0.1005459900472348
-0.1206129796886669 0.013068376999007484 0.09632490008702684
-0.13099249702455826 0.024106370246070204 0.09210381012681886
-0.1413720143604496 0.03514436349313292 0.08788272016661089
-0.15175153169634095 0.046182356740195635 0.08366163020640292
-0.1621310490322323 0.05722034998725836 0.07944054024619496
-0.17251056636812367 0.06825834323432108 0.07521945028598698
-0.0790949103451015 -0.03108359598924339 0.11320925992785871
-0.09147737360712362 -0.024104786912700547 0.10647426898961125
-0.10385983686914574 -0.017125977836157703 0.09973927805136379
-0.11624230013116786 -0.010147168759614855 0.09300428711311633
-0.12862476339318998 -0.0031683596830720142 0.08626929617486886
-0.1410072266552121 0.0038104493934708297 0.0795343052366214
-0.15338968991723423 0.01078925847001368 0.07279931429837393
-0.16577215317925637 0.017768067546556524 0.06606432336012645
-0.17815461644127847 0.02474687662309936 0.05932933242187901
-0.19053707970330058 0.03172568569964221 0.05259434148363155
-0.0790949103451015 -0.03108359598924339 0.11320925992785871
-0.09213848750510055 -0.028920233334043893 0.10469020878388272
-0.1051820646650996 -0.026756870678844396 0.09617115763990672
-0.11822564182509868 -0.024593508023644895 0.08765210649593072
-0.13126921898509775 -0.022430145368445398 0.07913305535195471
-0.14431279614509682 -0.0202667827132459 0.0706140042079787
-0.15735637330509586 -0.018103420058046403 0.06209495306400272
-0.1703999504650949 -0.015940057402846906 0.0535759019200267
-0.18344352762509397 -0.013776694747647408 0.04505685077605071
-0.19648710478509304 -0.011613332092447911 0.0365377996320747
-0.0790949103451015 -0.03108359598924339 0.11320925992785871
-0.09138612742583879 -0.03397011366710834 0.10382931995630215
-0.10367734450657609 -0.03685663134497328 0.09444937998474558
-0.11596856158731339 -0.03974314902283822 0.085069440013189
-0.1282597786680507 -0.04262966670070317 0.07568950004163243
-0.140550995748788 -0.045516184378568116 0.06630956007007585
-0.1528422128295253 -0.04840270205643306 0.05692962009851929
-0.16513342991026256 -0.051289219734298 0.04754968012696272
-0.17742464699099988 -0.05417573741216295 0.03816974015540613
-0.18971586407173716 -0.057062255090027894 0.028789800183849572
-0.0790949103451015 -0.03108359598924339 0.11320925992785871
-0.08930182325799578 -0.03870719502083957 0.10398489316940439
-0.09950873617089008 -0.04633079405243576 0.09476052641095006
-0.10971564908378437 -0.053954393084031944 0.08553615965249572
-0.11992256199667867 -0.06157799211562813 0.0763117928940414
-0.13012947490957297 -0.06920159114722432 0.06708742613558706
-0.14033638782246727 -0.0768251901788205 0.057863059377132736
-0.15054330073536154 -0.08444878921041668 0.048638692618678404
-0.16075021364825584 -0.09207238824201287 0.03941432586022409
-0.17095712656115014 -0.09969598727360905 0.030189959101769727
-0.0790949103451015 -0.03108359598924339 0.11320925992785871
-0.08611144169946874 -0.04261814112717031 0.1051400696515827
-0.093127973053836 -0.05415268626509722 0.09707087937530666
-0.10014450440820324 -0.06568723140302414 0.08900168909903063
-0.1071610357625705 -0.07722177654095105 0.08093249882275459
-0.11417756711693774 -0.08875632167887797 0.07286330854647857
-0.121194098471305 -0.1002908668168049 0.06479411827020254
-0.12821062982567225 -0.11182541195473181 0.05672492799392652
-0.1352271611800395 -0.1233599570926587 0.04865573771765048
-0.14224369253440675 -0.13489450223058563 0.040586547441374445
-0.0790949103451015 -0.03108359598924339 0.11320925992785871
-0.08216071009599449 -0.04527914029089822 0.1071696681065831
-0.0852265098468875 -0.05947468459255304 0.10113007628530747
-0.0882923095977805 -0.07367022889420788 0.09509048446403186
-0.09135810934867351 -0.0878657731958627 0.08905089264275623
-0.09442390909956652 -0.10206131749751754 0.0830113008214806
-0.09748970885045952 -0.11625686179917236 0.07697170900020499
-0.10055550860135253 -0.1304524061008272 0.07093211717892936
-0.10362130835224553 -0.144647950402482 0.06489252535765373
-0.10668710810313854 -0.15884349470413683 0.058852933536378126
-0.0790949103451015 -0.03108359598924339 0.11320925992785871
-0.07787775151872646 -0.04640183196297713 0.1098537500493415
-0.07666059269235144 -0.06172006793671088 0.1064982401708243
-0.07544343386597642 -0.07703830391044461 0.10314273029230708
-0.0742262750396014 -0.09235653988417837 0.09978722041378986
-0.07300911621322638 -0.10767477585791212 0.09643171053527265
-0.07179195738685136 -0.12299301183164583 0.09307620065675544
-0.07057479856047634 -0.13831124780537962 0.08972069077823823
-0.06935763973410132 -0.15362948377911337 0.086365180899721
-0.0681404809077263 -0.16894771975284711 0.08300967102120381
-0.0790949103451015 -0.03108359598924339 0.11320925992785871
-0.07372669098646127 -0.045864555080381134 0.11290145355353758
-0.06835847162782106 -0.06064551417151888 0.11259364717921644
-0.06299025226918085 -0.07542647326265663 0.1122858408048953
-0.05762203291054063 -0.09020743235379437 0.11197803443057415
-0.05225381355190042 -0.1049883914449321 0.11167022805625301
-0.04688559419326021 -0.11976935053606985 0.11136242168193188
-0.041517374834619994 -0.1345503096272076 0.11105461530761072
-0.03614915547597978 -0.14933126871834534 0.11074680893328959
-0.030780936117339563 -0.1641122278094831 0.11043900255896845
-0.0790949103451015 -0.03108359598924339 0.11320925992785871
-0.07015736031821043 -0.04372553193004929 0.11598251265449934
-0.061219810291319385 -0.05636746787085519 0.11875576538113997
-0.05228226026442833 -0.06900940381166108 0.12152901810778059
-0.043344710237537276 -0.081651339752467 0.1243022708344212
-0.03440716021064622 -0.09429327569327288 0.12707552356106183
-0.025469610183755174 -0.10693521163407878 0.12984877628770244
-0.016532060156864127 -0.11957714757488468 0.13262202901434306
-0.007594510129973066 -0.1322190835156906 0.1353952817409837
0.0013430398969179814 -0.1448610194564965 0.1381685344676243
-0.0790949103451015 -0.03108359598924339 0.11320925992785871
-0.06755655187575065 -0.040216558860683954 0.11876304679107985
-0.056018193406399804 -0.049349521732124514 0.12431683365430099
-0.04447983493704896 -0.058482484603565074 0.12987062051752213
-0.03294147646769812 -0.06761544747500564 0.13542440738074327
-0.021403117998347272 -0.0767484103464462 0.1409781942439644
-0.009864759528996438 -0.08588137321788676 0.14653198110718552
0.0016735989403543967 -0.09501433608932731 0.15208576797040665
0.013211957409705245 -0.10414729896076788 0.1576395548336278
0.02475031587905608 -0.11328026183220845 0.16319334169684893
-0.0790949103451015 -0.03108359598924339 0.11320925992785871
-0.06620610360952339 -0.03571788755167793 0.12094174194514817
-0.053317296873945305 -0.04035217911411247 0.1286742239624376
-0.04042849013836722 -0.044986470676547013 0.13640670597972707
-0.027539683402789117 -0.049620762238981556 0.14413918799701653
-0.014650876667211023 -0.0542550538014161 0.15187167001430596
-0.0017620699316329496 -0.05888934536385063 0.1596041520315954
0.011126736803945152 -0.06352363692628518 0.16733663404888485
0.024015543539523253 -0.06815792848871972 0.1750691160661743
0.03690435027510134 -0.07279222005115427 0.18280159808346375
-0.0790949103451015 -0.03108359598924339 0.11320925992785871
-0.06625235754353827 -0.030717018843439553 0.12228250269082251
-0.05340980474197505 -0.03035044169763572 0.1313557454537863
-0.04056725194041183 -0.02998386455183188 0.1404289882167501
-0.027724699138848605 -0.029617287406028044 0.1495022309797139
-0.014882146337285386 -0.02925071026022421 0.1585754737426777
-0.0020395935357221742 -0.028884133114420372 0.16764871650564148
0.010802959265841038 -0.028517555968616534 0.1767219592686053
0.023645512067404277 -0.028150978822812697 0.1857952020315691
0.036488064868967475 -0.027784401677008862 0.19486844479453289
