# .PCD v0.7 - Point Cloud Data file format
VERSION 0.7
FIELDS x y z
SIZE 4 4 4
TYPE F F F
COUNT 1 1 1
WIDTH 700
HEIGHT 1
VIEWPOINT 0 0 0 1 0 0 0
POINTS 700
DATA ascii
0.02520329398339694 -0.04592148904833178 -0.10275607730919768
0.03527939593488699 -0.03164733833128163 -0.10515041990890131
0.04232684870268587 -0.015512899364918337 -0.10616302765180188
0.04601612122805249 0.0017273994168319152 -0.10574655212527406
0.046174707228032574 0.019267420804150316 -0.10392046726205896
0.04279519139752276 0.036287012891299514 -0.10077015876081298
0.036035596140695625 0.05199035846820237 -0.09644293154573796
0.026211992619009843 0.06564318654869797 -0.09114112195204317
0.013783721614988356 0.07660710606577091 -0.08511263670379167
-0.0006680847322519409 0.08436945632832418 -0.07863936107101155
-0.01646767601994318 0.08856727846531345 -0.0720239782277625
-0.03287628091945742 0.08900428697915735 -0.0655758161233249
-0.049126651302547925 0.08566004783744857 -0.05959638365108479
-0.06445893791109077 0.07869093394559859 -0.05436527242778227
-0.07815622006388315 0.06842281332357655 -0.05012708340025641
-0.08957802807089624 0.05533581187947177 -0.04707998957702552
-0.09819029088414992 0.04004186325565321 -0.045366469678662355
-0.10359030866633907 0.023256095491767558 -0.045066645991173784
-0.10552558258765724 0.005763392432413238 -0.04619453793695667
-0.10390562139044604 -0.011618306569097426 -0.048697406542188085
-0.09880617265982956 -0.028076252585824746 -0.052458220452626055
-0.09046568095082119 -0.04284089035371974 -0.05730112818966295
-0.07927413838594342 -0.05522184182047191 -0.06299968077002029
-0.06575484905702379 -0.06464018745593515 -0.06928742020852685
-0.05053995990747168 -0.07065553588593454 -0.07587033879735854
-0.03434090224378539 -0.0729866161034629 -0.08244062657969008
-0.01791512599835943 -0.07152442938835818 -0.08869106420117005
-0.0020306822124909044 -0.06633734596631488 -0.09432938814548049
0.012569690176684389 -0.05766790809311858 -0.09909195665153246
0.025203293983396925 -0.04592148904833179 -0.10275607730919767
0.03175712260361482 -0.04772979114156479 -0.08595603009201057
0.04183322455510487 -0.03345564042451464 -0.0883503726917142
0.04888067732290374 -0.017321201458151348 -0.08936298043461478
0.05256994984827036 -8.090267640109469e-05 -0.08894650490808695
0.05272853584825045 0.017459118710917307 -0.08712042004487186
0.049349020017740636 0.034478710798066504 -0.08397011154362588
0.0425894247609135 0.050182056374969364 -0.07964288432855085
0.03276582123922772 0.06383488445546495 -0.07434107473485607
0.020337550235206232 0.0747988039725379 -0.06831258948660456
0.005885743887965937 0.08256115423509117 -0.06183931385382444
-0.009913847399725301 0.08675897637208044 -0.0552239310105754
-0.026322452299239546 0.08719598488592434 -0.04877576890613779
-0.04257282268233004 0.08385174574421556 -0.042796336433897686
-0.05790510929087289 0.07688263185236557 -0.03756522521059516
-0.07160239144366526 0.06661451123034354 -0.0333270361830693
-0.08302419945067835 0.05352750978623876 -0.030279942359838413
-0.09163646226393204 0.0382335611624202 -0.028566422461475244
-0.0970364800461212 0.02144779339853455 -0.028266598773986674
-0.09897175396743936 0.003955090339180228 -0.029394490719769566
-0.09735179277022817 -0.013426608662330435 -0.03189735932500098
-0.09225234403961169 -0.029884554679057755 -0.03565817323543895
-0.0839118523306033 -0.04464919244695275 -0.040501080972475845
-0.07272030976572555 -0.05703014391370492 -0.04619963355283318
-0.05920102043680592 -0.06644848954916817 -0.052487372991339744
-0.043986131287253795 -0.07246383797916756 -0.05907029158017142
-0.027787073623567513 -0.07479491819669591 -0.06564057936250296
-0.011361297378141552 -0.0733327314815912 -0.07189101698398294
0.004523146407726973 -0.0681456480595479 -0.07752934092829337
0.019123518796902265 -0.05947621018635159 -0.08229190943434536
0.0317571226036148 -0.0477297911415648 -0.08595603009201057
0.038310951223832684 -0.0495380932347978 -0.06915598287482348
0.048387053175322735 -0.03526394251774765 -0.07155032547452711
0.05543450594312161 -0.019129503551384354 -0.07256293321742768
0.05912377846848823 -0.0018892047696341026 -0.07214645769089986
0.05928236446846832 0.0156508166176843 -0.07032037282768476
0.055902848637958504 0.032670408704833495 -0.06717006432643878
0.04914325338113137 0.048373754281736354 -0.06284283711136376
0.03931964985944559 0.06202658236223194 -0.05754102751766898
0.026891378855424104 0.07299050187930489 -0.05151254226941747
0.012439572508183807 0.08075285214185816 -0.04503926663663735
-0.0033600187795074306 0.08495067427884744 -0.038423883793388305
-0.019768623679021675 0.08538768279269134 -0.0319757216889507
-0.036018994062112175 0.08204344365098255 -0.025996289216710596
-0.051351280670655024 0.07507432975913257 -0.02076517799340807
-0.0650485628234474 0.06480620913711053 -0.01652698896588221
-0.07647037083046049 0.05171920769300575 -0.013479895142651327
-0.08508263364371417 0.03642525906918719 -0.011766375244288158
-0.09048265142590332 0.019639491305301543 -0.011466551556799588
-0.09241792534722149 0.00214678824594722 -0.01259444350258248
-0.09079796415001029 -0.015234910755563444 -0.015097312107813888
-0.08569851541939381 -0.031692856772290764 -0.018858126018251858
-0.07735802371038544 -0.04645749454018576 -0.023701033755288755
-0.06616648114550767 -0.05883844600693793 -0.029399586335646093
-0.05264719181658805 -0.06825679164240117 -0.03568732577415266
-0.03743230266703593 -0.07427214007240056 -0.042270244362984336
-0.02123324500334964 -0.07660322028992891 -0.048840532145315876
-0.004807468757923682 -0.0751410335748242 -0.05509096976679585
0.011076975027944844 -0.0699539501527809 -0.06072929371110629
0.025677347417120137 -0.0612845122795846 -0.06549186221715828
0.03831095122383267 -0.04953809323479781 -0.06915598287482348
0.04486477984405056 -0.05134639532803081 -0.05235593565763639
0.05494088179554061 -0.03707224461098066 -0.05475027825734002
0.061988334563339485 -0.020937805644617363 -0.0557628860002406
0.06567760708870611 -0.0036975068628671112 -0.05534641047371277
0.0658361930886862 0.013842514524451292 -0.053520325610497674
0.06245667725817638 0.030862106611600486 -0.050370017109251694
0.05569708200134924 0.046565452188503345 -0.04604278989417667
0.045873478479663464 0.06021828026899893 -0.040740980300481885
0.033445207475641975 0.07118219978607188 -0.034712495052230376
0.018993401128401678 0.07894455004862515 -0.028239219419450255
0.003193809840710442 0.08314237218561442 -0.021623836576201212
-0.013214795058803804 0.08357938069945832 -0.015175674471763607
-0.029465165441894304 0.08023514155774954 -0.009196241999523501
-0.04479745205043715 0.07326602766589956 -0.003965130776220975
-0.05849473420322952 0.06299790704387752 0.0002730582513048848
-0.06991654221024261 0.049910905599772744 0.0033201520745357684
-0.0785288050234963 0.03461695697595418 0.005033671972898937
-0.08392882280568545 0.017831189212068534 0.005333495660387507
-0.08586409672700361 0.0003384861527142114 0.0042056037146046155
-0.08424413552979242 -0.017043212848796452 0.0017027351093732072
-0.07914468679917594 -0.033501158865523774 -0.0020580788010647623
-0.07080419509016757 -0.04826579663341877 -0.00690098653810166
-0.05961265252528981 -0.06064674810017094 -0.012599539118459
-0.046093363196370175 -0.07006509373563419 -0.01888727855696556
-0.030878474046818056 -0.07608044216563357 -0.025470197145797242
-0.01467941638313177 -0.07841152238316193 -0.03204048492812878
0.0017463598622941912 -0.07694933566805721 -0.03829092254960876
0.017630803648162715 -0.07176225224601392 -0.043929246493919195
0.03223117603733801 -0.06309281437281761 -0.048691814999971175
0.044864779844050545 -0.05134639532803082 -0.05235593565763638
0.051418608464268434 -0.053154697421263816 -0.03555588844044929
0.061494710415758484 -0.03888054670421367 -0.03795023104015292
0.06854216318355737 -0.022746107737850373 -0.0389628387830535
0.07223143570892399 -0.00550580895610012 -0.03854636325652567
0.07239002170890407 0.012034212431218282 -0.036720278393310574
0.06901050587839426 0.029053804518367476 -0.033569969892064594
0.06225091062156712 0.044757150095270336 -0.02924274267698957
0.05242730709988134 0.058409978175765924 -0.02394093308329479
0.03999903609585985 0.06937389769283887 -0.017912447835043276
0.025547229748619553 0.07713624795539215 -0.011439172202263157
0.009747638460928316 0.08133407009238142 -0.004823789359014115
-0.006660966438585928 0.08177107860622532 0.0016243727454234923
-0.02291133682167643 0.07842683946451653 0.007603805217663598
-0.038243623430219274 0.07145772557266655 0.012834916440966125
-0.05194090558301165 0.06118960495064451 0.017073105468491983
-0.06336271359002474 0.048102603506539734 0.020120199291722866
-0.07197497640327842 0.032808654882721174 0.021833719190086035
-0.07737499418546757 0.016022887118835524 0.022133542877574606
-0.07931026810678574 -0.0014698159405187978 0.021005650931791714
-0.07769030690957454 -0.01885151494202946 0.018502782326560305
-0.07259085817895806 -0.03530946095875678 0.014741968416122337
-0.0642503664699497 -0.05007409872665178 0.00989906067908544
-0.05305882390507193 -0.06245505019340395 0.0042005080987281
-0.0395395345761523 -0.07187339582886719 -0.002087231339778463
-0.02432464542660018 -0.07788874425886658 -0.008670149928610142
-0.008125587762913895 -0.08021982447639493 -0.015240437710941685
0.008300188482512065 -0.07875763776129022 -0.02149087533242166
0.02418463226838059 -0.07357055433924692 -0.0271291992767321
0.03878500465755588 -0.06490111646605061 -0.031891767782784075
0.05141860846426842 -0.05315469742126383 -0.03555588844044928
0.05797243708448631 -0.05496299951449682 -0.01875584122326219
0.06804853903597635 -0.04068884879744667 -0.021150183822965817
0.07509599180377523 -0.024554409831083382 -0.022162791565866397
0.07878526432914185 -0.0073141110493331295 -0.02174631603933857
0.07894385032912193 0.010225910337985273 -0.019920231176123473
0.07556433449861212 0.027245502425134467 -0.016769922674877494
0.06880473924178498 0.04294884800203733 -0.012442695459802472
0.05898113572009921 0.05660167608253292 -0.0071408858661076895
0.046552864716077724 0.06756559559960586 -0.0011124006178561785
0.03210105836883743 0.07532794586215913 0.005360875014923941
0.01630146708114619 0.0795257679991484 0.011976257858172983
-0.00010713781836805456 0.0799627765129923 0.01842441996261059
-0.016357508201458554 0.07661853737128352 0.024403852434850697
-0.0316897948100014 0.06964942347943354 0.029634963658153223
-0.045387076962793774 0.05938130285741151 0.03387315268567908
-0.056808884969806864 0.04629430141330673 0.03692024650890997
-0.06542114778306056 0.031000352789488168 0.03863376640727313
-0.07082116556524971 0.014214585025602515 0.0389335900947617
-0.07275643948656788 -0.003278118033751807 0.037805698148978814
-0.07113647828935668 -0.02065981703526247 0.0353028295437474
-0.0660370295587402 -0.037117763051989786 0.03154201563330943
-0.05769653784973182 -0.05188240081988478 0.02669910789627254
-0.04650499528485406 -0.06426335228663696 0.021000555315915197
-0.032985705955934426 -0.0736816979221002 0.014712815877408634
-0.017770816806382306 -0.0796970463520996 0.008129897288576955
-0.001571759142696021 -0.08202812656962795 0.0015596095062454123
0.01485401710272994 -0.08056593985452323 -0.00469082811523456
0.030738460888598464 -0.07537885643247993 -0.010329152059545
0.04533883327777376 -0.06670941855928363 -0.01509172056559698
0.057972437084486295 -0.05496299951449683 -0.018755841223262185
0.06452626570470418 -0.05677130160772983 -0.0019557940060751003
0.07460236765619423 -0.04249715089067968 -0.004350136605778728
0.0816498204239931 -0.02636271192431639 -0.005362744348679308
0.08533909294935972 -0.009122413142566137 -0.00494626882215148
0.08549767894933981 0.008417608244752265 -0.003120183958936385
0.08211816311883 0.025437200331901458 3.0124542309594707e-05
0.07535856786200286 0.041140545908804324 0.004357351757384618
0.06553496434031708 0.05479337398929991 0.0096591613510794
0.05310669333629559 0.06575729350637285 0.01568764659933091
0.038654886989055295 0.07351964376892613 0.02216092223211103
0.022855295701364062 0.0777174659059154 0.028776305075360074
0.006446690801849816 0.0781544744197593 0.03522446717979768
-0.009803679581240685 0.07481023527805052 0.04120389965203779
-0.02513596618978353 0.06784112138620053 0.04643501087534031
-0.038833248342575906 0.0575730007641785 0.05067319990286617
-0.050255056349588996 0.04448599932007372 0.05372029372609705
-0.058867319162842685 0.02919205069625516 0.055433813624460225
-0.06426733694503184 0.012406282932369507 0.055733637311948796
-0.06620261086635 -0.0050864201269848145 0.0546057453661659
-0.0645826496691388 -0.02246811912849548 0.052102876760934495
-0.05948320093852233 -0.038926065145222795 0.048342062850496526
-0.05114270922951395 -0.05369070291311779 0.04349915511345963
-0.03995116666463619 -0.06607165437986996 0.03780060253310229
-0.026431877335716555 -0.07549000001533321 0.03151286309459572
-0.011216988186164437 -0.0815053484453326 0.024929944505764044
0.00498206947752185 -0.08383642866286095 0.018359656723432503
0.02140784572294781 -0.08237424194775624 0.012109219101952529
0.037292289508816336 -0.07718715852571294 0.00647089515764209
0.051892661897991625 -0.06851772065251663 0.00170832665159011
0.06452626570470417 -0.05677130160772984 -0.001955794006075097
0.07108009432492206 -0.05857960370096284 0.014844253211111998
0.0811561962764121 -0.04430545298391269 0.01244991061140837
0.08820364904421098 -0.028171014017549397 0.01143730286850779
0.0918929215695776 -0.010930715235799146 0.011853778395035618
0.09205150756955768 0.006609306151519256 0.013679863258250713
0.08867199173904787 0.023628898238668452 0.016830171759496693
0.08191239648222073 0.039332243815571315 0.021157398974571716
0.07208879296053496 0.0529850718960669 0.026459208568266498
0.05966052195651347 0.06394899141313984 0.03248769381651801
0.04520871560927317 0.07171134167569311 0.038960969449298125
0.029409124321581933 0.07590916381268238 0.04557635229254717
0.01300051942206769 0.07634617232652628 0.05202451439698478
-0.0032498509610228107 0.0730019331848175 0.05800394686922488
-0.018582137569565657 0.06603281929296752 0.06323505809252741
-0.03227941972235803 0.05576469867094549 0.06747324712005327
-0.04370122772937112 0.04267769722684071 0.07052034094328415
-0.05231349054262481 0.027383748603022152 0.07223386084164732
-0.057713508324813964 0.010597980839136498 0.07253368452913589
-0.059648782246132126 -0.006894722220217824 0.071405792583353
-0.05802882104892093 -0.024276421221728486 0.06890292397812159
-0.052929372318304455 -0.040734367238455804 0.06514211006768363
-0.044588880609296076 -0.0554990050063508 0.06029920233064672
-0.033397338044418315 -0.06787995647310298 0.05460064975028939
-0.019878048715498683 -0.07729830210856622 0.04831291031178282
-0.004663159565946562 -0.08331365053856561 0.041729991722951144
0.011535898097739724 -0.08564473075609397 0.0351597039406196
0.027961674343165682 -0.08418254404098925 0.028909266319139627
0.04384611812903421 -0.07899546061894595 0.023270942374829188
0.0584464905182095 -0.07032602274574964 0.018508373868777208
0.07108009432492204 -0.05857960370096285 0.014844253211112001
0.07763392294513992 -0.06038790579419585 0.03164430042829909
0.08771002489662998 -0.0461137550771457 0.029249957828595463
0.09475747766442885 -0.029979316110782406 0.028237350085694883
0.09844675018979547 -0.012739017329032156 0.02865382561222271
0.09860533618977556 0.0048010040582862476 0.030479910475437806
0.09522582035926574 0.021820596145435443 0.033630218976683786
0.08846622510243861 0.037523941722338305 0.03795744619175881
0.07864262158075283 0.051176769802833894 0.043259255785453594
0.06621435057673133 0.062140689319906836 0.049287741033705104
0.051762544229491045 0.06990303958246011 0.055761016666485225
0.035962952941799804 0.07410086171944938 0.06237639950973427
0.019554348042285563 0.07453787023329328 0.06882456161417187
0.003303977659195062 0.0711936310915845 0.07480399408641197
-0.012028308949347782 0.06422451719973452 0.0800351053097145
-0.025725591102140156 0.05395639657771248 0.08427329433724036
-0.03714739910915325 0.040869395133607704 0.08732038816047125
-0.045759661922406936 0.025575446509789143 0.08903390805883442
-0.05115967970459609 0.008789678745903489 0.08933373174632299
-0.05309495362591425 -0.008703024313450833 0.0882058398005401
-0.051474992428703056 -0.026084723314961495 0.08570297119530869
-0.04637554369808658 -0.042542669331688814 0.08194215728487071
-0.0380350519890782 -0.05730730709958381 0.07709924954783381
-0.02684350942420044 -0.06968825856633598 0.07140069696747647
-0.013324220095280809 -0.07910660420179923 0.06511295752896992
0.0018906690542713099 -0.08512195263179861 0.05853003894013824
0.018089726717957597 -0.08745303284932697 0.0519597511578067
0.03451550296338356 -0.08599084613422225 0.04570931353632672
0.05039994674925208 -0.08080376271217896 0.040070989592016285
0.06500031913842737 -0.07213432483898265 0.035308421085964305
0.0776339229451399 -0.06038790579419586 0.0316443004282991
0.08418775156535781 -0.062196207887428856 0.0484443476454862
0.09426385351684785 -0.04792205717037871 0.04605000504578257
0.10131130628464673 -0.03178761820401542 0.04503739730288199
0.10500057881001335 -0.014547319422265165 0.04545387282940982
0.10515916480999343 0.0029927019650532374 0.04727995769262491
0.10177964897948362 0.020012294052202433 0.05043026619387089
0.09502005372265648 0.035715639629105296 0.054757493408945916
0.0851964502009707 0.049368467709600884 0.0600593030026407
0.07276817919694922 0.06033238722667383 0.0660877882508922
0.05831637284970892 0.06809473748922709 0.07256106388367232
0.042516781562017686 0.07229255962621636 0.07917644672692137
0.02610817666250344 0.07272956814006026 0.08562460883135897
0.00985780627941294 0.06938532899835148 0.09160404130359909
-0.005474480329129906 0.062416215106501506 0.09683515252690161
-0.01917176248192228 0.05214809448447947 0.10107334155442747
-0.03059357048893537 0.039061093040374695 0.10412043537765836
-0.03920583330218906 0.023767144416556134 0.10583395527602152
-0.044605851084378215 0.006981376652670479 0.10613377896351009
-0.04654112500569638 -0.010511326406683843 0.1050058870177272
-0.04492116380848518 -0.027893025408194504 0.10250301841249579
-0.039821715077868705 -0.04435097142492182 0.09874220450205783
-0.03148122336886033 -0.05911560919281682 0.09389929676502093
-0.020289680803982562 -0.071496560659569 0.08820074418466359
-0.006770391475062932 -0.08091490629503224 0.08191300474615702
0.008444497674489187 -0.08693025472503163 0.07533008615732534
0.024643555338175475 -0.08926133494255999 0.0687597983749938
0.04106933158360143 -0.08779914822745527 0.06250936075351383
0.05695377536946996 -0.08261206480541197 0.05687103680920339
0.07155414775864526 -0.07394262693221566 0.05210846830315141
0.0841877515653578 -0.06219620788742887 0.048444347645486205
-0.029492228790980433 0.00813735941954854 -0.07560021247734194
-0.02341494848271628 0.002130820700895173 -0.07861753079199257
-0.01733766817445213 -0.0038757180177581944 -0.08163484910664322
-0.011260387866187977 -0.009882256736411561 -0.08465216742129385
-0.005183107557923826 -0.01588879545506493 -0.08766948573594449
0.0008941727503403317 -0.021895334173718303 -0.09068680405059512
0.006971453058604476 -0.027901872892371664 -0.09370412236524576
0.01304873336686863 -0.033908411611025036 -0.0967214406798964
0.019126013675132777 -0.0399149503296784 -0.09973875899454704
0.02520329398339694 -0.04592148904833178 -0.10275607730919768
-0.029492228790980433 0.00813735941954854 -0.07560021247734194
-0.021838588015398782 0.004639741035787805 -0.07896242925437406
-0.01418494723981713 0.0011421226520270708 -0.08232464603140618
-0.006531306464235486 -0.002355495731733659 -0.0856868628084383
0.0011223343113461717 -0.005853114115494398 -0.08904907958547044
0.008775975086927823 -0.009350732499255129 -0.09241129636250257
0.016429615862509458 -0.012848350883015858 -0.09577351313953468
0.024083256638091115 -0.016345969266776603 -0.09913572991656681
0.03173689741367278 -0.01984358765053734 -0.10249794669359895
0.03939053818925442 -0.02334120603429806 -0.10586016347063107
-0.029492228790980433 0.00813735941954854 -0.07560021247734194
-0.0210916182845883 0.007527682593701889 -0.07894297935879555
-0.012691007778196166 0.006918005767855237 -0.08228574624024916
-0.004290397271804034 0.006308328942008586 -0.08562851312170276
0.004110213234588099 0.0056986521161619345 -0.08897128000315638
0.012510823740980238 0.0050889752903152796 -0.09231404688460998
0.020911434247372362 0.004479298464468632 -0.09565681376606358
0.0293120447537645 0.00386962163862198 -0.0989995806475172
0.03771265526015663 0.0032599448127753287 -0.10234234752897081
0.04611326576654878 0.0026502679869286772 -0.10568511441042441
-0.029492228790980433 0.00813735941954854 -0.07560021247734194
-0.021254985051047722 0.010481692095807116 -0.07856128880323918
-0.013017741311115013 0.012826024772065693 -0.08152236512913642
-0.004780497571182306 0.01517035744832427 -0.08448344145503367
0.003456746168750404 0.017514690124582843 -0.08744451778093092
0.011693989908683115 0.01985902280084142 -0.09040559410682816
0.019931233648615817 0.0222033554771 -0.0933666704327254
0.028168477388548534 0.02454768815335858 -0.09632774675862264
0.03640572112848124 0.02689202082961715 -0.09928882308451989
0.04464296486841396 0.029236353505875737 -0.10224989941041714
-0.029492228790980433 0.00813735941954854 -0.07560021247734194
-0.022310984990734615 0.013181656776370301 -0.07785871968193869
-0.015129741190488799 0.01822595413319206 -0.08011722688653544
-0.007948497390242984 0.02327025149001382 -0.08237573409113219
-0.0007672535899971666 0.028314548846835583 -0.08463424129572894
0.0064139902102486514 0.03335884620365735 -0.0868927485003257
0.013595234010494462 0.0384031435604791 -0.08915125570492245
0.02077647781074028 0.043447440917300864 -0.0914097629095192
0.027957721610986096 0.04849173827412263 -0.09366827011411595
0.03513896541123192 0.0535360356309444 -0.09592677731871271
-0.029492228790980433 0.00813735941954854 -0.07560021247734194
-0.024145184124656577 0.015334993567983882 -0.07691140626067011
-0.018798139458332724 0.022532627716419226 -0.0782226000439983
-0.01345109479200887 0.02973026186485457 -0.07953379382732648
-0.008104050125685014 0.03692789601328991 -0.08084498761065465
-0.0027570054593611623 0.044125530161725254 -0.08215618139398283
0.00259003920696269 0.0513231643101606 -0.08346737517731101
0.00793708387328655 0.05852079845859595 -0.08477856896063919
0.013284128539610402 0.06571843260703128 -0.08608976274396736
0.018631173205934253 0.07291606675546664 -0.08740095652729554
-0.029492228790980433 0.00813735941954854 -0.07560021247734194
-0.02655881851612121 0.016708355016813604 -0.07582200464771015
-0.023625408241261987 0.02527935061407867 -0.07604379681807835
-0.02069199796640277 0.03385034621134373 -0.07626558898844654
-0.017758587691543544 0.0424213418086088 -0.07648738115881476
-0.014825177416684323 0.05099233740587387 -0.07670917332918295
-0.011891767141825106 0.05956333300313892 -0.07693096549955115
-0.00895835686696588 0.06813432860040398 -0.07715275766991936
-0.006024946592106653 0.07670532419766907 -0.07737454984028756
-0.0030915363172474377 0.08527631979493412 -0.07759634201065577
-0.029492228790980433 0.00813735941954854 -0.07560021247734194
-0.029290333427416985 0.017152916099980254 -0.07470856841163066
-0.02908843806385354 0.026168472780411966 -0.07381692434591938
-0.0288865427002901 0.035184029460843674 -0.07292528028020812
-0.02868464733672665 0.04419958614127539 -0.07203363621449684
-0.02848275197316321 0.053215142821707105 -0.07114199214878555
-0.02828085660959977 0.06223069950213881 -0.07025034808307429
-0.02807896124603632 0.07124625618257054 -0.06935870401736301
-0.02787706588247287 0.08026181286300225 -0.06846705995165174
-0.02767517051890943 0.08927736954343396 -0.06757541588594046
-0.029492228790980433 0.00813735941954854 -0.07560021247734194
-0.032043726834084206 0.016620501726046778 -0.07369175564535417
-0.03459522487718798 0.025103644032545017 -0.07178329881336641
-0.03714672292029176 0.03358678633904326 -0.06987484198137865
-0.03969822096339553 0.042069928645541495 -0.06796638514939089
-0.042249719006499306 0.05055307095203974 -0.06605792831740313
-0.04480121704960308 0.05903621325853798 -0.06414947148541537
-0.04735271509270686 0.06751935556503623 -0.062241014653427615
-0.04990421313581063 0.07600249787153446 -0.06033255782143985
-0.052455711178914406 0.0844856401780327 -0.058424100989452096
-0.029492228790980433 0.00813735941954854 -0.07560021247734194
-0.034520625837209835 0.015168807253689078 -0.07288175378958242
-0.039549022883439235 0.022200255087829614 -0.07016329510182291
-0.044577419929668634 0.029231702921970148 -0.06744483641406339
-0.04960581697589804 0.03626315075611069 -0.06472637772630388
-0.054634214022127446 0.04329459859025123 -0.062007919038544364
-0.05966261106835684 0.05032604642439176 -0.059289460350784855
-0.06469100811458625 0.05735749425853231 -0.05657100166302534
-0.06971940516081565 0.06438894209267285 -0.05385254297526582
-0.07474780220704505 0.07142038992681339 -0.05113408428750631
-0.029492228790980433 0.00813735941954854 -0.07560021247734194
-0.03645261999675728 0.012955146304347711 -0.07236633911386203
-0.04341301120253413 0.017772933189146883 -0.06913246575038214
-0.05037340240831099 0.022590720073946056 -0.06589859238690224
-0.05733379361408783 0.027408506958745225 -0.06266471902342233
-0.06429418481986468 0.0322262938435444 -0.05943084565994243
-0.07125457602564154 0.03704408072834357 -0.05619697229646253
-0.07821496723141838 0.041861867613142735 -0.05296309893298263
-0.08517535843719523 0.04667965449794191 -0.049729225569502725
-0.09213574964297208 0.05149744138274107 -0.04649535220602283
-0.029492228790980433 0.00813735941954854 -0.07560021247734194
-0.03763034776756146 0.010219403390372491 -0.07220136479579002
-0.045768466744142484 0.012301447361196444 -0.06880251711423811
-0.05390658572072351 0.014383491332020396 -0.06540366943268619
-0.06204470469730454 0.016465535302844347 -0.06200482175113428
-0.07018282367388556 0.018547579273668298 -0.058605974069582366
-0.07832094265046659 0.02062962324449225 -0.05520712638803046
-0.08645906162704763 0.022711667215316207 -0.05180827870647854
-0.09459718060362865 0.024793711186140155 -0.048409431024926626
-0.10273529958020969 0.026875755156964113 -0.04501058334337471
-0.029492228790980433 0.00813735941954854 -0.07560021247734194
-0.0379261840713265 0.007258038705917669 -0.07240470836256978
-0.04636013935167257 0.006378717992286797 -0.06920920424779763
-0.05479409463201863 0.005499397278655924 -0.06601370013302547
-0.0632280499123647 0.0046200765650250535 -0.06281819601825332
-0.07166200519271078 0.003740755851394181 -0.059622691903481156
-0.08009596047305684 0.0028614351377633084 -0.056427187788709005
-0.08852991575340291 0.001982114424132436 -0.053231683673936846
-0.09696387103374898 0.0011027937105015666 -0.050036179559164694
-0.10539782631409504 0.00022347299687068713 -0.046840675444392535
-0.029492228790980433 0.00813735941954854 -0.07560021247734194
-0.03730807045416625 0.004391962064851413 -0.0729543343835402
-0.04512391211735207 0.0006465647101542865 -0.07030845628973845
-0.052939753780537877 -0.003098832644542837 -0.06766257819593671
-0.0607555954437237 -0.006844229999239967 -0.06501670010213496
-0.06857143710690952 -0.010589627353937094 -0.062370822008333215
-0.07638727877009532 -0.014335024708634214 -0.059724943914531474
-0.08420312043328115 -0.018080422063331353 -0.05707906582072973
-0.09201896209646697 -0.021825819418028476 -0.05443318772692799
-0.09983480375965278 -0.025571216772725607 -0.05178730963312624
-0.029492228790980433 0.00813735941954854 -0.07560021247734194
-0.035842989117520985 0.001931757342994433 -0.0737906823510027
-0.04219374944406153 -0.004273844733559674 -0.07198115222466346
-0.04854450977060208 -0.010479446810113783 -0.07017162209832421
-0.05489527009714264 -0.01668504888666789 -0.06836209197198498
-0.061246030423683186 -0.022890650963222 -0.06655256184564573
-0.06759679075022373 -0.02909625303977611 -0.0647430317193065
-0.0739475510767643 -0.03530185511633022 -0.06293350159296725
-0.08029831140330485 -0.04150745719288432 -0.06112397146662801
-0.0866490717298454 -0.047713059269438425 -0.05931444134028877
-0.029492228790980433 0.00813735941954854 -0.07560021247734194
-0.03368970435729543 0.00014402589596939302 -0.07482312098540692
-0.037887179923610424 -0.007849307627609754 -0.0740460294934719
-0.04208465548992542 -0.015842641151188906 -0.07326893800153687
-0.04628213105624041 -0.02383597467476805 -0.07249184650960186
-0.05047960662255541 -0.0318293081983472 -0.07171475501766685
-0.0546770821888704 -0.03982264172192635 -0.07093766352573182
-0.0588745577551854 -0.04781597524550549 -0.0701605720337968
-0.0630720333215004 -0.05580930876908464 -0.06938348054186179
-0.0672695088878154 -0.06380264229266377 -0.06860638904992676
-0.029492228790980433 0.00813735941954854 -0.07560021247734194
-0.031081557988915598 -0.0007775038344270403 -0.07593976954077916
-0.03267088718685077 -0.00969236708840262 -0.07627932660421638
-0.03426021638478593 -0.0186072303423782 -0.0766188836676536
-0.0358495455827211 -0.027522093596353783 -0.07695844073109082
-0.037438874780656266 -0.03643695685032937 -0.07729799779452803
-0.03902820397859143 -0.04535182010430494 -0.07763755485796525
-0.040617533176526596 -0.05426668335828052 -0.07797711192140247
-0.04220686237446176 -0.0631815466122561 -0.07831666898483969
-0.04379619157239693 -0.07209640986623167 -0.0786562260482769
-0.029492228790980433 0.00813735941954854 -0.07560021247734194
-0.028301183140956077 -0.0007329698028993669 -0.07701962181955727
-0.027110137490931725 -0.009603299025347274 -0.0784390311617726
-0.02591909184090737 -0.018473628247795186 -0.07985844050398794
-0.024728046190883018 -0.02734395747024309 -0.08127784984620327
-0.023537000540858666 -0.03621428669269101 -0.08269725918841861
-0.02234595489083431 -0.04508461591513891 -0.08411666853063395
-0.021154909240809962 -0.053954945137586814 -0.08553607787284928
-0.019963863590785606 -0.06282527436003471 -0.0869554872150646
-0.018772817940761254 -0.07169560358248261 -0.08837489655727994
-0.029492228790980433 0.00813735941954854 -0.07560021247734194
-0.025649876570154117 0.0002728020372196863 -0.07794565907170116
-0.0218075243493278 -0.007591755345109167 -0.08029110566606038
-0.017965172128501492 -0.015456312727438014 -0.0826365522604196
-0.014122819907675171 -0.023320870109766877 -0.08498199885477882
-0.010280467686848855 -0.031185427492095727 -0.08732744544913805
-0.00643811546602255 -0.03904998487442457 -0.08967289204349727
-0.0025957632451962275 -0.04691454225675343 -0.09201833863785648
0.0012465889756300885 -0.05477909963908229 -0.09436378523221571
0.005088941196456398 -0.06264365702141113 -0.09670923182657493
-0.029492228790980433 0.00813735941954854 -0.07560021247734194
-0.02341494848271628 0.002130820700895171 -0.07861753079199257
-0.017337668174452134 -0.003875718017758198 -0.08163484910664322
-0.011260387866187981 -0.009882256736411564 -0.08465216742129385
-0.005183107557923833 -0.015888795455064938 -0.08766948573594448
0.0008941727503403247 -0.02189533417371831 -0.09068680405059512
0.006971453058604469 -0.02790187289237167 -0.09370412236524575
0.013048733366868624 -0.03390841161102505 -0.0967214406798964
0.019126013675132763 -0.039914950329678414 -0.09973875899454702
0.025203293983396925 -0.04592148904833179 -0.10275607730919767
0.029492228790980433 -0.00813735941954854 0.07560021247734194
0.035569509099244584 -0.014143898138201907 0.0725828941626913
0.04164678940750873 -0.020150436856855275 0.06956557584804067
0.047724069715772886 -0.02615697557550864 0.06654825753339003
0.053801350024037034 -0.03216351429416201 0.0635309392187394
0.059878630332301196 -0.03817005301281538 0.06051362090408875
0.06595591064056534 -0.04417659173146874 0.057496302589438116
0.0720331909488295 -0.05018313045012211 0.05447898427478748
0.07811047125709364 -0.05618966916877548 0.05146166596013684
0.08418775156535781 -0.062196207887428856 0.0484443476454862
0.029492228790980433 -0.00813735941954854 0.07560021247734194
0.03714586956656208 -0.011634977803309274 0.07223799570030981
0.04479951034214373 -0.015132596187070009 0.06887577892327769
0.052453151117725375 -0.01863021457083074 0.06551356214624557
0.06010679189330703 -0.02212783295459148 0.062151345369213434
0.06776043266888869 -0.025625451338352208 0.05878912859218131
0.07541407344447032 -0.029123069722112937 0.055426911815149194
0.08306771422005198 -0.03262068810587368 0.05206469503811706
0.09072135499563364 -0.03611830648963442 0.04870247826108493
0.09837499577121528 -0.03961592487339514 0.04534026148405281
0.029492228790980433 -0.00813735941954854 0.07560021247734194
0.03789283929737256 -0.008747036245395192 0.07225744559588833
0.046293449803764694 -0.009356713071241843 0.06891467871443473
0.054694060310156827 -0.009966389897088495 0.06557191183298111
0.06309467081654896 -0.010576066722935146 0.0622291449515275
0.0714952813229411 -0.011185743548781801 0.058886378070073894
0.07989589182933322 -0.011795420374628449 0.05554361118862029
0.08829650233572536 -0.0124050972004751 0.05220084430716668
0.09669711284211749 -0.013014774026321752 0.04885807742571307
0.10509772334850964 -0.013624450852168403 0.04551531054425946
0.029492228790980433 -0.00813735941954854 0.07560021247734194
0.03772947253091314 -0.005793026743289964 0.0726391361514447
0.04596671627084585 -0.003448694067031388 0.06967805982554745
0.054203960010778554 -0.0011043613907728096 0.0667169834996502
0.062441203750711265 0.0012399712854857649 0.06375590717375296
0.07067844749064398 0.0035843039617443426 0.06079483084785572
0.07891569123057668 0.005928636638002921 0.05783375452195848
0.0871529349705094 0.008272969314261502 0.05487267819606123
0.0953901787104421 0.01061730199052007 0.05191160187016399
0.10362742245037482 0.012961634666778658 0.048950525544266744
0.029492228790980433 -0.00813735941954854 0.07560021247734194
0.03667347259122625 -0.0030930620627267792 0.07334170527274518
0.043854716391472065 0.001951235294094982 0.07108319806814843
0.051035960191717876 0.006995532650916741 0.06882469086355168
0.058217203991963694 0.012039830007738504 0.06656618365895493
0.06539844779220952 0.017084127364560275 0.06430767645435818
0.07257969159245532 0.022128424721382024 0.06204916924976143
0.07976093539270114 0.027172722078203787 0.05979066204516467
0.08694217919294696 0.03221701943502555 0.05753215484056792
0.09412342299319278 0.03726131679184732 0.05527364763597117
0.029492228790980433 -0.00813735941954854 0.07560021247734194
0.03483927345730429 -0.0009397252711131975 0.07428901869401376
0.04018631812362814 0.006257908877322145 0.07297782491068558
0.045533362789951994 0.013455543025757492 0.0716666311273574
0.050880407456275846 0.020653177174192832 0.07035543734402923
0.0562274521225997 0.027850811322628177 0.06904424356070105
0.06157449678892355 0.035048445471063526 0.06773304977737286
0.06692154145524741 0.042246079619498875 0.06642185599404468
0.07226858612157126 0.0494437137679342 0.06511066221071651
0.07761563078789512 0.05664134791636955 0.06379946842738833
0.029492228790980433 -0.00813735941954854 0.07560021247734194
0.03242563906583965 0.0004336361777165251 0.07537842030697374
0.035359049340698875 0.00900463177498159 0.07515662813660554
0.03829245961555809 0.017575627372246654 0.07493483596623733
0.04122586989041732 0.026146622969511722 0.07471304379586913
0.04415928016527654 0.03471761856677679 0.07449125162550092
0.047092690440135754 0.043288614164041846 0.07426945945513272
0.050026100714994984 0.05185960976130691 0.07404766728476452
0.05295951098985421 0.06043060535857198 0.07382587511439631
0.05589292126471342 0.06900160095583703 0.0736040829440281
0.029492228790980433 -0.00813735941954854 0.07560021247734194
0.029694124154543877 0.0008781972608831735 0.07649185654305321
0.029896019518107324 0.009893753941314887 0.07738350060876449
0.030097914881670764 0.018909310621746597 0.07827514467447577
0.030299810245234215 0.027924867302178316 0.07916678874018704
0.030501705608797655 0.03694042398261003 0.08005843280589832
0.030703600972361095 0.04595598066304173 0.08095007687160959
0.030905496335924546 0.05497153734347345 0.08184172093732087
0.031107391699487997 0.06398709402390516 0.08273336500303215
0.03130928706305143 0.07300265070433687 0.08362500906874341
0.029492228790980433 -0.00813735941954854 0.07560021247734194
0.026940730747876656 0.00034578288694969895 0.0775086693093297
0.024389232704772883 0.008828925193447938 0.07941712614131746
0.021837734661669106 0.017312067499946182 0.08132558297330522
0.019286236618565333 0.025795209806444418 0.08323403980529298
0.01673473857546156 0.03427835211294266 0.08514249663728074
0.01418324053235778 0.0427614944194409 0.0870509534692685
0.011631742489254004 0.051244636725939145 0.08895941030125626
0.00908024444615023 0.059727779032437374 0.09086786713324402
0.006528746403046454 0.06821092133893561 0.09277632396523178
0.029492228790980433 -0.00813735941954854 0.07560021247734194
0.02446383174475103 -0.0011059115854080025 0.07831867116510145
0.019435434698521627 0.005925536248732535 0.08103712985286096
0.014407037652292226 0.012956984082873069 0.08375558854062048
0.009378640606062824 0.019988431917013612 0.08647404722838
0.004350243559833414 0.027019879751154156 0.08919250591613952
-0.0006781534863959779 0.03405132758529468 0.09191096460389903
-0.005706550532625384 0.04108277541943523 0.09462942329165853
-0.010734947578854783 0.04811422325357576 0.09734788197941806
-0.015763344625084188 0.05514567108771631 0.10006634066717757
0.029492228790980433 -0.00813735941954854 0.07560021247734194
0.022531837585203583 -0.0033195725347493687 0.07883408584082184
0.01557144637942673 0.001498214350049803 0.08206795920430174
0.008611055173649877 0.006316001234848975 0.08530183256778164
0.0016506639678730303 0.011133788119648146 0.08853570593126155
-0.00530972723790382 0.015951575004447317 0.09176957929474144
-0.012270118443680677 0.020769361889246492 0.09500345265822134
-0.019230509649457512 0.025587148774045658 0.09823732602170125
-0.02619090085523437 0.030404935658844834 0.10147119938518115
-0.03315129206101122 0.035222722543643996 0.10470507274866105
0.029492228790980433 -0.00813735941954854 0.07560021247734194
0.021354109814399405 -0.006055315448724588 0.07899906015889385
0.013215990837818376 -0.003973271477900636 0.08239790784044576
0.005077871861237352 -0.0018912275070766848 0.08579675552199768
-0.003060247115343679 0.00019081646374726808 0.08919560320354959
-0.011198366091924703 0.002272860434571219 0.09259445088510151
-0.019336485068505726 0.00435490440539517 0.09599329856665342
-0.027474604045086757 0.006436948376219128 0.09939214624820533
-0.03561272302166779 0.008518992347043076 0.10279099392975725
-0.04375084199824883 0.010601036317867034 0.10618984161130916
0.029492228790980433 -0.00813735941954854 0.07560021247734194
0.021058273510634364 -0.009016680133179411 0.0787957165921141
0.012624318230288293 -0.009896000846810284 0.08199122070688625
0.004190362949942227 -0.010775321560441156 0.0851867248216584
-0.004243592330403846 -0.011654642274072027 0.08838222893643057
-0.012677547610749912 -0.0125339629877029 0.09157773305120272
-0.021111502891095976 -0.013413283701333772 0.09477323716597487
-0.029545458171442048 -0.014292604414964645 0.09796874128074703
-0.037979413451788124 -0.015171925128595514 0.10116424539551919
-0.04641336873213418 -0.01605124584222639 0.10435974951029134
0.029492228790980433 -0.00813735941954854 0.07560021247734194
0.021676387127794614 -0.011882756774245667 0.07824609057114368
0.013860545464608796 -0.015628154128942792 0.08089196866494543
0.006044703801422984 -0.019373551483639916 0.08353784675874718
-0.0017711378617628387 -0.023118948838337046 0.08618372485254891
-0.009586979524948662 -0.026864346193034173 0.08882960294635066
-0.017402821188134462 -0.030609743547731293 0.0914754810401524
-0.02521866285132029 -0.03435514090242843 0.09412135913395414
-0.03303450451450611 -0.03810053825712555 0.09676723722775589
-0.040850346177691926 -0.041845935611822684 0.09941311532155764
0.029492228790980433 -0.00813735941954854 0.07560021247734194
0.02314146846443988 -0.014342961496102646 0.07740974260368118
0.01679070813789933 -0.020548563572656754 0.07921927273002041
0.010439947811358779 -0.026754165649210862 0.08102880285635966
0.004089187484818223 -0.03295976772576497 0.0828383329826989
-0.002261572841722325 -0.03916536980231908 0.08464786310903814
-0.008612333168262874 -0.045370971878873186 0.08645739323537738
-0.014963093494803436 -0.0515765739554273 0.08826692336171663
-0.021313853821343983 -0.057782176031981394 0.09007645348805586
-0.02766461414788453 -0.06398777810853551 0.09188598361439511
0.029492228790980433 -0.00813735941954854 0.07560021247734194
0.025294753224665435 -0.016130692943127686 0.07637730396927696
0.02109727765835044 -0.024124026466706833 0.07715439546121197
0.016899802092035447 -0.03211735999028598 0.077931486953147
0.012702326525720448 -0.04011069351386513 0.07870857844508201
0.00850485095940545 -0.04810402703744428 0.07948566993701703
0.00430737539309046 -0.05609736056102343 0.08026276142895206
0.0001098998267754627 -0.06409069408460256 0.08103985292088707
-0.004087575739539535 -0.07208402760818172 0.0818169444128221
-0.008285051305854529 -0.08007736113176087 0.08259403590475711
0.029492228790980433 -0.00813735941954854 0.07560021247734194
0.027902899593045264 -0.01705222267352412 0.07526065541390473
0.0263135703951101 -0.0259670859274997 0.07492109835046751
0.024724241197174934 -0.03488194918147528 0.07458154128703028
0.02313491199923977 -0.04379681243545086 0.07424198422359306
0.0215455828013046 -0.052711675689426446 0.07390242716015584
0.019956253603369438 -0.06162653894340202 0.07356287009671862
0.018366924405434266 -0.0705414021973776 0.0732233130332814
0.016777595207499104 -0.07945626545135319 0.07288375596984419
0.015188266009563934 -0.08837112870532876 0.07254419890640697
0.029492228790980433 -0.00813735941954854 0.07560021247734194
0.030683274441004785 -0.017007688641996446 0.07418080313512661
0.03187432009102914 -0.025878017864444353 0.07276139379291127
0.033065365741053496 -0.03474834708689226 0.07134198445069594
0.034256411391077844 -0.04361867630934017 0.0699225751084806
0.0354474570411022 -0.052489005531788084 0.06850316576626526
0.036638502691126555 -0.06135933475423599 0.06708375642404993
0.037829548341150904 -0.0702296639766839 0.0656643470818346
0.03902059399117526 -0.0790999931991318 0.06424493773961927
0.04021163964119961 -0.0879703224215797 0.06282552839740393
0.029492228790980433 -0.00813735941954854 0.07560021247734194
0.033334581011806745 -0.016001916801877392 0.07325476588298271
0.03717693323263306 -0.023866474184206246 0.0709093192886235
0.04101928545345937 -0.031731031566535096 0.06856387269426428
0.04486163767428569 -0.039595588948863954 0.06621842609990505
0.04870398989511201 -0.047460146331192804 0.06387297950554584
0.05254634211593831 -0.05532470371352165 0.061527532911186615
0.05638869433676463 -0.0631892610958505 0.05918208631682739
0.06023104655759095 -0.07105381847817938 0.05683663972246817
0.06407339877841726 -0.07891837586050822 0.05449119312810895
0.029492228790980433 -0.00813735941954854 0.07560021247734194
0.035569509099244584 -0.014143898138201908 0.0725828941626913
0.04164678940750873 -0.02015043685685528 0.06956557584804067
0.04772406971577288 -0.026156975575508643 0.06654825753339003
0.05380135002403703 -0.03216351429416202 0.0635309392187394
0.05987863033230119 -0.03817005301281539 0.06051362090408875
0.06595591064056533 -0.04417659173146875 0.05749630258943812
0.07203319094882948 -0.050183130450122126 0.054478984274787486
0.07811047125709362 -0.05618966916877549 0.05146166596013685
0.0841877515653578 -0.06219620788742887 0.048444347645486205
