# .PCD v0.7 - Point Cloud Data file format
VERSION 0.7
FIELDS x y z
SIZE 4 4 4
TYPE F F F
COUNT 1 1 1
WIDTH 700
HEIGHT 1
VIEWPOINT 0 0 0 1 0 0 0
POINTS 700
DATA ascii
0.11224457547925182 -0.052786605430200625 -0.049735160363253136
0.12051872788011615 -0.034408897269859705 -0.046369393273477326
0.12505199843942502 -0.014544467813157005 -0.044825358404119074
0.1256324164641935 0.005877844296239672 -0.04517525310959806
0.12223284225267175 0.025903114441864585 -0.04740271670236612
0.11501223611663511 0.044594983248197585 -0.05140359546047342
0.10430822557387734 0.06107943970437459 -0.0569908127398482
0.09062131826072455 0.07458568894766214 -0.0639031164702529
0.07459149875123487 0.0844821937745621 -0.07181729501172761
0.05696830358980724 0.09030620461854368 -0.08036329017165064
0.038575773795415456 0.09178539720546545 -0.08914150071453543
0.020273923619416545 0.08885060613396742 -0.09774146727167697
0.002918527234994756 0.08163905897276684 -0.10576106496503966
-0.012678896312052004 0.07048795965206246 -0.11282530631962448
-0.025789028831954997 0.05591872118253372 -0.11860387526103142
-0.03579885509894935 0.03861258496247015 -0.12282657232797838
-0.042240326761913236 0.019378766687133047 -0.1252959488988056
-0.04481224776506801 -0.0008833816777764695 -0.1258965396695762
-0.043394357940791065 -0.021226424594475664 -0.1246002616833576
-0.03805295624139422 -0.040699143985847966 -0.12146772745807588
-0.029037800673799657 -0.058391017135526004 -0.1166454108125435
-0.016770429892722344 -0.07347479171813555 -0.11035879791348552
-0.0018244525216820913 -0.0852451671986051 -0.10290184379299351
0.015101274148712002 -0.09315177390130071 -0.09462322733793245
0.0332153219509464 -0.09682490768436647 -0.08591004745271963
0.05167069814210676 -0.09609281689450125 -0.07716972274478373
0.06960444984317182 -0.09098973328337864 -0.06881094108329462
0.08617801475653315 -0.08175427136898475 -0.061224549808624996
0.10061643140703651 -0.06881827108595787 -0.05476528014511004
0.1122445754792518 -0.052786605430200646 -0.04973516036325314
0.10324122524426374 -0.05220584598794599 -0.0307730448278665
0.11151537764512807 -0.03382813782760507 -0.02740727773809069
0.11604864820443696 -0.013963708370902368 -0.025863242868732438
0.11662906622920545 0.006458603738494309 -0.026213137574211422
0.11322949201768367 0.02648387388411922 -0.028440601166979485
0.10600888588164703 0.04517574269045222 -0.03244147992508679
0.09530487533888926 0.06166019914662923 -0.038028697204461566
0.08161796802573647 0.07516644838991679 -0.04494100093486626
0.0655881485162468 0.08506295321681676 -0.05285517947634097
0.04796495335481917 0.09088696406079833 -0.06140117463626401
0.029572423560427382 0.0923661566477201 -0.0701793851791488
0.011270573384428469 0.08943136557622207 -0.07877935173629035
-0.006084822999993319 0.08221981841502149 -0.08679894942965302
-0.02168224654704008 0.07106871909431711 -0.09386319078423784
-0.034792379066943074 0.05649948062478836 -0.09964175972564478
-0.04480220533393743 0.039193344404724786 -0.10386445679259174
-0.05124367699690131 0.019959526129387683 -0.10633383336341898
-0.053815598000056086 -0.00030262223552183213 -0.10693442413418956
-0.05239770817577914 -0.020645665152221028 -0.10563814614797096
-0.0470563064763823 -0.04011838454359333 -0.10250561192268924
-0.038041150908787735 -0.05781025769327137 -0.09768329527715686
-0.025773780127710418 -0.0728940322758809 -0.09139668237809888
-0.010827802756670167 -0.08466440775635045 -0.08393972825760687
0.006097923913723926 -0.09257101445904606 -0.07566111180254581
0.024211971715958323 -0.09624414824211182 -0.066947931917333
0.04266734790711868 -0.0955120574522466 -0.0582076072093971
0.06060109960818375 -0.090408973841124 -0.04984882554790799
0.07717466452154507 -0.0811735119267301 -0.04226243427323836
0.09161308117204844 -0.06823751164370322 -0.0358031646097234
0.10324122524426373 -0.05220584598794601 -0.030773044827866507
0.09423787500927568 -0.051625086545691354 -0.01181092929247987
0.10251202741014001 -0.03324737838535043 -0.00844516220270406
0.1070452979694489 -0.01338294892864773 -0.006901127333345807
0.10762571599421739 0.007039363180748946 -0.007251022038824791
0.10422614178269561 0.02706463332637386 -0.009478485631592854
0.09700553564665897 0.04575650213270686 -0.013479364389700153
0.0863015251039012 0.062240958588883864 -0.01906658166907493
0.0726146177907484 0.07574720783217143 -0.02597888539947963
0.05658479828125872 0.08564371265907139 -0.033893063940954336
0.0389616031198311 0.09146772350305296 -0.04243905910087738
0.020569073325439308 0.09294691608997474 -0.051217269643762164
0.0022672231494403968 0.0900121250184767 -0.059817236200903706
-0.015088173234981392 0.08280057785727613 -0.06783683389426638
-0.030685596782028153 0.07164947853657175 -0.07490107524885121
-0.043795729301931145 0.057080240067042994 -0.08067964419025814
-0.0538055555689255 0.03977410384697942 -0.0849023412572051
-0.060247027231889384 0.020540285571642322 -0.08737171782803234
-0.06281894823504415 0.00027813720673280516 -0.08797230859880292
-0.06140105841076721 -0.02006490570996639 -0.08667603061258432
-0.05605965671137037 -0.039537625101338694 -0.0835434963873026
-0.047044501143775806 -0.05722949825101673 -0.07872117974177022
-0.03477713036269849 -0.07231327283362626 -0.07243456684271224
-0.01983115299165824 -0.08408364831409582 -0.06497761272222025
-0.002905426321264146 -0.09199025501679142 -0.05669899626715918
0.015208621480970248 -0.09566338879985718 -0.047985816381946364
0.03366399767213061 -0.09493129800999196 -0.039245491674010466
0.05159774937319568 -0.08982821439886936 -0.030886710012521353
0.06817131428655701 -0.08059275248447546 -0.023300318737851725
0.08260973093706037 -0.06765675220144858 -0.01684104907433677
0.09423787500927566 -0.051625086545691375 -0.011810929292479877
0.0852345247742876 -0.05104432710343671 0.007151186242906763
0.09350867717515193 -0.03266661894309579 0.010516953332682573
0.09804194773446082 -0.012802189486393094 0.012060988202040825
0.09862236575922931 0.007620122623003584 0.01171109349656184
0.09522279154770753 0.027645392768628495 0.009483629903793778
0.08800218541167089 0.0463372615749615 0.0054827511456864795
0.07729817486891312 0.06282171803113851 -0.00010446613368829885
0.06361126755576033 0.07632796727442606 -0.007016769864092999
0.04758144804627065 0.08622447210132603 -0.014930948405567702
0.029958252884843026 0.0920484829453076 -0.023476943565490745
0.011565723090451235 0.09352767553222938 -0.03225515410837553
-0.0067361270855476755 0.09059288446073134 -0.040855120665517074
-0.024091523469969463 0.08338133729953076 -0.04887471835887976
-0.039688947017016224 0.07223023797882638 -0.055938959713464576
-0.052799079536919216 0.057660999509297636 -0.06171752865487151
-0.06280890580391357 0.040354863289234065 -0.06594022572181847
-0.06925037746687746 0.021121045013896958 -0.06840960229264571
-0.07182229847003223 0.0008588966489874424 -0.0690101930634163
-0.07040440864575528 -0.019484146267711753 -0.06771391507719769
-0.06506300694635844 -0.03895686565908405 -0.06458138085191598
-0.05604785137876388 -0.05664873880876209 -0.05975906420638359
-0.043780480597686564 -0.07173251339137163 -0.053472451307325614
-0.02883450322664631 -0.08350288887184118 -0.04601549718683361
-0.011908776556252219 -0.09140949557453679 -0.037736880731772546
0.0062052712459821765 -0.09508262935760255 -0.02902370084655973
0.024660647437142538 -0.09435053856773733 -0.02028337613862383
0.04259439913820761 -0.08924745495661472 -0.011924594477134723
0.05916796405156893 -0.08001199304222083 -0.004338203202465094
0.07360638070207229 -0.06707599275919394 0.0021210664610498615
0.08523452477428758 -0.05104432710343673 0.007151186242906756
0.07623117453929952 -0.050463567661182075 0.026113301778293407
0.08450532694016386 -0.032085859500841155 0.029479068868069218
0.08903859749947274 -0.012221430044138455 0.03102310373742747
0.08961901552424123 0.008200882065258222 0.030673209031948485
0.08621944131271946 0.028226152210883135 0.028445745439180423
0.07899883517668281 0.046918021017216135 0.024444866681073124
0.06829482463392504 0.06340247747339314 0.018857649401698345
0.05460791732077225 0.0769087267166807 0.011945345671293644
0.038578097811282575 0.08680523154358066 0.004031167129818942
0.02095490264985495 0.09262924238756223 -0.004514828030104103
0.0025623728554631585 0.09410843497448401 -0.01329303857298889
-0.015739477320535752 0.09117364390298598 -0.02189300513013043
-0.03309487370495754 0.0839620967417854 -0.02991260282349311
-0.0486922972520043 0.07281099742108102 -0.036976844178077936
-0.061802429771907294 0.05824175895155227 -0.042755413119484866
-0.07181225603890165 0.0409356227314887 -0.046978110186431825
-0.07825372770186553 0.021701804456151597 -0.04944748675725907
-0.0808256487050203 0.00143965609124208 -0.05004807752802965
-0.07940775888074336 -0.018903386825457114 -0.048751799541811046
-0.07406635718134652 -0.038376106216829416 -0.04561926531652933
-0.06505120161375195 -0.05606797936650745 -0.040796948670996945
-0.05278383083267464 -0.07115175394911699 -0.03451033577193897
-0.03783785346163439 -0.08292212942958654 -0.027053381651446964
-0.020912126791240295 -0.09082873613228215 -0.018774765196385903
-0.002798078989005901 -0.09450186991534791 -0.01006158531117309
0.01565729720215446 -0.09376977912548269 -0.0013212606032371882
0.03359104890321953 -0.08866669551436009 0.007037521058251921
0.050164613816580855 -0.07943123359996619 0.014623912332921549
0.06460303046708421 -0.06649523331693931 0.021083181996436506
0.0762311745392995 -0.050463567661182096 0.0261133017782934
0.06722782430431144 -0.04988280821892744 0.04507541731368005
0.07550197670517578 -0.03150510005858652 0.04844118440345586
0.08003524726448466 -0.01164067060188382 0.04998521927281411
0.08061566528925315 0.008781641507512858 0.049635324567335125
0.07721609107773138 0.02880691165313777 0.04740786097456706
0.06999548494169473 0.04749878045947077 0.043406982216459764
0.059291474398936964 0.06398323691564778 0.037819764937084985
0.04560456708578417 0.07748948615893533 0.030907461206680285
0.029574747576294497 0.0873859909858353 0.022993282665205582
0.01195155241486687 0.09321000182981687 0.01444728750528254
-0.006440977379524918 0.09468919441673865 0.005669076962397751
-0.02474282755552383 0.09175440334524061 -0.0029308895947437906
-0.04209822393994562 0.08454285618404003 -0.01095048728810647
-0.05769564748699238 0.07339175686333566 -0.018014728642691293
-0.07080578000689537 0.05882251839380691 -0.023793297584098226
-0.08081560627388973 0.04151638217374334 -0.028015994651045185
-0.08725707793685361 0.022282563898406233 -0.030485371221872427
-0.08982899894000838 0.0020204155334967175 -0.03108596199264301
-0.08841110911573144 -0.018322627383202478 -0.029789684006424406
-0.0830697074163346 -0.03779534677457478 -0.02665714978114269
-0.07405455184874003 -0.05548721992425282 -0.021834833135610306
-0.06178718106766272 -0.07057099450686236 -0.015548220236552326
-0.046841203696622466 -0.08234136998733191 -0.008091266116060323
-0.029915477026228373 -0.09024797669002751 0.00018735033900073935
-0.011801429223993978 -0.09392111047309327 0.008900530224213552
0.006653946967166383 -0.09318901968322806 0.017640854932149452
0.024587698668231454 -0.08808593607210545 0.02599963659363856
0.04116126358159278 -0.07885047415771156 0.033586027868308194
0.05559968023209614 -0.06591447387468467 0.04004529753182315
0.06722782430431143 -0.04988280821892746 0.04507541731368004
0.05822447406932337 -0.049302048776672804 0.06403753284906667
0.0664986264701877 -0.03092434061633188 0.06740329993884249
0.07103189702949658 -0.011059911159629182 0.06894733480820074
0.07161231505426507 0.009362400949767495 0.06859744010272176
0.0682127408427433 0.02938767109539241 0.06636997650995369
0.06099213470670666 0.04807953990172541 0.062369097751846396
0.05028812416394889 0.06456399635790241 0.05678188047247162
0.0366012168507961 0.07807024560118997 0.049869576742066914
0.020571397341306426 0.08796675042808993 0.041955398200592214
0.0029482021798788 0.0937907612720715 0.03340940304066917
-0.01544432761451299 0.09526995385899328 0.024631192497784383
-0.0337461777905119 0.09233516278749525 0.01603122594064284
-0.05110157417493369 0.08512361562629467 0.008011628247280161
-0.06669899772198046 0.07397251630559029 0.0009473868926953385
-0.07980913024188345 0.059403277836061544 -0.0048311820487115945
-0.0898189565088778 0.04209714161599797 -0.009053879115658553
-0.09626042817184169 0.022863323340660872 -0.011523255686485795
-0.09883234917499646 0.0026011749757513546 -0.01212384645725638
-0.09741445935071952 -0.01774186794094784 -0.010827568471037774
-0.09207305765132268 -0.037214587332320144 -0.007695034245756059
-0.08305790208372811 -0.05490646048199818 -0.002872717600223674
-0.0707905313026508 -0.06999023506460772 0.0034138952988343038
-0.05584455393161054 -0.08176061054507727 0.010870849419326308
-0.03891882726121645 -0.08966721724777288 0.01914946587438737
-0.02080477945898205 -0.09334035103083864 0.027862645759600183
-0.0023494032678216883 -0.09260826024097342 0.036602970467536085
0.015584348433243383 -0.08750517662985081 0.044961752129025194
0.032157913346604707 -0.07826971471545692 0.05254814340369482
0.04659632999710807 -0.06533371443243004 0.059007413067209774
0.05822447406932336 -0.049302048776672824 0.06403753284906667
0.049221123834335294 -0.04872128933441816 0.08299964838445331
0.05749527623519963 -0.030343581174077244 0.08636541547422913
0.06202854679450851 -0.010479151717374544 0.08790945034358738
0.06260896481927701 0.009943160392022133 0.0875595556381084
0.05920939060775523 0.029968430537647046 0.08533209204534033
0.051988784471718584 0.04866029934398005 0.08133121328723303
0.041284773928960815 0.06514475580015705 0.07574399600785825
0.027597866615808025 0.0786510050434446 0.06883169227745356
0.01156804710631835 0.08854750987034457 0.060917513735978854
-0.006055148055109275 0.09437152071432614 0.052371518576055806
-0.024447677849501064 0.09585071330124792 0.04359330803317102
-0.04274952802549998 0.09291592222974988 0.03499334147602948
-0.06010492440992177 0.0857043750685493 0.026973743782666797
-0.07570234795696852 0.07455327574784493 0.019909502428081975
-0.08881248047687151 0.05998403727831619 0.014130933486675044
-0.09882230674386587 0.042677901058252615 0.009908236419728085
-0.10526377840682975 0.023444082782915508 0.007438859848900843
-0.10783569940998453 0.003181934418005992 0.0068382690781302585
-0.10641780958570758 -0.017161108498693203 0.008134547064348864
-0.10107640788631074 -0.0366338278900655 0.01126708128963058
-0.09206125231871617 -0.05432570103974354 0.016089397935162963
-0.07979388153763886 -0.06940947562235308 0.02237601083422094
-0.06484790416659861 -0.08117985110282264 0.029832964954712944
-0.04792217749620452 -0.08908645780551824 0.038111581409774005
-0.029808129693970124 -0.092759591588584 0.04682476129498682
-0.011352753502809764 -0.09202750079871878 0.055565086002922724
0.006580998198255308 -0.08692441718759618 0.06392386766441183
0.023154563111616632 -0.07768895527320228 0.07151025893908146
0.03759297976211999 -0.0647529549901754 0.07796952860259641
0.04922112383433528 -0.04872128933441818 0.08299964838445331
0.04021777359934722 -0.048140529892163525 0.10196176391983995
0.04849192600021156 -0.029762821731822604 0.10532753100961577
0.05302519655952044 -0.009898392275119907 0.10687156587897402
0.05360561458428893 0.01052391983427677 0.10652167117349504
0.05020604037276716 0.030549189979901685 0.10429420758072697
0.04298543423673051 0.049241058786234686 0.10029332882261967
0.032281423693972744 0.06572551524241169 0.09470611154324489
0.018594516380819947 0.07923176448569924 0.0877938078128402
0.0025646968713302753 0.0891282693125992 0.0798796292713655
-0.01505849829009735 0.09495228015658078 0.07133363411144245
-0.03345102808448914 0.09643147274350256 0.06255542356855766
-0.05175287826048805 0.09349668167200452 0.053955457011416116
-0.06910827464490985 0.08628513451080394 0.04593585931805344
-0.0847056981919566 0.07513403519009956 0.038871617963468615
-0.09781583071185959 0.06056479672057082 0.033093049022061685
-0.10782565697885395 0.04325866050050725 0.028870351955114722
-0.11426712864181783 0.024024842225170148 0.02640097538428748
-0.1168390496449726 0.0037626938602606298 0.025800384613516896
-0.11542115982069566 -0.016580349056438563 0.0270966625997355
-0.11007975812129882 -0.036053068447810865 0.030229196825017218
-0.10106460255370425 -0.0537449415974889 0.035051513470549606
-0.08879723177262694 -0.06882871618009845 0.04133812636960758
-0.07385125440158669 -0.080599091660568 0.048795080490099584
-0.056925527731192596 -0.08850569836326361 0.057073696945160644
-0.0388114799289582 -0.09217883214632937 0.06578687683037346
-0.02035610373779784 -0.09144674135646415 0.07452720153830936
-0.002422352036732767 -0.08634365774534154 0.08288598319979847
0.014151212876628556 -0.07710819583094765 0.0904723744744681
0.028589629527131916 -0.06417219554792077 0.09693164413798305
0.04021777359934721 -0.048140529892163546 0.10196176391983995
0.031214423364359145 -0.04755977044990889 0.12092387945522659
0.03948857576522348 -0.02918206228956797 0.12428964654500241
0.04402184632453236 -0.009317632832865269 0.12583368141436066
0.044602264349300855 0.011104679276531408 0.12548378670888166
0.04120269013777908 0.03112994942215632 0.1232563231161136
0.033982084001742435 0.04982181822848932 0.11925544435800631
0.023278073458984666 0.06630627468466634 0.11366822707863153
0.009591166145831873 0.07981252392795389 0.10675592334822682
-0.0064386533636578 0.08970902875485386 0.09884174480675213
-0.024061848525085427 0.09553303959883543 0.09029574964682908
-0.042454378319477216 0.0970122321857572 0.0815175391039443
-0.06075622849547613 0.09407744111425917 0.07291757254680276
-0.07811162487989791 0.08686589395305859 0.06489797485344008
-0.09370904842694468 0.07571479463235421 0.057833733498855254
-0.10681918094684767 0.06114555616282546 0.05205516455744832
-0.11682900721384203 0.04383941994276189 0.04783246749050136
-0.12327047887680591 0.024605601667424783 0.045363090919674116
-0.12584239987996068 0.004343453302515267 0.04476250014890353
-0.12442451005568374 -0.015999589614183927 0.04605877813512214
-0.1190831083562869 -0.03547230900555623 0.049191312360403854
-0.11006795278869233 -0.05316418215523427 0.05401362900593624
-0.09780058200761502 -0.0682479567378438 0.060300241904994216
-0.08285460463657476 -0.08001833221831335 0.06775719602548622
-0.06592887796618067 -0.08792493892100896 0.07603581248054729
-0.047814830163946276 -0.09159807270407472 0.0847489923657601
-0.029359453972785915 -0.0908659819142095 0.093489317073696
-0.011425702271720843 -0.08576289830308689 0.1018480987351851
0.005147862641640481 -0.076527436388693 0.10943449000985474
0.019586279292143842 -0.06359143610566612 0.11589375967336969
0.03121442336435913 -0.04755977044990891 0.12092387945522659
0.040515076057446336 -0.002613417490145868 -0.08532951990923987
0.04848502043764694 -0.008188216150151953 -0.08137459107079689
0.05645496481784755 -0.013763014810158038 -0.07741966223235393
0.06442490919804816 -0.019337813470164122 -0.07346473339391095
0.07239485357824876 -0.02491261213017021 -0.06950980455546799
0.08036479795844938 -0.030487410790176292 -0.06555487571702502
0.08833474233864999 -0.036062209450182375 -0.06159994687858204
0.09630468671885059 -0.04163700811018846 -0.05764501804013908
0.1042746310990512 -0.04721180677019455 -0.05369008920169611
0.11224457547925182 -0.052786605430200625 -0.049735160363253136
0.040515076057446336 -0.002613417490145868 -0.08532951990923987
0.04972325242394026 -0.004998757217683281 -0.08088435421738772
0.05893142879043418 -0.007384096945220693 -0.07643918852553559
0.0681396051569281 -0.009769436672758102 -0.07199402283368345
0.07734778152342202 -0.012154776400295518 -0.06754885714183131
0.08655595788991594 -0.014540116127832927 -0.06310369144997917
0.09576413425640985 -0.016925455855370336 -0.058658525758127036
0.10497231062290378 -0.01931079558290776 -0.05421336006627489
0.11418048698939771 -0.021696135310445168 -0.04976819437442275
0.12338866335589162 -0.024081475037982573 -0.04532302868257061
0.040515076057446336 -0.002613417490145868 -0.08532951990923987
0.04996363562134624 -0.0015508097133765414 -0.08087582004054307
0.05941219518524613 -0.0004882019366072144 -0.07642212017184627
0.06886075474914603 0.0005744058401621169 -0.07196842030314947
0.07830931431304593 0.0016370136169314394 -0.06751472043445267
0.08775787387694582 0.0026996213937007622 -0.06306102056575588
0.09720643344084573 0.003762229170470102 -0.05860732069705908
0.10665499300474562 0.004824836947239428 -0.05415362082836228
0.11610355256864553 0.005887444724008747 -0.04969992095966548
0.1255521121325454 0.006950052500778084 -0.04524622109096869
0.040515076057446336 -0.002613417490145868 -0.08532951990923987
0.04918012078049632 0.0017819877502587608 -0.08134991335074544
0.05784516550354631 0.00617739299066339 -0.07737030679225101
0.0665102102265963 0.010572798231068017 -0.07339070023375657
0.07517525494964629 0.014968203471472648 -0.06941109367526214
0.08384029967269627 0.019363608711877277 -0.06543148711676772
0.09250534439574626 0.0237590139522819 -0.06145188055827329
0.10117038911879624 0.028154419192686533 -0.05747227399977886
0.10983543384184624 0.032549824433091165 -0.05349266744128443
0.11850047856489622 0.0369452296734958 -0.04951306088279
0.040515076057446336 -0.002613417490145868 -0.08532951990923987
0.047457613891881995 0.0046384748543568475 -0.08225525878151875
0.054400151726317646 0.011890367198859563 -0.07918099765379764
0.061342689560753304 0.01914225954336228 -0.07610673652607652
0.06828522739518895 0.026394151887864994 -0.0730324753983554
0.07522776522962461 0.033646044232367715 -0.0699582142706343
0.08217030306406027 0.04089793657687043 -0.06688395314291318
0.08911284089849592 0.048149828921373136 -0.06380969201519207
0.09605537873293159 0.05540172126587586 -0.06073543088747095
0.10299791656736725 0.06265361361037858 -0.05766116975974984
0.040515076057446336 -0.002613417490145868 -0.08532951990923987
0.04498277530433281 0.00670910689822452 -0.08349374810755696
0.04945047455121929 0.01603163128659491 -0.08165797630587406
0.053918173798105755 0.025354155674965292 -0.07982220450419115
0.05838587304499223 0.034676680063335685 -0.07798643270250824
0.06285357229187871 0.04399920445170607 -0.07615066090082534
0.06732127153876517 0.05332172884007645 -0.07431488909914244
0.07178897078565166 0.06264425322844684 -0.07247911729745952
0.07625667003253812 0.07196677761681723 -0.07064334549577662
0.0807243692794246 0.0812893020051876 -0.06880757369409372
0.040515076057446336 -0.002613417490145868 -0.08532951990923987
0.04202379217988702 0.007769498770742166 -0.08493117179324192
0.043532508302327695 0.0181524150316302 -0.08453282367724398
0.04504122442476838 0.028535331292518232 -0.08413447556124602
0.04654994054720906 0.03891824755340627 -0.08373612744524808
0.04805865666964974 0.049301163814294315 -0.08333777932925013
0.04956737279209042 0.05968408007518233 -0.08293943121325219
0.0510760889145311 0.07006699633607037 -0.08254108309725425
0.05258480503697178 0.0804499125969584 -0.0821427349812563
0.05409352115941247 0.09083282885784644 -0.08174438686525835
0.040515076057446336 -0.002613417490145868 -0.08532951990923987
0.03890131625343211 0.007704740558847324 -0.08641176267830313
0.03728755644941788 0.018022898607840517 -0.0874940054473664
0.03567379664540364 0.028341056656833702 -0.08857624821642965
0.03406003684138942 0.0386592147058269 -0.08965849098549292
0.03244627703737518 0.04897737275482009 -0.09074073375455617
0.030832517233360952 0.05929553080381327 -0.09182297652361943
0.02921875742934672 0.06961368885280646 -0.0929052192926827
0.027604997625332497 0.07993184690179966 -0.09398746206174595
0.025991237821318257 0.09025000495079284 -0.09506970483080922
0.040515076057446336 -0.002613417490145868 -0.08532951990923987
0.03595371624180546 0.00652184981962598 -0.08777507576660956
0.03139235642616458 0.015657117129397827 -0.09022063162397924
0.02683099661052371 0.024792384439169673 -0.09266618748134893
0.02226963679488283 0.03392765174894152 -0.09511174333871862
0.017708276979241953 0.04306291905871338 -0.09755729919608831
0.013146917163601085 0.052198186368485215 -0.10000285505345799
0.008585557347960196 0.06133345367825708 -0.1024484109108277
0.00402419753231932 0.07046872098802891 -0.10489396676819737
-0.0005371622833215412 0.07960398829780077 -0.10733952262556706
0.040515076057446336 -0.002613417490145868 -0.08532951990923987
0.033500410342993434 0.004349011119113715 -0.08887337493106107
0.026485744628540527 0.011311439728373299 -0.09241722995288226
0.019471078914087624 0.018273868337632882 -0.09596108497470346
0.012456413199634718 0.025236296946892466 -0.09950493999652466
0.0054417474851818 0.03219872555615205 -0.10304879501834585
-0.0015729182292710884 0.03916115416541163 -0.10659265004016705
-0.008587583943724011 0.04612358277467122 -0.11013650506198824
-0.0156022496581769 0.0530860113839308 -0.11368036008380944
-0.022616915372629817 0.06004843999319039 -0.11722421510563065
0.040515076057446336 -0.002613417490145868 -0.08532951990923987
0.031807252318095496 0.0014216852455772534 -0.08958764241532191
0.02309942857874465 0.005456787981300375 -0.09384576492140397
0.014391604839393807 0.009491890717023499 -0.098103887427486
0.005683781100042965 0.013526993452746619 -0.10236200993356805
-0.003024042639307876 0.017562096188469743 -0.1066201324396501
-0.011731866378658723 0.021597198924192866 -0.11087825494573214
-0.020439690118009564 0.025632301659915986 -0.1151363774518142
-0.029147513857360405 0.029667404395639106 -0.11939449995789624
-0.03785533759671125 0.03370250713136223 -0.12365262246397829
0.040515076057446336 -0.002613417490145868 -0.08532951990923987
0.031057722111163002 -0.0019429066204447968 -0.0898404762544705
0.021600368164879667 -0.0012723957507437252 -0.09435143259970113
0.012143014218596336 -0.0006018848810426526 -0.09886238894493177
0.002685660272312997 6.862598865841813e-05 -0.1033733452901624
-0.006771693673970348 0.0007391368583594958 -0.10788430163539303
-0.016229047620253664 0.001409647728060563 -0.11239525798062366
-0.02568640156653701 0.0020801585977616374 -0.1169062143258543
-0.03514375551282034 0.0027506694674627047 -0.12141717067108493
-0.04460110945910367 0.003421180337163786 -0.12592812701631556
0.040515076057446336 -0.002613417490145868 -0.08532951990923987
0.03133304295027654 -0.005380158743247061 -0.08960447797891384
0.022151009843106757 -0.008146899996348253 -0.09387943604858782
0.012968976735936968 -0.010913641249449445 -0.09815439411826181
0.0037869436287671773 -0.013680382502550638 -0.1024293521879358
-0.005395089478402616 -0.016447123755651834 -0.10670431025760976
-0.014577122585572401 -0.019213865008753023 -0.11097926832728375
-0.0237591556927422 -0.02198060626185422 -0.11525422639695773
-0.03294118879991198 -0.024747347514955408 -0.11952918446663172
-0.04212322190708177 -0.027514088768056603 -0.12380414253630569
0.040515076057446336 -0.002613417490145868 -0.08532951990923987
0.032603379550475195 -0.008517591520862 -0.08890522166369906
0.02469168304350405 -0.014421765551578133 -0.09248092341815825
0.016779986536532905 -0.020325939582294266 -0.09605662517261745
0.008868290029561764 -0.0262301136130104 -0.09963232692707664
0.0009565935225906146 -0.032134287643726535 -0.10320802868153583
-0.006955102984380527 -0.038038461674442664 -0.10678373043599504
-0.014866799491351668 -0.0439426357051588 -0.11035943219045423
-0.02277849599832281 -0.04984680973587493 -0.11393513394491342
-0.03069019250529395 -0.05575098376659106 -0.11751083569937262
0.040515076057446336 -0.002613417490145868 -0.08532951990923987
0.03473107122982414 -0.011015215429549578 -0.08781848258065932
0.028947066402201942 -0.01941701336895329 -0.09030744525207877
0.023163061574579747 -0.027818811308356995 -0.09279640792349822
0.01737905674695755 -0.03622060924776071 -0.09528537059491766
0.011595051919335353 -0.04462240718716442 -0.09777433326633712
0.005811047091713157 -0.05302420512656812 -0.10026329593775657
2.704226409096166e-05 -0.06142600306597184 -0.10275225860917603
-0.005756962563531234 -0.06982780100537556 -0.10524122128059547
-0.011540967391153428 -0.07822959894477925 -0.10773018395201492
0.040515076057446336 -0.002613417490145868 -0.08532951990923987
0.03748554958032792 -0.01260237416417552 -0.08646202577193625
0.0344560231032095 -0.02259133083820517 -0.08759453163463263
0.03142649662609108 -0.03258028751223482 -0.088727037497329
0.028396970148972665 -0.042569244186264475 -0.08985954336002538
0.025367443671854253 -0.05255820086029412 -0.09099204922272178
0.02233791719473583 -0.06254715753432379 -0.09212455508541816
0.01930839071761742 -0.07253611420835343 -0.09325706094811453
0.016278864240498996 -0.08252507088238309 -0.09438956681081091
0.013249337763380581 -0.09251402755641275 -0.09552207267350729
0.040515076057446336 -0.002613417490145868 -0.08532951990923987
0.04056832413257417 -0.013107074448537901 -0.08498284438035099
0.040621572207701996 -0.023600731406929934 -0.08463616885146212
0.04067482028282983 -0.03409438836532196 -0.08428949332257325
0.040728068357957656 -0.044588045323714 -0.08394281779368437
0.04078131643308549 -0.055081702282106036 -0.0835961422647955
0.04083456450821333 -0.06557535924049807 -0.08324946673590662
0.040887812583341156 -0.0760690161988901 -0.08290279120701775
0.04094106065846898 -0.08656267315728214 -0.08255611567812889
0.04099430873359682 -0.09705633011567417 -0.08220944014924
0.040515076057446336 -0.002613417490145868 -0.08532951990923987
0.0436453284296513 -0.012474624175594265 -0.08354123066154592
0.046775580801856266 -0.022335830861042662 -0.08175294141385198
0.04990583317406123 -0.03219703754649106 -0.07996465216615803
0.053036085546266196 -0.042058244231939455 -0.07817636291846408
0.05616633791847116 -0.051919450917387845 -0.07638807367077013
0.059296590290676125 -0.06178065760283624 -0.07459978442307619
0.06242684266288109 -0.07164186428828465 -0.07281149517538224
0.06555709503508605 -0.08150307097373305 -0.0710232059276883
0.06868734740729102 -0.09136427765918145 -0.06923491667999435
0.040515076057446336 -0.002613417490145868 -0.08532951990923987
0.046383121311330044 -0.010773559145895156 -0.08229340583089516
0.052251166565213746 -0.018933700801644443 -0.07925729175255045
0.058119211819097454 -0.02709384245739373 -0.07622117767420573
0.06398725707298115 -0.03525398411314302 -0.07318506359586102
0.06985530232686486 -0.04341412576889231 -0.07014894951751632
0.07572334758074857 -0.05157426742464159 -0.06711283543917161
0.08159139283463228 -0.05973440908039089 -0.0640767213608269
0.08745943808851597 -0.06789455073614017 -0.06104060728248219
0.09332748334239967 -0.07605469239188947 -0.05800449320413748
0.040515076057446336 -0.002613417490145868 -0.08532951990923987
0.04848502043764694 -0.008188216150151957 -0.08137459107079689
0.05645496481784755 -0.013763014810158044 -0.07741966223235393
0.06442490919804816 -0.01933781347016413 -0.07346473339391096
0.07239485357824876 -0.02491261213017022 -0.06950980455546799
0.08036479795844938 -0.030487410790176302 -0.06555487571702502
0.08833474233864998 -0.03606220945018239 -0.06159994687858205
0.09630468671885059 -0.04163700811018847 -0.057645018040139086
0.10427463109905119 -0.04721180677019457 -0.053690089201696115
0.1122445754792518 -0.052786605430200646 -0.04973516036325314
-0.040515076057446336 0.002613417490145868 0.08532951990923987
-0.03254513167724573 -0.002961381169860217 0.08928444874768283
-0.02457518729704512 -0.008536179829866302 0.0932393775861258
-0.01660524291684451 -0.014110978489872385 0.09719430642456878
-0.008635298536643903 -0.019685777149878472 0.10114923526301174
-0.0006653541564432882 -0.025260575809884556 0.10510416410145472
0.007304590223757319 -0.03083537446989064 0.10905909293989768
0.015274534603957925 -0.03641017312989672 0.11301402177834065
0.02324447898415853 -0.04198497178990281 0.11696895061678363
0.031214423364359145 -0.04755977044990889 0.12092387945522659
-0.040515076057446336 0.002613417490145868 0.08532951990923987
-0.03130689969095241 0.00022807776260845583 0.089774685601092
-0.022098723324458492 -0.0021572619649289568 0.09421985129294415
-0.012890546957964575 -0.004542601692466366 0.09866501698479628
-0.0036823705914706467 -0.006927941420003782 0.10311018267664843
0.00552580577502327 -0.00931328114754119 0.10755534836850056
0.014733982141517186 -0.0116986208750786 0.11200051406035269
0.02394215850801111 -0.014083960602616023 0.11644567975220484
0.03315033487450504 -0.01646930033015343 0.12089084544405698
0.042358511240998944 -0.018854640057690837 0.12533601113590911
-0.040515076057446336 0.002613417490145868 0.08532951990923987
-0.031066516493546435 0.003676025266915195 0.08978321977793667
-0.021617956929646538 0.004738633043684522 0.09423691964663346
-0.01216939736574664 0.005801240820453853 0.09869061951533026
-0.0027208378018467377 0.006863848597223176 0.10314431938402706
0.0067277217620531566 0.007926456373992499 0.10759801925272384
0.016176281325953057 0.008989064150761839 0.11205171912142065
0.02562484088985295 0.010051671927531165 0.11650541899011745
0.03507340045375286 0.011114279704300484 0.12095911885881425
0.04452196001765274 0.01217688748106982 0.12541281872751103
-0.040515076057446336 0.002613417490145868 0.08532951990923987
-0.031850031334396345 0.007008822730550497 0.0893091264677343
-0.02318498661134636 0.011404227970955126 0.09328873302622873
-0.014519941888296375 0.015799633211359753 0.09726833958472315
-0.005854897165246383 0.020195038451764385 0.10124794614321758
0.0028101475578036017 0.024590443692169013 0.10522755270171201
0.011475192280853586 0.028985848932573638 0.10920715926020644
0.020140237003903563 0.03338125417297827 0.11318676581870087
0.02880528172695357 0.0377766594133829 0.1171663723771953
0.03747032645000355 0.04217206465378753 0.12114597893568974
-0.040515076057446336 0.002613417490145868 0.08532951990923987
-0.03357253822301068 0.009865309834648584 0.08840378103696098
-0.026630000388575024 0.0171172021791513 0.0914780421646821
-0.01968746255413937 0.024369094523654017 0.0945523032924032
-0.012744924719703711 0.03162098686815673 0.09762656442012432
-0.005802386885268052 0.03887287921265945 0.10070082554784544
0.0011401509491675988 0.046124771557162166 0.10377508667556655
0.00808268878360325 0.05337666390166487 0.10684934780328766
0.015025226618038914 0.06062855624616759 0.10992360893100878
0.021967764452474572 0.06788044859067033 0.1129978700587299
-0.040515076057446336 0.002613417490145868 0.08532951990923987
-0.03604737681055986 0.011935941878516257 0.08716529171092277
-0.031579677563673386 0.021258466266886645 0.08900106351260567
-0.027111978316786915 0.030580990655257028 0.09083683531428859
-0.02264427906990044 0.03990351504362742 0.09267260711597149
-0.018176579823013964 0.049226039431997805 0.09450837891765439
-0.013708880576127493 0.05854856382036819 0.0963441507193373
-0.00924118132924101 0.06787108820873859 0.0981799225210202
-0.0047734820823545415 0.07719361259710898 0.1000156943227031
-0.0003057828354680666 0.08651613698547934 0.10185146612438602
-0.040515076057446336 0.002613417490145868 0.08532951990923987
-0.039006359935005654 0.012996333751033902 0.08572786802523781
-0.03749764381256498 0.023379250011921936 0.08612621614123576
-0.035988927690124295 0.03376216627280997 0.0865245642572337
-0.03448021156768361 0.044145082533698005 0.08692291237323164
-0.03297149544524293 0.05452799879458605 0.0873212604892296
-0.031462779322802246 0.06491091505547407 0.08771960860522754
-0.029954063200361567 0.07529383131636212 0.0881179567212255
-0.02844534707792089 0.08567674757725015 0.08851630483722343
-0.026936630955480205 0.09605966383813819 0.08891465295322139
-0.040515076057446336 0.002613417490145868 0.08532951990923987
-0.042128835861460566 0.01293157553913906 0.0842472771401766
-0.043742595665474795 0.023249733588132253 0.08316503437111335
-0.045356355469489025 0.03356789163712544 0.08208279160205008
-0.046970115273503255 0.04388604968611864 0.08100054883298682
-0.04858387507751749 0.05420420773511182 0.07991830606392356
-0.05019763488153172 0.06452236578410502 0.0788360632948603
-0.05181139468554595 0.07484052383309821 0.07775382052579703
-0.05342515448956017 0.08515868188209141 0.07667157775673378
-0.055038914293574416 0.09547683993108459 0.07558933498767051
-0.040515076057446336 0.002613417490145868 0.08532951990923987
-0.04507643587308721 0.011748684799917716 0.08288396405187018
-0.04963779568872809 0.020883952109689564 0.08043840819450049
-0.05419915550436896 0.03001921941946141 0.0779928523371308
-0.058760515320009844 0.03915448672923326 0.0755472964797611
-0.06332187513565071 0.048289754039005116 0.07310174062239141
-0.06788323495129159 0.05742502134877695 0.07065618476502174
-0.07244459476693248 0.06656028865854882 0.06821062890765205
-0.07700595458257335 0.07569555596832066 0.06576507305028235
-0.08156731439821421 0.08483082327809252 0.06331951719291266
-0.040515076057446336 0.002613417490145868 0.08532951990923987
-0.04752974177189924 0.009575846099405452 0.08178566488741867
-0.05454440748635214 0.016538274708665035 0.07824180986559748
-0.061559073200805045 0.02350070331792462 0.07469795484377627
-0.06857373891525795 0.030463131927184202 0.07115409982195507
-0.07558840462971086 0.03742556053644379 0.06761024480013388
-0.08260307034416375 0.04438798914570337 0.06406638977831268
-0.08961773605861668 0.051350417754962956 0.06052253475649148
-0.09663240177306957 0.058312846364222536 0.05697867973467029
-0.10364706748752249 0.06527527497348214 0.05343482471284908
-0.040515076057446336 0.002613417490145868 0.08532951990923987
-0.04922289979679718 0.00664852022586899 0.08107139740315782
-0.05793072353614802 0.010683622961592112 0.07681327489707578
-0.06663854727549887 0.014718725697315235 0.07255515239099372
-0.0753463710148497 0.018753828433038355 0.06829702988491168
-0.08405419475420055 0.02278893116876148 0.06403890737882963
-0.0927620184935514 0.026824033904484602 0.059780784872747586
-0.10146984223290223 0.030859136640207722 0.05552266236666554
-0.11017766597225308 0.03489423937593084 0.05126453986058349
-0.11888548971160393 0.03892934211165397 0.04700641735450144
-0.040515076057446336 0.002613417490145868 0.08532951990923987
-0.04997243000372967 0.0032839283598469398 0.08081856356400924
-0.059429783950013006 0.003954439229548011 0.0763076072187786
-0.06888713789629633 0.004624950099249084 0.07179665087354797
-0.07834449184257967 0.005295460968950155 0.06728569452831734
-0.08780184578886302 0.005965971838651232 0.0627747381830867
-0.09725919973514634 0.0066364827083522995 0.05826378183785607
-0.10671655368142968 0.007306993578053374 0.05375282549262543
-0.11617390762771301 0.007977504447754441 0.049241869147394805
-0.12563126157399634 0.008648015317455522 0.044730912802164166
-0.040515076057446336 0.002613417490145868 0.08532951990923987
-0.04969710916461612 -0.00015332376295532413 0.08105456183956589
-0.058879142271785916 -0.0029200650160565167 0.0767796037698919
-0.0680611753789557 -0.005686806269157709 0.07250464570021792
-0.0772432084861255 -0.008453547522258902 0.06822968763054395
-0.08642524159329529 -0.011220288775360097 0.06395472956086996
-0.09560727470046507 -0.013987030028461286 0.05967977149119598
-0.10478930780763487 -0.016753771281562482 0.055404813421522
-0.11397134091480465 -0.01952051253466367 0.05112985535184802
-0.12315337402197445 -0.022287253787764867 0.04685489728217405
-0.040515076057446336 0.002613417490145868 0.08532951990923987
-0.04842677256441748 -0.0032907565405702645 0.08175381815478067
-0.05633846907138862 -0.009194930571286397 0.07817811640032148
-0.06425016557835976 -0.01509910460200253 0.07460241464586229
-0.0721618620853309 -0.021003278632718662 0.07102671289140308
-0.08007355859230206 -0.0269074526634348 0.06745101113694389
-0.0879852550992732 -0.03281162669415093 0.0638753093824847
-0.09589695160624434 -0.038715800724867064 0.060299607628025505
-0.10380864811321548 -0.04461997475558319 0.05672390587356631
-0.11172034462018662 -0.05052414878629932 0.05314820411910711
-0.040515076057446336 0.002613417490145868 0.08532951990923987
-0.04629908088506853 -0.005788380449257842 0.08284055723782041
-0.05208308571269073 -0.014190178388661552 0.08035159456640097
-0.05786709054031292 -0.02259197632806526 0.07786263189498152
-0.06365109536793512 -0.030993774267468972 0.07537366922356206
-0.06943510019555732 -0.03939557220687268 0.07288470655214262
-0.07521910502317951 -0.047797370146276386 0.07039574388072316
-0.08100310985080171 -0.0561991680856801 0.06790678120930371
-0.0867871146784239 -0.0646009660250838 0.06541781853788425
-0.0925711195060461 -0.0730027639644875 0.06292885586646481
-0.040515076057446336 0.002613417490145868 0.08532951990923987
-0.043544602534564755 -0.007375539183883784 0.08419701404654349
-0.046574129011683174 -0.017364495857913435 0.0830645081838471
-0.049603655488801586 -0.027353452531943087 0.08193200232115072
-0.052633181965920005 -0.03734240920597274 0.08079949645845434
-0.05566270844303842 -0.047331365880002384 0.07966699059575796
-0.05869223492015684 -0.05732032255403204 0.07853448473306159
-0.061721761397275254 -0.06730927922806168 0.0774019788703652
-0.06475128787439367 -0.07729823590209134 0.07626947300766881
-0.06778081435151209 -0.087287192576121 0.07513696714497244
-0.040515076057446336 0.002613417490145868 0.08532951990923987
-0.0404618279823185 -0.007880239468246165 0.08567619543812874
-0.04040857990719068 -0.018373896426638198 0.0860228709670176
-0.040355331832062837 -0.028867553385030227 0.08636954649590649
-0.04030208375693501 -0.039361210343422263 0.08671622202479536
-0.04024883568180718 -0.0498548673018143 0.08706289755368424
-0.040195587606679344 -0.06034852426020632 0.0874095730825731
-0.04014233953155152 -0.07084218121859835 0.08775624861146197
-0.04008909145642369 -0.08133583817699039 0.08810292414035086
-0.04003584338129585 -0.09182949513538242 0.08844959966923972
-0.040515076057446336 0.002613417490145868 0.08532951990923987
-0.03738482368524137 -0.007247789195302529 0.08711780915693382
-0.03425457131303641 -0.017108995880750925 0.08890609840462776
-0.031124318940831442 -0.02697020256619932 0.09069438765232171
-0.027994066568626477 -0.03683140925164772 0.09248267690001565
-0.024863814196421516 -0.04669261593709611 0.09427096614770959
-0.021733561824216548 -0.056553822622544506 0.09605925539540354
-0.018603309452011586 -0.0664150293079929 0.09784754464309749
-0.015473057079806622 -0.0762762359934413 0.09963583389079143
-0.012342804707601653 -0.0861374426788897 0.10142412313848538
-0.040515076057446336 0.002613417490145868 0.08532951990923987
-0.03464703080356263 -0.005546724165603419 0.08836563398758458
-0.028778985549678924 -0.013706865821352707 0.09140174806592928
-0.02291094029579522 -0.021867007477101994 0.09443786214427399
-0.017042895041911515 -0.03002714913285128 0.0974739762226187
-0.01117484978802781 -0.03818729078860057 0.10051009030096342
-0.005306804534144101 -0.046347432444349856 0.10354620437930812
0.0005612407197396064 -0.054507574100099154 0.10658231845765283
0.006429285973623308 -0.06266771575584842 0.10961843253599754
0.012297331227507001 -0.07082785741159772 0.11265454661434225
-0.040515076057446336 0.002613417490145868 0.08532951990923987
-0.03254513167724573 -0.0029613811698602195 0.08928444874768283
-0.024575187297045123 -0.008536179829866307 0.0932393775861258
-0.016605242916844513 -0.014110978489872392 0.09719430642456878
-0.00863529853664391 -0.019685777149878483 0.10114923526301174
-0.0006653541564432951 -0.025260575809884566 0.1051041641014547
0.007304590223757312 -0.030835374469890653 0.10905909293989768
0.015274534603957918 -0.036410173129896736 0.11301402177834065
0.023244478984158518 -0.041984971789902834 0.11696895061678361
0.03121442336435913 -0.04755977044990891 0.12092387945522659
