# .PCD v0.7 - Point Cloud Data file format
VERSION 0.7
FIELDS x y z
SIZE 4 4 4
TYPE F F F
COUNT 1 1 1
WIDTH 700
HEIGHT 1
VIEWPOINT 0 0 0 1 0 0 0
POINTS 700
DATA ascii
0.1274811863974851 0.03173532333918157 -0.08949154328727882
0.12675963700053178 0.053827511773293917 -0.0793845914298295
0.12089016035390038 0.07558611603707778 -0.07028248817969743
0.11014720666213261 0.09599372797811034 -0.06261083776859759
0.09503310449992008 0.1140961103434605 -0.05672835804332604
0.07625457248624981 0.12904681585307748 -0.052910107217929776
0.05468967390724172 0.14014676613384727 -0.05133462245732336
0.031346759452786914 0.1468769398473497 -0.05207557167788722
0.007317317858989635 0.1489226415507923 -0.05509830891757367
-0.016275060892030273 0.1461882165061562 -0.06026149434258614
-0.03832722339092077 0.13880152338943347 -0.06732370314091946
-0.057808035028452054 0.12710795576104225 -0.07595471427824492
-0.07380659470382021 0.1116542918468192 -0.08575095126646107
-0.08557482754772697 0.09316312779587954 -0.09625435295173433
-0.09256246407184261 0.07249908988779251 -0.10697379194495382
-0.09444277015849974 0.05062840556871157 -0.11740803919259739
-0.09112782478489637 0.028573723729877258 -0.12706920089019808
-0.08277263111240499 0.0073662967820551034 -0.1355055318543861
-0.06976786871102056 -0.012002239561036796 -0.14232255862558443
-0.05272162581687652 -0.02862623406657753 -0.14720152460855293
-0.03243096580216478 -0.04172836722773087 -0.1499142947765092
-0.009844657377724397 -0.050695997859856394 -0.1503340230114271
0.013981188777396613 -0.05510980952140148 -0.14844108328753627
0.03793250257751086 -0.05476341728467165 -0.1443239873624745
0.060889347209298325 -0.049673018065669004 -0.13817524606587417
0.08177828613247687 -0.04007663327430177 -0.13028236770692922
0.09962257577938678 -0.026422979197798603 -0.12101441450539965
0.11358783699864201 -0.009350485525830307 -0.1108047456523989
0.12302106969690334 0.010342556912215898 -0.10013075391626126
0.1274811863974851 0.03173532333918155 -0.08949154328727883
0.12377796895386463 0.021359017136489616 -0.06707496697800316
0.12305641955691131 0.04345120557060196 -0.05696801512055384
0.1171869429102799 0.06520980983438582 -0.047865911870421766
0.10644398921851213 0.08561742177541838 -0.04019426145932194
0.0913298870562996 0.10371980414076853 -0.034311781734050376
0.07255135504262933 0.11867050965038553 -0.030493530908654115
0.05098645646362124 0.12977045993115532 -0.028918046148047702
0.02764354200916643 0.13650063364465775 -0.02965899536861156
0.003614100415369155 0.13854633534810035 -0.03268173260829801
-0.019978278335650752 0.13581191030346426 -0.03784491803331048
-0.04203044083454125 0.12842521718674152 -0.044907126831643794
-0.061511252472072536 0.11673164955835029 -0.05353813796896926
-0.0775098121474407 0.10127798564412724 -0.06333437495718541
-0.08927804499134745 0.08278682159318758 -0.07383777664245868
-0.0962656815154631 0.06212278368510055 -0.08455721563567817
-0.09814598760212022 0.04025209936601962 -0.09499146288332173
-0.09483104222851685 0.018197417527185306 -0.10465262458092242
-0.08647584855602547 -0.00301000942063685 -0.11308895554511045
-0.07347108615464104 -0.02237854576372875 -0.11990598231630879
-0.056424843260497 -0.039002540269269484 -0.12478494829927728
-0.03613418324578526 -0.052104673430422827 -0.12749771846723354
-0.013547874821344875 -0.06107230406254835 -0.12791744670215144
0.010277971333776134 -0.06548611572409344 -0.12602450697826062
0.034229285133890376 -0.0651397234873636 -0.12190741105319886
0.05718612976567784 -0.06004932426836096 -0.11575866975659853
0.07807506868885639 -0.050452939476993724 -0.10786579139765357
0.0959193583357663 -0.03679928540049056 -0.098597838196124
0.10988461955502153 -0.01972679172852226 -0.08838816934312324
0.11931785225328286 -3.3749290476056896e-05 -0.0777141776069856
0.12377796895386463 0.02135901713648959 -0.06707496697800318
0.12007475151024415 0.010982710933797669 -0.04465839066872752
0.11935320211329083 0.03307489936791002 -0.0345514388112782
0.11348372546665941 0.054833503631693876 -0.025449335561146126
0.10274077177489165 0.07524111557272643 -0.017777685150046296
0.08762666961267912 0.09334349793807659 -0.011895205424774735
0.06884813759900886 0.10829420344769358 -0.008076954599378475
0.04728323902000076 0.11939415372846336 -0.006501469838772062
0.023940324565545953 0.1261243274419658 -0.007242419059335919
-8.91170282513216e-05 0.1281700291454084 -0.010265156299022367
-0.02368149577927123 0.1254356041007723 -0.015428341724034837
-0.045733658278161726 0.11804891098404957 -0.022490550522368154
-0.06521446991569302 0.10635534335565834 -0.031121561659693618
-0.08121302959106118 0.09090167944143529 -0.040917798647909766
-0.09298126243496793 0.07241051539049563 -0.05142120033318303
-0.09996889895908358 0.051746477482408605 -0.06214063932640252
-0.1018492050457407 0.029875793163327672 -0.0725748865740461
-0.09853425967213733 0.00782111132449336 -0.08223604827164678
-0.09017906599964595 -0.013386315623328796 -0.09067237923583481
-0.07717430359826152 -0.032754851966420695 -0.09748940600703315
-0.06012806070411748 -0.049378846471961425 -0.10236837199000164
-0.039837400689405736 -0.06248097963311477 -0.10508114215795791
-0.017251092264965354 -0.0714486102652403 -0.10550087039287581
0.006574753890155656 -0.07586242192678538 -0.103607930668985
0.030526067690269897 -0.07551602969005555 -0.09949083474392321
0.05348291232205737 -0.07042563047105291 -0.09334209344732289
0.0743718512452359 -0.060829245679685666 -0.08544921508837793
0.09221614089214582 -0.0471755916031825 -0.07618126188684836
0.10618140211140105 -0.030103097931214205 -0.0659715930338476
0.11561463480966237 -0.010410055493168003 -0.05529760129770996
0.12007475151024415 0.010982710933797645 -0.04465839066872753
0.11637153406662368 0.0006064047311057212 -0.022241814359451873
0.11564998466967036 0.02269859316521807 -0.012134862502002552
0.10978050802303894 0.04445719742900193 -0.00303275925187048
0.09903755433127118 0.06486480937003448 0.004638891159229349
0.08392345216905865 0.08296719173538464 0.01052137088450091
0.06514492015538838 0.09791789724500163 0.014339621709897171
0.04358002157638028 0.10901784752577141 0.015915106470503586
0.020237107121925477 0.11574802123927386 0.015174157249939728
-0.0037923344718717995 0.11779372294271645 0.012151420010253279
-0.027384713222891707 0.11505929789808036 0.006988234585240808
-0.04943687572178221 0.10767260478135762 -7.397421309250772e-05
-0.06891768735931349 0.09597903715296639 -0.008704985350417973
-0.08491624703468165 0.08052537323874334 -0.018501222338634122
-0.0966844798785884 0.06203420918780369 -0.029004624023907383
-0.10367211640270405 0.04137017127971666 -0.03972406301712687
-0.10555242248936117 0.019499486960635724 -0.050158310264770446
-0.1022374771157578 -0.0025551948781985883 -0.05981947196237114
-0.09388228344326642 -0.023762621826020743 -0.06825580292655917
-0.08087752104188199 -0.04313115816911264 -0.0750728296977575
-0.06383127814773795 -0.059755152674653374 -0.079951795680726
-0.04354061813302622 -0.07285728583580672 -0.08266456584868226
-0.02095430970858583 -0.08182491646793225 -0.08308429408360016
0.0028715364465351782 -0.08623872812947733 -0.08119135435970934
0.026822850246649422 -0.0858923358927475 -0.07707425843464756
0.049779694878436885 -0.08080193667374486 -0.07092551713804723
0.07066863380161544 -0.07120555188237762 -0.06303263877910227
0.08851292344852535 -0.05755189780587445 -0.05376468557757271
0.10247818466778058 -0.040479404133906154 -0.04355501672457195
0.1119114173660419 -0.02078636169585995 -0.032881024988434315
0.11637153406662368 0.0006064047311056969 -0.022241814359451884
0.1126683166230032 -0.009769901471586231 0.00017476194982378343
0.11194676722604988 0.012322286962526118 0.010281713807273104
0.10607729057941846 0.03408089122630998 0.019383817057405175
0.0953343368876507 0.054488503167342536 0.027055467468505005
0.08022023472543817 0.07259088553269269 0.032937947193776566
0.0614417027117679 0.08754159104230969 0.03675619801917283
0.039876804132759805 0.09864154132307947 0.03833168277977924
0.016533889678304995 0.10537171503658191 0.037590733559215384
-0.007495551915492279 0.1074174167400245 0.034567996319528935
-0.03108793066651219 0.10468299169538842 0.029404810894516464
-0.053140093165402684 0.09729629857866567 0.022342602096183148
-0.07262090480293397 0.08560273095027444 0.013711590958857683
-0.08861946447830213 0.0701490670360514 0.003915353970641535
-0.10038769732220888 0.051657902985111734 -0.006588047714631728
-0.10737533384632453 0.0309938650770247 -0.01730748670785122
-0.10925563993298165 0.009123180757943772 -0.02774173395549479
-0.10594069455937828 -0.01293150108089054 -0.03740289565309548
-0.0975855008868869 -0.0341389280287127 -0.045839226617283506
-0.08458073848550247 -0.0535074643718046 -0.052656253388481844
-0.06753449559135843 -0.07013145887734533 -0.057535219371450334
-0.047243835576646694 -0.08323359203849867 -0.060247989539406605
-0.024657527152206312 -0.0922012226706242 -0.0606677177743245
-0.000831680997085301 -0.09661503433216928 -0.058774778050433685
0.02311963280302894 -0.09626864209543945 -0.054657682125371906
0.04607647743481641 -0.0911782428764368 -0.04850894082877158
0.06696541635799495 -0.08158185808506957 -0.040616062469826616
0.08480970600490487 -0.0679282040085664 -0.03134810926829705
0.0987749672241601 -0.05085571033659811 -0.021138440415296295
0.10820819992242142 -0.031162667898551905 -0.010464448679158658
0.1126683166230032 -0.009769901471586255 0.0001747619498237713
0.10896509917938271 -0.02014620767427818 0.022591338259099435
0.1082435497824294 0.0019459807598341664 0.032698290116548755
0.10237407313579798 0.023704585023618028 0.04180039336668083
0.09163111944403021 0.04411219696465059 0.04947204377778066
0.07651701728181769 0.06221457933000074 0.05535452350305222
0.05773848526814742 0.07716528483961774 0.05917277432844848
0.03617358668913932 0.08826523512038752 0.060748259089054894
0.012830672234684518 0.09499540883388996 0.06000730986849104
-0.011198769359112758 0.09704111053733255 0.05698457262880459
-0.03479114811013267 0.09430668549269647 0.05182138720379212
-0.056843310609023166 0.08691999237597373 0.0447591784054588
-0.07632412224655445 0.0752264247475825 0.03612816726813334
-0.09232268192192261 0.059772760833359445 0.026331930279917187
-0.10409091476582936 0.041281596782419785 0.015828528594643926
-0.11107855128994501 0.020617558874332753 0.0051090896014244335
-0.11295885737660213 -0.0012531254447481796 -0.005325157646219135
-0.10964391200299876 -0.02330780728358249 -0.014986319343819828
-0.10128871833050739 -0.044515234231404646 -0.02342265030800785
-0.08828395592912296 -0.06388377057449655 -0.03023967707920619
-0.07123771303497892 -0.08050776508003728 -0.03511864306217468
-0.050947053020267176 -0.09360989824119062 -0.03783141323013095
-0.028360744595826787 -0.10257752887331614 -0.03825114146504885
-0.00453489844070578 -0.10699134053486123 -0.03635820174115803
0.019416415359408464 -0.1066449482981314 -0.03224110581609625
0.04237325999119593 -0.10155454907912875 -0.026092364519495925
0.06326219891437447 -0.09195816428776152 -0.018199486160550962
0.08110648856128438 -0.07830451021125835 -0.0089315329590214
0.09507174978053962 -0.06123201653929006 0.0012781358939793566
0.10450498247880094 -0.04153897410124385 0.011952127630116997
0.10896509917938271 -0.020146207674278205 0.022591338259099425
0.10526188173576223 -0.03052251387697013 0.04500791456837508
0.10454033233880891 -0.00843032544285778 0.0551148664258244
0.0986708556921775 0.01332827882092608 0.06421696967595647
0.08792790200040973 0.03373589076195864 0.0718886200870563
0.0728137998381972 0.05183827312730879 0.07777109981232787
0.054035267824526945 0.06678897863692579 0.08158935063772413
0.03247036924551885 0.07788892891769557 0.08316483539833054
0.00912745479106404 0.08461910263119801 0.08242388617776668
-0.014901986802733235 0.0866648043346406 0.07940114893808023
-0.03849436555375314 0.08393037929000452 0.07423796351306776
-0.06054652805264364 0.07654368617328178 0.06717575471473444
-0.08002733969017493 0.06485011854489055 0.05854474357740898
-0.0960258993655431 0.0493964546306675 0.04874850658919283
-0.10779413220944985 0.030905290579727837 0.038245104903919566
-0.11478176873356549 0.010241252671640805 0.02752566591070008
-0.11666207482022262 -0.011629431647440127 0.01709141866305651
-0.11334712944661925 -0.03368411348627444 0.007430256965455815
-0.10499193577412787 -0.054891540434096595 -0.0010060739987322084
-0.09198717337274344 -0.07426007677718849 -0.007823100769930546
-0.0749409304785994 -0.09088407128272923 -0.012702066752899036
-0.05465027046388765 -0.10398620444388257 -0.015414836920855306
-0.032063962039447266 -0.11295383507600809 -0.015834565155773205
-0.008238115884326257 -0.11736764673755318 -0.013941625431882387
0.015713197915787985 -0.11702125450082335 -0.009824529506820608
0.03867004254757545 -0.1119308552818207 -0.0036757882102202823
0.059558981470753995 -0.10233447049045347 0.004217090148724681
0.0774032711176639 -0.0886808164139503 0.013485043350254244
0.09136853233691913 -0.071608322741982 0.023694712203255
0.10080176503518046 -0.0519152803039358 0.03436870393939264
0.10526188173576223 -0.030522513876970154 0.045007914568375065
0.10155866429214176 -0.04089882007966208 0.06742449087765073
0.10083711489518844 -0.018806631645549732 0.07753144273510006
0.09496763824855703 0.0029519726182341286 0.08663354598523212
0.08422468455678926 0.023359584559266688 0.09430519639633196
0.06911058239457674 0.041461966924616844 0.10018767612160352
0.05033205038090646 0.05641267243423384 0.10400592694699978
0.02876715180189837 0.06751262271500362 0.1055814117076062
0.005424237347443562 0.07424279642850606 0.10484046248704233
-0.018605204246353715 0.07628849813194866 0.10181772524735588
-0.042197582997373626 0.07355407308731257 0.09665453982234341
-0.06424974549626412 0.06616737997058983 0.0895923310240101
-0.0837305571337954 0.0544738123421986 0.08096131988668463
-0.09972911680916356 0.03902014842797555 0.07116508289846848
-0.11149734965307032 0.020528984377035885 0.06066168121319522
-0.11848498617718596 -0.00013505353105114625 0.04994224221997573
-0.12036529226384308 -0.022005737850132077 0.039507994972332164
-0.11705034689023971 -0.04406041968896639 0.029846833274731466
-0.10869515321774834 -0.06526784663678854 0.021410502310543443
-0.09569039081636391 -0.08463638297988045 0.014593475539345107
-0.07864414792221987 -0.10126037748542117 0.009714509556376616
-0.058353487907508134 -0.11436251064657452 0.007001739388420346
-0.03576717948306775 -0.12333014127870004 0.006582011153502447
-0.011941333327946736 -0.12774395294024513 0.008474950877393266
0.012009980472167506 -0.1273975607035153 0.012592046802455044
0.03496682510395497 -0.12230716148451265 0.01874078809905537
0.05585576402713351 -0.11271077669314541 0.026633666458000332
0.07370005367404343 -0.09905712261664225 0.0359016196595299
0.08766531489329867 -0.08198462894467395 0.04611128851253065
0.09709854759155999 -0.06229158650662775 0.056785280248668295
0.10155866429214176 -0.040898820079662106 0.06742449087765072
0.09785544684852128 -0.051275126282354026 0.08984106718692637
0.09713389745156796 -0.02918293784824168 0.0999480190443757
0.09126442080493655 -0.00742433358445782 0.10905012229450778
0.08052146711316878 0.012983278356574741 0.1167217727056076
0.06540736495095625 0.031085660721924892 0.12260425243087916
0.04662883293728599 0.04603636623154189 0.12642250325627544
0.02506393435827789 0.05713631651231167 0.12799798801688184
0.001721019903823084 0.06386649022581412 0.12725703879631797
-0.02230842168997419 0.06591219192925671 0.12423430155663154
-0.0459008004409941 0.06317776688462062 0.11907111613161907
-0.06795296293988459 0.05579107376789788 0.11200890733328575
-0.08743377457741588 0.04409750613950665 0.10337789619596029
-0.10343233425278404 0.028643842225283597 0.09358165920774413
-0.1152005670966908 0.010152678174343939 0.08307825752247087
-0.12218820362080644 -0.010511359733743094 0.07235881852925138
-0.12406850970746357 -0.03238204405282403 0.06192457128160781
-0.1207535643338602 -0.054436725891658336 0.05226340958400712
-0.11239837066136882 -0.07564415283948049 0.04382707861981909
-0.09939360825998439 -0.0950126891825724 0.03701005184862075
-0.08234736536584035 -0.11163668368811312 0.03213108586565226
-0.06205670535112861 -0.12473881684926647 0.02941831569769599
-0.039470396926688224 -0.133706447481392 0.028998587462778093
-0.015644550771567213 -0.13812025914293707 0.03089152718666891
0.008306763028547028 -0.13777386690620724 0.03500862311173069
0.031263607660334494 -0.1326834676872046 0.04115736440833102
0.05215254658351304 -0.12308708289583736 0.04905024276727598
0.06999683623042295 -0.1094334288193342 0.058318195968805546
0.08396209744967818 -0.0923609351473659 0.0685278648218063
0.0933953301479395 -0.0726678927093197 0.07920185655794394
0.09785544684852128 -0.051275126282354054 0.08984106718692637
0.0941522294049008 -0.06165143248504598 0.11225764349620204
0.09343068000794748 -0.03955924405093363 0.12236459535365136
0.08756120336131606 -0.017800639787149772 0.13146669860378343
0.0768182496695483 0.0026069721538827862 0.13913834901488326
0.06170414750733577 0.02070935451923294 0.14502082874015482
0.042925615493665505 0.03566006002884994 0.1488390795655511
0.02136071691465741 0.046760010309619716 0.1504145643261575
-0.001982197539797396 0.05349018402312216 0.14967361510559363
-0.026011639133594673 0.05553588572656475 0.1466508778659072
-0.04960401788461458 0.05280146068192867 0.1414876924408947
-0.07165618038350507 0.045414767565205925 0.1344254836425614
-0.09113699202103637 0.033721199936814696 0.12579447250523593
-0.10713555169640453 0.018267536022591645 0.1159982355170198
-0.11890378454031128 -0.00022362802834801623 0.10549483383174653
-0.1258914210644269 -0.020887665936435047 0.09477539483852704
-0.12777172715108404 -0.04275835025551598 0.08434114759088347
-0.12445678177748068 -0.0648130320943503 0.07467998589328277
-0.1161015881049893 -0.08602045904217245 0.06624365492909474
-0.10309682570360487 -0.10538899538526435 0.05942662815789641
-0.08605058280946083 -0.12201298989080508 0.05454766217492792
-0.06575992279474908 -0.1351151230519584 0.05183489200697165
-0.043173614370308706 -0.14408275368408394 0.051415163772053754
-0.019347768215187695 -0.14849656534562902 0.05330810349594457
0.004603545584926549 -0.1481501731088992 0.05742519942100635
0.027560390216714015 -0.14305977388989655 0.06357394071760668
0.048449329139892555 -0.1334633890985293 0.07146681907655164
0.06629361878680247 -0.11980973502202616 0.08073477227808121
0.0802588800060577 -0.10273724135005786 0.09094444113108197
0.08969211270431902 -0.08304419891201166 0.1016184328672196
0.0941522294049008 -0.06165143248504601 0.11225764349620203
0.016664478496292153 0.046693377912113775 -0.10087459339174043
0.02897744604086915 0.04503137184845464 -0.09960981004680025
0.04129041358544614 0.043369365784795506 -0.09834502670186007
0.05360338113002314 0.04170735972113637 -0.09708024335691989
0.06591634867460013 0.04004535365747724 -0.09581546001197971
0.07822931621917713 0.038383347593818104 -0.09455067666703953
0.09054228376375412 0.03672134153015897 -0.09328589332209936
0.1028552513083311 0.035059335466499836 -0.09202110997715918
0.11516821885290811 0.0333973294028407 -0.090756326632219
0.1274811863974851 0.03173532333918157 -0.08949154328727882
0.016664478496292153 0.046693377912113775 -0.10087459339174043
0.02862401067460702 0.04877038601113119 -0.09793746243593483
0.04058354285292189 0.0508473941101486 -0.09500033148012924
0.05254307503123675 0.05292440220916602 -0.09206320052432364
0.06450260720955163 0.05500141030818344 -0.08912606956851804
0.07646213938786649 0.05707841840720085 -0.08618893861271246
0.08842167156618135 0.059155426506218266 -0.08325180765690686
0.10038120374449624 0.061232434605235676 -0.08031467670110126
0.1123407359228111 0.0633094427042531 -0.07737754574529566
0.12430026810112597 0.0653864508032705 -0.07444041478949007
0.016664478496292153 0.046693377912113775 -0.10087459339174043
0.026974574425562663 0.05228432411817797 -0.09658339853841341
0.037284670354833176 0.05787527032424217 -0.0922922036850864
0.04759476628410368 0.06346621653030636 -0.08800100883175939
0.057904862213374195 0.06905716273637055 -0.08370981397843237
0.06821495814264471 0.07464810894243475 -0.07941861912510535
0.0785250540719152 0.08023905514849895 -0.07512742427177833
0.08883515000118572 0.08583000135456313 -0.07083622941845133
0.09914524593045623 0.09142094756062734 -0.06654503456512431
0.10945534185972675 0.09701189376669153 -0.0622538397117973
0.016664478496292153 0.046693377912113775 -0.10087459339174043
0.024207879304960437 0.05519239645132889 -0.09569435218799859
0.031751280113628724 0.063691414990544 -0.09051411098425675
0.03929468092229701 0.07219043352975912 -0.08533386978051491
0.04683808173096529 0.08068945206897422 -0.08015362857677308
0.05438148253963358 0.08918847060818935 -0.07497338737303123
0.06192488334830186 0.09768748914740447 -0.0697931461692894
0.06946828415697014 0.10618650768661958 -0.06461290496554756
0.07701168496563843 0.11468552622583468 -0.059432663761805726
0.08455508577430672 0.12318454476504981 -0.05425242255806388
0.016664478496292153 0.046693377912113775 -0.10087459339174043
0.020623739658815587 0.057179468249895574 -0.09536666535173328
0.024583000821339022 0.06766555858767737 -0.08985873731172614
0.028542261983862456 0.07815164892545917 -0.084350809271719
0.032501523146385894 0.08863773926324096 -0.07884288123171183
0.03646078430890933 0.09912382960102277 -0.07333495319170469
0.04042004547143276 0.10960991993880458 -0.06782702515169754
0.0443793066339562 0.12009601027658637 -0.0623190971116904
0.04833856779647963 0.13058210061436815 -0.05681116907168325
0.05229782895900307 0.14106819095214995 -0.051303241031676106
0.016664478496292153 0.046693377912113775 -0.10087459339174043
0.0166105526314446 0.05803020945190758 -0.09563584798291198
0.01655662676659704 0.06936704099170138 -0.09039710257408354
0.016502700901749483 0.08070387253149518 -0.08515835716525509
0.016448775036901928 0.09204070407128899 -0.07991961175642663
0.01639484917205437 0.10337753561108277 -0.07468086634759818
0.016340923307206816 0.11471436715087659 -0.06944212093876974
0.016286997442359258 0.12605119869067039 -0.06420337552994129
0.016233071577511703 0.1373880302304642 -0.058964630121112846
0.01617914571266415 0.14872486177025798 -0.0537258847122844
0.016664478496292153 0.046693377912113775 -0.10087459339174043
0.012603209308275846 0.05765242904751704 -0.0964727299666476
0.00854194012025954 0.0686114801829203 -0.09207086654155477
0.004480670932243233 0.07957053131832358 -0.08766900311646196
0.00041940174422692663 0.09052958245372683 -0.08326713969136912
-0.0036418674437893803 0.10148863358913011 -0.07886527626627629
-0.007703136631805687 0.11244768472453337 -0.07446341284118348
-0.011764405819821997 0.12340673585993664 -0.07006154941609065
-0.0158256750078383 0.13436578699533988 -0.06565968599099782
-0.01988694419585461 0.14532483813074318 -0.06125782256590499
0.016664478496292153 0.046693377912113775 -0.10087459339174043
0.00903596751871299 0.05608706540540663 -0.09778662215444046
0.0014074565411338268 0.06548075289869948 -0.0946986509171405
-0.006221054436445338 0.07487444039199233 -0.09161067967984055
-0.0138495654140245 0.08426812788528519 -0.08852270844254058
-0.021478076391603675 0.09366181537857804 -0.08543473720524061
-0.02910658736918283 0.10305550287187087 -0.08234676596794066
-0.036735098346761995 0.11244919036516374 -0.0792587947306407
-0.04436360932434115 0.1218428778584566 -0.07617082349334073
-0.051992120301920325 0.13123656535174943 -0.07308285225604078
0.016664478496292153 0.046693377912113775 -0.10087459339174043
0.006295393262114585 0.053503749965318495 -0.09943514394060536
-0.004073691972062983 0.060314122018523215 -0.0979956944894703
-0.01444277720624055 0.06712449407172794 -0.09655624503833524
-0.02481186244041812 0.07393486612493265 -0.09511679558720017
-0.03518094767459568 0.08074523817813738 -0.0936773461360651
-0.04555003290877325 0.08755561023134209 -0.09223789668493004
-0.055919118142950835 0.09436598228454682 -0.09079844723379497
-0.06628820337712839 0.10117635433775153 -0.0893589977826599
-0.07665728861130597 0.10798672639095626 -0.08791954833152484
0.016664478496292153 0.046693377912113775 -0.10087459339174043
0.004678470283574102 0.050182425039455275 -0.10123965241016027
-0.007307537929143949 0.053671472166796776 -0.10160471142858012
-0.019293546141861993 0.05716051929413828 -0.10196977044699995
-0.03127955435458005 0.060649566421479784 -0.10233482946541979
-0.0432655625672981 0.06413861354882129 -0.10269988848383964
-0.055251570780016135 0.06762766067616278 -0.10306494750225947
-0.06723757899273419 0.07111670780350429 -0.10343000652067932
-0.07922358720545225 0.07460575493084579 -0.10379506553909916
-0.09120959541817031 0.0780948020581873 -0.10416012455751901
0.016664478496292153 0.046693377912113775 -0.10087459339174043
0.00436041727696144 0.04648300771920038 -0.10300460107059509
-0.007943643942369273 0.046272637526286985 -0.10513460874944974
-0.020247705161699988 0.04606226733337359 -0.1072646164283044
-0.032551766381030696 0.045851897140460195 -0.10939462410715906
-0.044855827600361414 0.0456415269475468 -0.11152463178601371
-0.057159888819692126 0.045431156754633405 -0.11365463946486837
-0.06946395003902282 0.04522078656172 -0.11578464714372302
-0.08176801125835355 0.04501041636880661 -0.11791465482257768
-0.09407207247768426 0.04480004617589321 -0.12004466250143234
0.016664478496292153 0.046693377912113775 -0.10087459339174043
0.00537570022064396 0.042806387273577516 -0.10453873034855156
-0.0059130780550042325 0.03891939663504126 -0.10820286730536267
-0.017201856330652427 0.035032405996505 -0.1118670042621738
-0.028490634606300618 0.03114541535796874 -0.11553114121898493
-0.03977941288194881 0.027258424719432482 -0.11919527817579605
-0.051068191157597004 0.023371434080896224 -0.12285941513260717
-0.0623569694332452 0.019484443442359965 -0.1265235520894183
-0.07364574770889339 0.015597452803823708 -0.13018768904622943
-0.08493452598454158 0.01171046216528745 -0.13385182600304055
0.016664478496292153 0.046693377912113775 -0.10087459339174043
0.007614297453935619 0.03955098257651407 -0.10567579353229468
-0.0014358835884209149 0.03240858724091437 -0.11047699367284894
-0.010486064630777451 0.025266191905314657 -0.11527819381340318
-0.019536245673133983 0.018123796569714957 -0.12007939395395743
-0.028586426715490523 0.010981401234115258 -0.12488059409451169
-0.03763660775784705 0.0038390058985155406 -0.12968179423506593
-0.04668678880020359 -0.003303389437084163 -0.1344829943756202
-0.055736969842560116 -0.01044578477268386 -0.13928419451617444
-0.06478715088491666 -0.017588180108283565 -0.14408539465672868
0.016664478496292153 0.046693377912113775 -0.10087459339174043
0.010833622231194285 0.03706956723974525 -0.10629257218251276
0.0050027659660964174 0.027445756567376717 -0.11171055097328507
-0.0008280902990014485 0.017821945895008184 -0.1171285297640574
-0.006658946564099318 0.00819813522263966 -0.12254650855482971
-0.012489802829197188 -0.001425675449728879 -0.12796448734560203
-0.01832065909429505 -0.011049486122097404 -0.13338246613637436
-0.024151515359392934 -0.020673296794465938 -0.1388004449271467
-0.02998237162449079 -0.030297107466834457 -0.144218423717919
-0.035813227889588656 -0.039920918139203 -0.1496364025086913
0.016664478496292153 0.046693377912113775 -0.10087459339174043
0.014684810759833227 0.03563104111813601 -0.10632222876214781
0.012705143023374301 0.024568704324158246 -0.1117698641325552
0.010725475286915375 0.01350636753018049 -0.11721749950296258
0.008745807550456449 0.002444030736202718 -0.12266513487336995
0.006766139813997523 -0.008618306057775032 -0.12811277024377735
0.004786472077538597 -0.0196806428517528 -0.13356040561418472
0.002806804341079671 -0.030742979645730563 -0.1390080409845921
0.0008271366046207452 -0.04180531643970834 -0.14445567635499948
-0.0011525311318381808 -0.05286765323368609 -0.14990331172540688
0.016664478496292153 0.046693377912113775 -0.10087459339174043
0.01875052700542738 0.035391290837995325 -0.10576154952062716
0.020836575514562607 0.02408920376387688 -0.1106485056495139
0.022922624023697834 0.012787116689758427 -0.11553546177840061
0.025008672532833065 0.0014850296156399836 -0.12042241790728735
0.027094721041968292 -0.009817057458478459 -0.12530937403617406
0.029180769551103516 -0.021119144532596924 -0.1301963301650608
0.03126681806023874 -0.03242123160671536 -0.13508328629394753
0.03335286656937397 -0.04372331868083381 -0.13997024242283426
0.03543891507850921 -0.05502540575495226 -0.144857198551721
0.016664478496292153 0.046693377912113775 -0.10087459339174043
0.022590187526679083 0.036376297062285325 -0.10467129275360436
0.028515896557066014 0.026059216212456868 -0.1084679921154683
0.03444160558745295 0.015742135362628418 -0.11226469147733223
0.04036731461783988 0.005425054512799962 -0.11606139083919617
0.04629302364822681 -0.004892026337028488 -0.1198580902010601
0.05221873267861374 -0.015209107186856937 -0.12365478956292403
0.05814444170900067 -0.02552618803668539 -0.12745148892478797
0.0640701507393876 -0.03584326888651385 -0.1312481882866519
0.06999585976977453 -0.04616034973634229 -0.13504488764851583
0.016664478496292153 0.046693377912113775 -0.10087459339174043
0.025787705527639142 0.03847931908265785 -0.10316960469886312
0.034910932558986134 0.030265260253201927 -0.10546461600598579
0.04403415959033312 0.022051201423746006 -0.10775962731310848
0.05315738662168011 0.013837142594290081 -0.11005463862023115
0.062280613653027096 0.005623083764834156 -0.11234964992735384
0.07140384068437408 -0.0025909750646217603 -0.11464466123447652
0.08052706771572109 -0.010805033894077698 -0.1169396725415992
0.08965029474706807 -0.019019092723533616 -0.11923468384872188
0.09877352177841506 -0.027233151552989547 -0.12152969515584457
0.016664478496292153 0.046693377912113775 -0.10087459339174043
0.027996580318299782 0.04147246183145673 -0.10141921655822558
0.039328682140307415 0.036251545750799696 -0.10196383972471074
0.050660783962315034 0.031030629670142654 -0.10250846289119589
0.061992885784322674 0.02580971358948561 -0.10305308605768104
0.0733249876063303 0.02058879750882857 -0.1035977092241662
0.08465708942833791 0.015367881428171535 -0.10414233239065135
0.09598919125034558 0.010146965347514492 -0.10468695555713649
0.10732129307235319 0.0049260492668574485 -0.10523157872362164
0.11865339489436082 -0.00029486681379959365 -0.1057762018901068
0.016664478496292153 0.046693377912113775 -0.10087459339174043
0.02897744604086915 0.04503137184845464 -0.09960981004680025
0.04129041358544614 0.0433693657847955 -0.09834502670186007
0.05360338113002314 0.041707359721136365 -0.09708024335691989
0.06591634867460013 0.04004535365747723 -0.09581546001197971
0.07822931621917713 0.03838334759381809 -0.09455067666703955
0.09054228376375412 0.036721341530158956 -0.09328589332209937
0.1028552513083311 0.03505933546649982 -0.09202110997715919
0.11516821885290811 0.03339732940284068 -0.09075632663221901
0.1274811863974851 0.03173532333918155 -0.08949154328727883
-0.016664478496292153 -0.046693377912113775 0.10087459339174043
-0.004351510951715159 -0.04835538397577291 0.10213937673668061
0.007961456592861835 -0.05001739003943204 0.10340416008162079
0.020274424137438827 -0.05167939610309118 0.10466894342656097
0.03258739168201582 -0.05334140216675031 0.10593372677150115
0.044900359226592815 -0.055003408230409445 0.10719851011644133
0.057213326771169803 -0.05666541429406858 0.1084632934613815
0.06952629431574679 -0.05832742035772771 0.10972807680632168
0.0818392618603238 -0.05998942642138685 0.11099286015126186
0.0941522294049008 -0.06165143248504598 0.11225764349620204
-0.016664478496292153 -0.046693377912113775 0.10087459339174043
-0.004704946317977285 -0.044616369813096364 0.10381172434754603
0.007254585860337583 -0.042539361714078947 0.10674885530335163
0.01921411803865244 -0.04046235361506153 0.10968598625915721
0.03117365021696732 -0.03838534551604412 0.1126231172149628
0.04313318239528218 -0.0363083374170267 0.1155602481707684
0.05509271457359703 -0.03423132931800928 0.118497379126574
0.06705224675191193 -0.03215432121899187 0.1214345100823796
0.07901177893022679 -0.030077313119974455 0.1243716410381852
0.09097131110854166 -0.028000305020957045 0.1273087719939908
-0.016664478496292153 -0.046693377912113775 0.10087459339174043
-0.006354382567021644 -0.04110243170604958 0.10516578824506745
0.003955713362248866 -0.03551148549998539 0.10945698309839445
0.014265809291519372 -0.02992053929392119 0.11374817795172147
0.024575905220789885 -0.024329593087856996 0.11803937280504849
0.034886001150060394 -0.018738646881792807 0.12233056765837551
0.045196097079330894 -0.013147700675728605 0.1266217625117025
0.05550619300860141 -0.007556754469664418 0.13091295736502953
0.06581628893787192 -0.001965808263600219 0.13520415221835655
0.07612638486714243 0.003625137942463974 0.13949534707168357
-0.016664478496292153 -0.046693377912113775 0.10087459339174043
-0.00912107768762387 -0.03819435937289866 0.10605483459548226
-0.001577676878955584 -0.02969534083368355 0.1112350757992241
0.005965723929712698 -0.021196322294468432 0.11641531700296595
0.013509124738380986 -0.012697303755253327 0.12159555820670778
0.021052525547049273 -0.004198285216038205 0.1267757994104496
0.02859592635571755 0.004300733323176909 0.13195604061419147
0.03613932716438583 0.012799751862392022 0.1371362818179333
0.04368272797305412 0.021298770401607124 0.14231652302167513
0.051226128781722405 0.029797788940822252 0.14749676422541697
-0.016664478496292153 -0.046693377912113775 0.10087459339174043
-0.012705217333768719 -0.036207287574331976 0.10638252143174758
-0.008745956171245284 -0.02572119723655018 0.11189044947175472
-0.00478669500872185 -0.01523510689876838 0.11739837751176187
-0.0008274338461984161 -0.004749016560986586 0.12290630555176901
0.003131827316325022 0.00573707377679522 0.12841423359177617
0.007091088478848453 0.01622316411457702 0.1339221616317833
0.01105034964137189 0.026709254452358812 0.13943008967179046
0.015009610803895321 0.037195344790140604 0.1449380177117976
0.01896887196641876 0.047681435127922396 0.15044594575180475
-0.016664478496292153 -0.046693377912113775 0.10087459339174043
-0.01671840436113971 -0.035356546372319976 0.10611333880056888
-0.016772330225987266 -0.02401971483252617 0.11135208420939732
-0.016826256090834824 -0.012682883292732374 0.11659082961822577
-0.016880181955682378 -0.0013460517529385678 0.12182957502705422
-0.016934107820529936 0.009990779786855223 0.12706832043588268
-0.016988033685377494 0.02132761132664903 0.1323070658447111
-0.01704195955022505 0.03266444286644283 0.13754581125353957
-0.017095885415072603 0.04400127440623664 0.142784556662368
-0.01714981127992016 0.05533810594603044 0.14802330207119646
-0.016664478496292153 -0.046693377912113775 0.10087459339174043
-0.02072574768430846 -0.03573432677671051 0.10527645681683326
-0.024787016872324766 -0.024775275641307246 0.10967832024192609
-0.028848286060341073 -0.013816224505903982 0.1140801836670189
-0.03290955524835738 -0.0028571733705007193 0.11848204709211173
-0.03697082443637369 0.008101877764902557 0.12288391051720456
-0.04103209362439 0.019060928900305814 0.12728577394229737
-0.04509336281240631 0.030019980035709083 0.1316876373673902
-0.04915463200042261 0.04097903117111234 0.13608950079248303
-0.05321590118843892 0.05193808230651562 0.14049136421757585
-0.016664478496292153 -0.046693377912113775 0.10087459339174043
-0.024292989473871318 -0.037299690418820926 0.1039625646290404
-0.03192150045145048 -0.02790600292552807 0.10705053586634035
-0.03955001142902965 -0.018512315432235225 0.11013850710364032
-0.04717852240660881 -0.009118627938942367 0.11322647834094028
-0.054807033384187985 0.000275059554350482 0.11631444957824023
-0.06243554436176714 0.009668747047643323 0.1194024208155402
-0.0700640553393463 0.01906243454093618 0.12249039205284015
-0.07769256631692546 0.028456122034229044 0.12557836329014013
-0.08532107729450464 0.03784980952752189 0.12866633452744008
-0.016664478496292153 -0.046693377912113775 0.10087459339174043
-0.027033563730469723 -0.039883005858909054 0.1023140428428755
-0.03740264896464729 -0.03307263380570434 0.10375349229401055
-0.047771734198824856 -0.02626226175249962 0.10519294174514562
-0.05814081943300243 -0.0194518896992949 0.1066323911962807
-0.06850990466717999 -0.012641517646090181 0.10807184064741576
-0.07887898990135755 -0.005831145592885467 0.10951129009855082
-0.08924807513553515 0.0009792264603192603 0.11095073954968589
-0.0996171603697127 0.007789598513523974 0.11239018900082096
-0.10998624560389028 0.0145999705667287 0.11382963845195601
-0.016664478496292153 -0.046693377912113775 0.10087459339174043
-0.028650486709010204 -0.043204330784772274 0.1005095343733206
-0.04063649492172826 -0.039715283657430774 0.10014447535490074
-0.0526225031344463 -0.03622623653008927 0.09977941633648091
-0.06460851134716436 -0.03273718940274777 0.09941435731806106
-0.0765945195598824 -0.029248142275406265 0.09904929829964122
-0.08858052777260045 -0.025759095148064765 0.09868423928122139
-0.1005665359853185 -0.022270048020723264 0.09831918026280154
-0.11255254419803656 -0.018781000893381763 0.0979541212443817
-0.12453855241075462 -0.015291953766040265 0.09758906222596185
-0.016664478496292153 -0.046693377912113775 0.10087459339174043
-0.028968539715622868 -0.04690374810502717 0.09874458571288577
-0.04127260093495358 -0.047114118297940565 0.09661457803403112
-0.0535766621542843 -0.04732448849085396 0.09448457035517646
-0.065880723373615 -0.04753485868376736 0.0923545626763218
-0.07818478459294573 -0.047745228876680756 0.09022455499746715
-0.09048884581227644 -0.047955599069594144 0.08809454731861249
-0.10279290703160714 -0.048165969262507546 0.08596453963975784
-0.11509696825093786 -0.04837633945542094 0.08383453196090318
-0.12740102947026857 -0.048586709648334336 0.08170452428204852
-0.016664478496292153 -0.046693377912113775 0.10087459339174043
-0.027953256771940348 -0.05058036855065003 0.0972104564349293
-0.03924203504758854 -0.05446735918918629 0.09354631947811819
-0.05053081332323674 -0.05835434982772255 0.08988218252130706
-0.06181959159888493 -0.06224134046625881 0.08621804556449593
-0.07310836987453312 -0.06612833110479507 0.0825539086076848
-0.08439714815018132 -0.07001532174333133 0.07888977165087369
-0.09568592642582952 -0.07390231238186759 0.07522563469406256
-0.1069747047014777 -0.07778930302040385 0.07156149773725144
-0.1182634829771259 -0.08167629365894011 0.06789736078044031
-0.016664478496292153 -0.046693377912113775 0.10087459339174043
-0.02571465953864869 -0.05383577324771348 0.09607339325118618
-0.03476484058100522 -0.06097816858331318 0.09127219311063192
-0.04381502162336176 -0.0681205639189129 0.08647099297007768
-0.05286520266571829 -0.0752629592545126 0.08166979282952343
-0.06191538370807483 -0.08240535459011229 0.07686859268896917
-0.07096556475043136 -0.08954774992571202 0.07206739254841492
-0.0800157457927879 -0.09669014526131171 0.06726619240786066
-0.08906592683514443 -0.10383254059691141 0.06246499226730642
-0.09811610787750097 -0.11097493593251112 0.05766379212675217
-0.016664478496292153 -0.046693377912113775 0.10087459339174043
-0.022495334761390023 -0.05631718858448231 0.0954566146009681
-0.02832619102648789 -0.06594099925685083 0.09003863581019579
-0.03415704729158576 -0.07556480992921936 0.08462065701942346
-0.03998790355668363 -0.0851886206015879 0.07920267822865115
-0.0458187598217815 -0.09481243127395643 0.07378469943787883
-0.05164961608687936 -0.10443624194632496 0.0683667206471065
-0.057480472351977244 -0.1140600526186935 0.06294874185633417
-0.0633113286170751 -0.12368386329106201 0.05753076306556187
-0.06914218488217297 -0.13330767396343055 0.05211278427478954
-0.016664478496292153 -0.046693377912113775 0.10087459339174043
-0.01864414623275108 -0.05775571470609154 0.09542695802133305
-0.020623813969210005 -0.06881805150006931 0.08997932265092566
-0.02260348170566893 -0.07988038829404706 0.08453168728051828
-0.024583149442127857 -0.09094272508802484 0.07908405191011089
-0.026562817178586783 -0.10200506188200259 0.07363641653970351
-0.02854248491504571 -0.11306739867598035 0.06818878116929614
-0.030522152651504635 -0.12412973546995812 0.06274114579888874
-0.032501820387963565 -0.1351920722639359 0.05729351042848137
-0.03448148812442249 -0.14625440905791365 0.05184587505807398
-0.016664478496292153 -0.046693377912113775 0.10087459339174043
-0.014578429987156926 -0.057995464986232224 0.0959876372628537
-0.012492381478021699 -0.06929755206035067 0.09110068113396697
-0.010406332968886472 -0.08059963913446913 0.08621372500508023
-0.008320284459751243 -0.09190172620858757 0.0813267688761935
-0.006234235950616016 -0.10320381328270602 0.07643981274730678
-0.0041481874414807905 -0.11450590035682448 0.07155285661842005
-0.002062138932345565 -0.1258079874309429 0.06666590048953332
2.3909576789666963e-05 -0.13711007450506135 0.061778944360646584
0.0021099580859248977 -0.1484121615791798 0.05689198823175986
-0.016664478496292153 -0.046693377912113775 0.10087459339174043
-0.010738769465905223 -0.05701045876194223 0.09707789402987649
-0.0048130604355182925 -0.06732753961177068 0.09328119466801256
0.0011126485948686376 -0.07764462046159913 0.08948449530614863
0.007038357625255568 -0.0879617013114276 0.08568779594428469
0.012964066655642498 -0.09827878216125605 0.08189109658242076
0.01888977568602943 -0.1085958630110845 0.07809439722055682
0.02481548471641636 -0.11891294386091295 0.07429769785869289
0.03074119374680329 -0.1292300247107414 0.07050099849682895
0.036666902777190216 -0.13954710556056985 0.06670429913496502
-0.016664478496292153 -0.046693377912113775 0.10087459339174043
-0.0075412514649451645 -0.0549074367415697 0.09857958208461774
0.0015819755664018239 -0.06312149557102563 0.09628457077749507
0.01070520259774881 -0.07133555440048155 0.09398955947037238
0.0198284296290958 -0.07954961322993748 0.0916945481632497
0.028951656660442786 -0.0877636720593934 0.08939953685612702
0.03807488369178977 -0.09597773088884931 0.08710452554900434
0.047198110723136774 -0.10419178971830526 0.08480951424188166
0.05632133775448375 -0.11240584854776117 0.08251450293475897
0.06544456478583074 -0.1206199073772171 0.0802194916276363
-0.016664478496292153 -0.046693377912113775 0.10087459339174043
-0.005332376674284524 -0.05191429399277082 0.10032997022525528
0.0059997251477231055 -0.05713521007342786 0.09978534705877012
0.017331826969730724 -0.062356126154084895 0.09924072389228497
0.028663928791738364 -0.06757704223474194 0.09869610072579982
0.039996030613745986 -0.07279795831539898 0.09815147755931466
0.0513281324357536 -0.07801887439605602 0.09760685439282951
0.06266023425776127 -0.08323979047671307 0.09706223122634437
0.07399233607976888 -0.08846070655737011 0.0965176080598592
0.0853244379017765 -0.09368162263802715 0.09597298489337407
-0.016664478496292153 -0.046693377912113775 0.10087459339174043
-0.004351510951715159 -0.048355383975772916 0.10213937673668061
0.007961456592861835 -0.05001739003943205 0.10340416008162079
0.020274424137438827 -0.051679396103091184 0.10466894342656097
0.03258739168201582 -0.053341402166750325 0.10593372677150115
0.044900359226592815 -0.05500340823040946 0.10719851011644131
0.057213326771169803 -0.0566654142940686 0.10846329346138149
0.06952629431574679 -0.058327420357727734 0.10972807680632167
0.0818392618603238 -0.05998942642138687 0.11099286015126185
0.0941522294049008 -0.06165143248504601 0.11225764349620203
