# .PCD v0.7 - Point Cloud Data file format
VERSION 0.7
FIELDS x y z
SIZE 4 4 4
TYPE F F F
COUNT 1 1 1
WIDTH 700
HEIGHT 1
VIEWPOINT 0 0 0 1 0 0 0
POINTS 700
DATA ascii
0.028419042983680597 -0.0007793226726515535 -0.06875448242817031
0.030458747278050802 0.010288798086562197 -0.06709570440861146
0.03020530291177637 0.021372727676605377 -0.06454668379995579
0.02767056066174112 0.03195419386875051 -0.06122660997283115
0.022973042258393025 0.04153841906430788 -0.057290725889396855
0.016332398441355925 0.04967725554523446 -0.052923069114973305
0.008059138334968963 0.055990140363349164 -0.048327866426030715
-0.0014598896132613675 0.060181890040824484 -0.04371998439310307
-0.011779586236115526 0.06205650302153686 -0.039314882458757
-0.022417413989027867 0.061526324485990824 -0.03531853829352338
-0.032875959869368546 0.058616144993257416 -0.03191781650895103
-0.04266619389561173 0.05346204130198465 -0.02927173107605573
-0.05133033560575389 0.0463050135724016 -0.027504010008766944
-0.058463259362930654 0.03747971646667859 -0.026697309979510246
-0.06373143757993179 0.027398811068866005 -0.026889351385070984
-0.06688853609848988 0.016533669311243896 -0.028071154582763835
-0.06778693250074012 0.00539233314666096 -0.030187459768544596
-0.06638461876940918 -0.005504240928532685 -0.033139310864030436
-0.06274716553601434 -0.01564654122125322 -0.03678868259274329
-0.05704465607101022 -0.024560325042170168 -0.0409649343886339
-0.04954373337909636 -0.03182879376677665 -0.045472789359296925
-0.04059513226866985 -0.037112081875832835 -0.05010146521642512
-0.03061727938199843 -0.0401631486893122 -0.054634530221342875
-0.020076728030475884 -0.040839329714033694 -0.058860023292560154
-0.009466342680317994 -0.039109007476802564 -0.06258036507036506
0.0007177468420981918 -0.035053089922316684 -0.06562159650809034
0.009999343829507023 -0.02886122724759523 -0.06784151300379394
0.01794445112253137 -0.020822944069547118 -0.06913631372939673
0.02418156433450201 -0.011314101575667753 -0.06944545524203717
0.02841904298368059 -0.0007793226726515657 -0.06875448242817031
0.03254865112061254 -0.0031408539202512666 -0.05807521530185819
0.034588355414982744 0.007927266838962483 -0.05641643728229933
0.03433491104870831 0.019011196429005662 -0.05386741667364367
0.03180016879867306 0.029592662621150796 -0.050547342846519024
0.027102650395324966 0.03917688781670817 -0.046611458763084736
0.020462006578287867 0.04731572429763475 -0.042243801988661185
0.012188746471900904 0.05362860911574945 -0.03764859929971859
0.0026697185236705732 0.05782035879322477 -0.03304071726679094
-0.007649978099183586 0.05969497177393715 -0.028635615332444873
-0.018287805852095926 0.05916479323839111 -0.02463927116721126
-0.028746351732436604 0.056254613745657704 -0.021238549382638902
-0.03853658575867979 0.051100510054384936 -0.018592463949743603
-0.04720072746882195 0.043943482324801886 -0.016824742882454818
-0.054333651225998716 0.035118185219078876 -0.01601804285319812
-0.05960182944299985 0.02503727982126629 -0.016210084258758858
-0.06275892796155794 0.014172138063644183 -0.017391887456451708
-0.0636573243638082 0.003030801899061247 -0.01950819264223247
-0.062255010632477244 -0.007865772176132399 -0.02246004373771831
-0.0586175573990824 -0.018008072468852936 -0.02610941546643116
-0.05291504793407828 -0.026921856289769883 -0.03028566726232177
-0.04541412524216442 -0.03419032501437636 -0.0347935222329848
-0.03646552413173791 -0.03947361312343255 -0.03942219809011299
-0.026487671245066492 -0.04252467993691191 -0.043955263095030755
-0.015947119893543946 -0.043200860961633405 -0.04818075616624803
-0.005336734543386052 -0.041470538724402276 -0.05190109794405293
0.004847354979030133 -0.037414621169916396 -0.05494232938177822
0.014128951966438964 -0.031222758495194944 -0.05716224587748182
0.022074059259463312 -0.023184475317146833 -0.0584570466030846
0.02831117247143395 -0.013675632823267466 -0.05876618811572505
0.03254865112061253 -0.0031408539202512787 -0.05807521530185819
0.03667825925754448 -0.005502385167850979 -0.04739594817554607
0.03871796355191468 0.005565735591362771 -0.0457371701559872
0.03846451918564025 0.01664966518140595 -0.04318814954733154
0.035929776935605 0.027231131373551085 -0.039868075720206904
0.031232258532256904 0.036815356569108455 -0.03593219163677261
0.024591614715219805 0.044954193050035035 -0.03156453486234906
0.016318354608832842 0.05126707786814974 -0.02696933217340647
0.006799326660602513 0.05545882754562506 -0.02236145014047882
-0.003520369962251646 0.05733344052633744 -0.01795634820613275
-0.014158197715163986 0.0568032619907914 -0.013960004040899138
-0.024616743595504663 0.05389308249805799 -0.01055928225632678
-0.03440697762174785 0.048738978806785224 -0.007913196823431482
-0.04307111933189001 0.041581951077202174 -0.006145475756142696
-0.05020404308906678 0.032756653971479165 -0.005338775726885998
-0.05547222130606791 0.02267574857366658 -0.005530817132446736
-0.058629319824626 0.011810606816044471 -0.0067126203301395865
-0.05952771622687625 0.0006692706514615345 -0.008828925515920348
-0.058125402495545306 -0.01022730342373211 -0.011780776611406188
-0.05448794926215046 -0.020369603716452647 -0.01543014834011904
-0.04878543979714634 -0.029283387537369594 -0.01960640013600965
-0.04128451710523248 -0.03655185626197607 -0.02411425510667268
-0.03233591599480597 -0.04183514437103226 -0.02874293096380087
-0.02235806310813455 -0.044886211184511624 -0.03327599596871863
-0.011817511756612005 -0.04556239220923312 -0.03750148903993591
-0.001207126406454113 -0.04383206997200199 -0.04122183081774081
0.008976963115962073 -0.03977615241751611 -0.04426306225546609
0.018258560103370902 -0.033584289742794655 -0.04648297875116969
0.02620366739639525 -0.025546006564746544 -0.047777779476772475
0.03244078060836589 -0.01603716407086718 -0.048086920989412925
0.03667825925754447 -0.005502385167850991 -0.04739594817554607
0.04080786739447642 -0.007863916415450692 -0.036716681049233944
0.04284757168884663 0.003204204343763058 -0.03505790302967508
0.042594127322572194 0.014288133933806239 -0.032508882421019424
0.040059385072536945 0.024869600125951373 -0.02918880859389478
0.03536186666918885 0.03445382532150874 -0.025252924510460486
0.028721222852151746 0.04259266180243532 -0.020885267736036935
0.020447962745764783 0.04890554662055003 -0.016290065047094345
0.010928934797534455 0.05309729629802535 -0.011682183014166694
0.0006092381746802947 0.05497190927873773 -0.007277081079820625
-0.010028589578232045 0.05444173074319169 -0.0032807369145870136
-0.02048713545857272 0.05153155125045828 0.00011998486998534387
-0.03027736948481591 0.04637744755918551 0.0027660703028806427
-0.03894151119495807 0.03922041982960246 0.004533791370169429
-0.046074434952134834 0.03039512272387945 0.005340491399426127
-0.051342613169135964 0.020314217326066867 0.005148449993865389
-0.054499711687694054 0.009449075568444758 0.003966646796172538
-0.0553981080899443 -0.0016922605961381787 0.0018503416103917768
-0.05399579435861336 -0.012588834671331824 -0.001101509485094063
-0.05035834112521852 -0.02273113496405236 -0.004750881213806915
-0.0446558316602144 -0.031644918784969306 -0.008927133009697524
-0.03715490896830054 -0.038913387509575785 -0.013434987980360552
-0.02820630785787403 -0.04419667561863197 -0.018063663837488746
-0.01822845497120261 -0.047247742432111335 -0.022596728842406506
-0.0076879036196800645 -0.04792392345683283 -0.02682222191362378
0.002922481730477828 -0.0461936012196017 -0.030542563691428683
0.013106571252894014 -0.04213768366511582 -0.03358379512915397
0.022388168240302844 -0.03594582099039437 -0.03580371162485757
0.03033327553332719 -0.027907537812346256 -0.037098512350460355
0.03657038874529783 -0.01839869531846689 -0.037407653863100805
0.040807867394476414 -0.007863916415450704 -0.036716681049233944
0.04493747553140836 -0.010225447663050405 -0.026037413922921818
0.046977179825778564 0.0008426730961633442 -0.024378635903362953
0.04672373545950413 0.011926602686206525 -0.021829615294707293
0.04418899320946888 0.022508068878351658 -0.01850954146758265
0.03949147480612079 0.032092294073909025 -0.01457365738414836
0.03285083098908369 0.04023113055483561 -0.010206000609724809
0.024577570882696725 0.04654401537295032 -0.005610797920782217
0.015058542934466396 0.05073576505042564 -0.0010029158878545675
0.0047388463116122366 0.052610378031138015 0.0034021860464915014
-0.005898981441300103 0.05208019949559198 0.0073985302117251135
-0.01635752732164078 0.04917002000285857 0.010799251996297471
-0.02614776134788397 0.0440159163115858 0.01344533742919277
-0.03481190305802613 0.03685888858200275 0.015213058496481555
-0.041944826815202896 0.028033591476279734 0.016019758525738254
-0.047213005032204027 0.017952686078467152 0.015827717120177515
-0.050370103550762116 0.0070875443208450436 0.014645913922484665
-0.051268499953012366 -0.004053791843737892 0.012529608736703904
-0.04986618622168142 -0.014950365918931537 0.009577757641218064
-0.04622873298828658 -0.025092666211652074 0.005928385912505212
-0.04052622352328246 -0.03400645003256902 0.0017521341166146025
-0.0330253008313686 -0.0412749187571755 -0.0027557208540484254
-0.024076699720942087 -0.04655820686623168 -0.007384396711176617
-0.014098846834270668 -0.04960927367971105 -0.011917461716094379
-0.0035582954827481222 -0.05028545470443254 -0.01614295478731165
0.00705208986740977 -0.04855513246720141 -0.019863296565116557
0.017236179389825954 -0.04449921491271553 -0.02290452800284184
0.026517776377234785 -0.03830735223799408 -0.02512444449854544
0.03446288367025913 -0.03026906905994597 -0.026419245224148225
0.04069999688222977 -0.020760226566066606 -0.026728386736788675
0.04493747553140835 -0.010225447663050417 -0.026037413922921818
0.049067083668340304 -0.01258697891065012 -0.015358146796609691
0.05110678796271051 -0.0015188581514363692 -0.013699368777050826
0.050853343596436076 0.00956507143860681 -0.011150348168395167
0.04831860134640083 0.020146537630751946 -0.007830274341270526
0.04362108294305273 0.029730762826309313 -0.0038943902578362326
0.03698043912601563 0.03786959930723589 0.000473266516587317
0.02870717901962867 0.0441824841253506 0.00506846920552991
0.01918815107139834 0.04837423380282592 0.009676351238457559
0.008868454448544179 0.0502488467835383 0.014081453172803628
-0.001769373304368162 0.04971866824799226 0.01807779733803724
-0.012227919184708839 0.04680848875525885 0.021478519122609598
-0.022018153210952025 0.04165438506398608 0.024124604555504896
-0.030682294921094186 0.03449735733440303 0.025892325622793682
-0.03781521867827095 0.025672060228680023 0.02669902565205038
-0.04308339689527208 0.015591154830867439 0.026506984246489642
-0.04624049541383017 0.00472601307324533 0.02532518104879679
-0.04713889181608042 -0.006415323091337606 0.02320887586301603
-0.04573657808474948 -0.01731189716653125 0.02025702476753019
-0.042099124851354634 -0.027454197459251786 0.016607653038817338
-0.036396615386350514 -0.036367981280168736 0.012431401242926729
-0.028895692694436655 -0.043636450004775215 0.007923546272263701
-0.019947091584010142 -0.0489197381138314 0.0032948704151355094
-0.009969238697338727 -0.051970804927310765 -0.0012381945897822525
0.0005713126541838192 -0.05264698595203226 -0.005463687660999526
0.011181698004341711 -0.05091666371480113 -0.00918402943880443
0.0213657875267579 -0.04686074616031525 -0.012225260876529715
0.03064738451416673 -0.0406688834855938 -0.014445177372233314
0.03859249180719108 -0.032630600307545686 -0.0157399780978361
0.044829605019161715 -0.023121757813666318 -0.01604911961047655
0.0490670836683403 -0.012586978910650132 -0.015358146796609691
0.05319669180527224 -0.014948510158249832 -0.00467887967029757
0.05523639609964245 -0.0038803893990360812 -0.003020101650738706
0.054982951733368014 0.007203540191007099 -0.00047108104208304607
0.052448209483332765 0.017785006383152235 0.002848992785041595
0.04775069107998467 0.027369231578709602 0.006784876868475888
0.04111004726294757 0.03550806805963618 0.011152533642899438
0.032836787156560604 0.04182095287775089 0.01574773633184203
0.023317759208330277 0.04601270255522621 0.02035561836476968
0.012998062585476117 0.047887315535938585 0.02476072029911575
0.0023602348325637776 0.04735713700039255 0.02875706446434936
-0.0080983110477769 0.04444695750765914 0.03215778624892172
-0.017888545074020087 0.03929285381638637 0.03480387168181702
-0.026552686784162248 0.03213582608680332 0.036571592749105805
-0.03368561054133901 0.02331052898108031 0.0373782927783625
-0.038953788758340144 0.013229623583267727 0.037186251372801765
-0.04211088727689823 0.002364481825645618 0.036004448175108915
-0.04300928367914848 -0.008776854338937318 0.03388814298932815
-0.04160696994781754 -0.019673428414130962 0.03093629189384231
-0.037969516714422696 -0.029815728706851497 0.027286920165129458
-0.032267007249418576 -0.03872951252776845 0.02311066836923885
-0.024766084557504717 -0.04599798125237493 0.01860281339857582
-0.015817483447078205 -0.05128126936143111 0.01397413754144763
-0.005839630560406787 -0.05433233617491048 0.00944107253652987
0.004700920791115759 -0.05500851719963197 0.005215579465312595
0.015311306141273651 -0.05327819496240084 0.0014952376875076905
0.025495395663689836 -0.04922227740791496 -0.0015459937502175945
0.03477699265109867 -0.04303041473319351 -0.003765910245921193
0.042722099944123015 -0.0349921315551454 -0.005060710971523978
0.04895921315609365 -0.02548328906126603 -0.005369852484164428
0.053196691805272235 -0.014948510158249844 -0.00467887967029757
0.05732629994220419 -0.017310041405849547 0.006000387456014558
0.05936600423657439 -0.006241920646635795 0.0076591654755734226
0.05911255987029996 0.004842008943407385 0.010208186084229081
0.05657781762026471 0.01542347513555252 0.013528259911353722
0.051880299216916614 0.025007700331109887 0.017464143994788017
0.045239655399879515 0.03314653681203647 0.021831800769211564
0.03696639529349255 0.039459421630151176 0.026427003458154158
0.02744736734526222 0.043651171307626496 0.03103488549108181
0.017127670722408058 0.04552578428833887 0.03543998742542788
0.00648984296949572 0.044995605752792836 0.03943633159066149
-0.003968702910844957 0.04208542626005943 0.042837053375233844
-0.013758936937088146 0.03693132256878666 0.045483138808129146
-0.022423078647230307 0.02977429483920361 0.04725085987541793
-0.02955600240440707 0.020948997733480596 0.04805755990467463
-0.0348241806214082 0.010868092335668014 0.04786551849911389
-0.03798127913996629 2.9505780459041785e-06 0.04668371530142104
-0.03887967554221654 -0.011138385586537031 0.04456741011564028
-0.037477361810885595 -0.022034959661730677 0.04161555902015444
-0.03383990857749075 -0.03217725995445121 0.037966187291441585
-0.028137399112486635 -0.04109104377536816 0.033789935495550975
-0.020636476420572775 -0.04835951249997464 0.02928208052488795
-0.011687875310146263 -0.05364280060903082 0.024653404667759758
-0.001710022423474845 -0.05669386742251019 0.020120339662841998
0.0088305289280477 -0.05737004844723168 0.015894846591624722
0.019440914278205594 -0.05563972621000055 0.012174504813819818
0.029625003800621778 -0.05158380865551467 0.009133273376094533
0.03890660078803061 -0.04539194598079322 0.006913356880390935
0.04685170808105496 -0.03735366280274511 0.00561855615478815
0.0530888212930256 -0.027844820308865745 0.005309414642147701
0.05732629994220418 -0.017310041405849557 0.006000387456014558
0.061455908079136125 -0.019671572653449258 0.016679654582326682
0.06349561237350633 -0.008603451894235508 0.018338432601885547
0.0632421680072319 0.002480477695807672 0.020887453210541206
0.06070742575719665 0.013061943887952806 0.02420752703766585
0.05600990735384855 0.022646169083510175 0.02814341112110014
0.04936926353681145 0.03078500556443676 0.03251106789552369
0.041096003430424494 0.037097890382551464 0.037106270584466285
0.03157697548219416 0.041289640060026785 0.04171415261739393
0.02125727885934 0.04316425304073916 0.04611925455174
0.01061945110642766 0.042634074505193124 0.05011559871697362
0.0001609052260869838 0.039723895012459716 0.05351632050154597
-0.009629328800156205 0.03456979132118695 0.05616240593444127
-0.018293470510298365 0.027412763591603898 0.05793012700173006
-0.02542639426747513 0.018587466485880885 0.05873682703098675
-0.03069457248447626 0.0085065610880683 0.05854478562542602
-0.03385167100303435 -0.002358580669553809 0.05736298242773317
-0.0347500674052846 -0.013499916834136745 0.055246677241952404
-0.03334775367395366 -0.02439649090933039 0.052294826146466564
-0.029710300440558814 -0.034538791202050924 0.04864545441775371
-0.024007790975554694 -0.04345257502296787 0.0444692026218631
-0.016506868283640834 -0.05072104374757435 0.039961347651200074
-0.007558267173214322 -0.056004331856630535 0.03533267179407188
0.002419585713457096 -0.0590553986701099 0.03079960678915412
0.012960137064979642 -0.059731579694831394 0.02657411371793685
0.023570522415137535 -0.058001257457600264 0.022853771940131943
0.03375461193755372 -0.053945339903114384 0.019812540502406658
0.04303620892496255 -0.04775347722839293 0.01759262400670306
0.0509813162179869 -0.03971519405034482 0.016297823281100274
0.057218429429957536 -0.030206351556465456 0.015988681768459825
0.06145590807913612 -0.01967157265344927 0.016679654582326682
0.06558551621606806 -0.02203310390104897 0.02735892170863881
0.06762522051043827 -0.010964983141835222 0.029017699728197673
0.06737177614416384 0.00011894644820795892 0.03156672033685333
0.06483703389412859 0.010700412640353093 0.034886794163977976
0.06013951549078049 0.02028463783591046 0.038822678247412264
0.05349887167374339 0.028423474316837043 0.043190335021835814
0.04522561156735643 0.03473635913495175 0.04778553771077841
0.0357065836191261 0.03892810881242707 0.05239341974370606
0.02538688699627194 0.04080272179313945 0.056798521678052126
0.014749059243359602 0.04027254325759341 0.060794865843285736
0.004290513363018925 0.037362363764860004 0.0641955876278581
-0.005499720663224263 0.032208260073587236 0.06684167306075339
-0.014163862373366424 0.025051232344004182 0.06860939412804218
-0.02129678613054319 0.01622593523828117 0.06941609415729888
-0.02656496434754432 0.006145029840468587 0.06922405275173814
-0.02972206286610241 -0.004720111917153522 0.0680422495540453
-0.03062045926835266 -0.015861448081736458 0.06592594436826453
-0.029218145537021716 -0.026758022156930104 0.06297409327277868
-0.025580692303626872 -0.036900322449650635 0.05932472154406584
-0.019878182838622752 -0.04581410627056758 0.05514846974817523
-0.012377260146708893 -0.05308257499517406 0.0506406147775122
-0.0034286590362823804 -0.058365863104230246 0.04601193892038401
0.006549193850389037 -0.06141692991770961 0.041478873915466244
0.01708974520191158 -0.062093110942431105 0.03725338084424897
0.027700130552069473 -0.060362788705199975 0.033533039066444066
0.03788422007448566 -0.056306871150714095 0.030491807628718785
0.04716581706189449 -0.050115008475992644 0.028271891133015186
0.055110924354918836 -0.04207672529794453 0.0269770904074124
0.061348037566889474 -0.03256788280406517 0.02666794889477195
0.06558551621606806 -0.022033103901048984 0.02735892170863881
-0.018583236616193734 0.01062689061419871 -0.04805670206840456
-0.013360761105096586 0.009359533582326458 -0.05035645544171187
-0.008138285593999438 0.008092176550454206 -0.05265620881501917
-0.0029158100829022905 0.0068248195185819545 -0.054955962188326477
0.0023066654281948575 0.005557462486709704 -0.05725571556163379
0.007529140939292009 0.004290105454837451 -0.0595554689349411
0.012751616450389153 0.0030227484229652 -0.0618552223082484
0.0179740919614863 0.0017553913910929495 -0.0641549756815557
0.02319656747258345 0.00048803435922069804 -0.06645472905486301
0.028419042983680597 -0.0007793226726515535 -0.06875448242817031
-0.018583236616193734 0.01062689061419871 -0.04805670206840456
-0.013116990671442782 0.011240971108588772 -0.0500346733286071
-0.007650744726691829 0.011855051602978834 -0.052012644588809644
-0.00218449878194088 0.012469132097368897 -0.05399061584901218
0.003281747162810076 0.01308321259175896 -0.05596858710921472
0.008747993107561029 0.013697293086149021 -0.05794655836941726
0.014214239052311974 0.014311373580539084 -0.0599245296296198
0.019680484997062927 0.014925454074929147 -0.06190250088982234
0.025146730941813886 0.01553953456931921 -0.06388047215002488
0.03061297688656484 0.01615361506370927 -0.06585844341022742
-0.018583236616193734 0.01062689061419871 -0.04805670206840456
-0.013465572803447632 0.013055863484843302 -0.049498547338073046
-0.008347908990701529 0.015484836355487896 -0.050940392607741525
-0.003230245177955428 0.01791380922613249 -0.05238223787741001
0.001887418634790677 0.020342782096777083 -0.05382408314707849
0.007005082447536781 0.022771754967421676 -0.055265928416746976
0.012122746260282879 0.025200727838066272 -0.056707773686415455
0.017240410073028987 0.027629700708710864 -0.05814961895608394
0.022358073885775088 0.030058673579355457 -0.05959146422575242
0.027475737698521196 0.032487646450000046 -0.06103330949542091
-0.018583236616193734 0.01062689061419871 -0.04805670206840456
-0.01436873321829934 0.014607538961166129 -0.048806175040035926
-0.010154229820404948 0.01858818730813355 -0.04955564801166729
-0.005939726422510554 0.022568835655100972 -0.05030512098329865
-0.001725223024616161 0.026549484002068392 -0.05105459395493002
0.0024892803732782347 0.030530132349035816 -0.051804066926561386
0.006703783771172627 0.03451078069600323 -0.052553539898192746
0.01091828716906702 0.038491429042970655 -0.05330301286982411
0.015132790566961412 0.04247207738993807 -0.05405248584145548
0.01934729396485581 0.0464527257369055 -0.05480195881308684
-0.018583236616193734 0.01062689061419871 -0.04805670206840456
-0.015728600471070983 0.01572784942297195 -0.048032585716251186
-0.012873964325948232 0.020828808231745193 -0.04800846936409782
-0.010019328180825482 0.025929767040518435 -0.047984353011944446
-0.007164692035702729 0.031030725849291677 -0.04796023665979107
-0.00431005589057998 0.03613168465806492 -0.0479361203076377
-0.00145541974545723 0.04123264346683816 -0.047912003955484325
0.0013992163996655214 0.04633360227561139 -0.04788788760333095
0.004253852544788276 0.05143456108438464 -0.04786377125117758
0.007108488689911024 0.05653551989315788 -0.047839654899024205
-0.018583236616193734 0.01062689061419871 -0.04805670206840456
-0.01739781184441026 0.016295391848316212 -0.04726160977342603
-0.016212387072626788 0.021963893082433718 -0.046466517478447496
-0.015026962300843315 0.02763239431655122 -0.045671425183468964
-0.01384153752905984 0.03330089555066872 -0.04487633288849043
-0.012656112757276367 0.038969396784786225 -0.0440812405935119
-0.011470687985492896 0.04463789801890373 -0.04328614829853337
-0.010285263213709421 0.05030639925302124 -0.042491056003554836
-0.009099838441925946 0.05597490048713874 -0.041695963708576304
-0.007914413670142475 0.061643401721256236 -0.04090087141359777
-0.018583236616193734 0.01062689061419871 -0.04805670206840456
-0.019195482385532786 0.01624866420908479 -0.04657679441788989
-0.019807728154871838 0.02187043780397087 -0.045096886767375215
-0.02041997392421089 0.02749221139885695 -0.04361697911686054
-0.02103221969354994 0.03311398499374303 -0.04213707146634587
-0.021644465462888993 0.03873575858862911 -0.0406571638158312
-0.022256711232228044 0.04435753218351519 -0.039177256165316525
-0.0228689570015671 0.049979305778401276 -0.03769734851480185
-0.02348120277090615 0.05560107937328735 -0.03621744086428718
-0.0240934485402452 0.06122285296817344 -0.03473753321377251
-0.018583236616193734 0.01062689061419871 -0.04805670206840456
-0.0209268065975755 0.015592730170042434 -0.046052350019420187
-0.023270376578957263 0.02055856972588616 -0.04404799797043581
-0.025613946560339027 0.025524409281729884 -0.04204364592145143
-0.02795751654172079 0.030490248837573612 -0.040039293872467054
-0.030301086523102556 0.03545608839341733 -0.038034941823482674
-0.032644656504484316 0.040421927949261055 -0.0360305897744983
-0.03498822648586608 0.04538776750510478 -0.03402623772551392
-0.037331796467247845 0.05035360706094851 -0.03202188567652954
-0.039675366448629616 0.05531944661679224 -0.030017533627545168
-0.018583236616193734 0.01062689061419871 -0.04805670206840456
-0.0224041686379005 0.014398670362184661 -0.045745108266184394
-0.026225100659607262 0.018170450110170613 -0.04343351446396423
-0.030046032681314026 0.021942229858156564 -0.04112192066174407
-0.033866964703020794 0.025714009606142514 -0.0388103268595239
-0.037687896724727554 0.029485789354128468 -0.03649873305730374
-0.04150882874643432 0.033257569102114415 -0.03418713925508357
-0.04532976076814109 0.03702934885010037 -0.031875545452863405
-0.04915069278984785 0.04080112859808632 -0.02956395165064324
-0.05297162481155462 0.04457290834607227 -0.02725235784842307
-0.018583236616193734 0.01062689061419871 -0.04805670206840456
-0.02346747340580461 0.01279587969343976 -0.04568836356949262
-0.028351710195415488 0.014964868772680811 -0.04332002507058068
-0.03323594698502637 0.017133857851921862 -0.04095168657166874
-0.038120183774637245 0.019302846931162913 -0.0385833480727568
-0.04300442056424813 0.021471836010403967 -0.03621500957384485
-0.047888657353859006 0.023640825089645014 -0.033846671074932916
-0.05277289414346988 0.025809814168886065 -0.03147833257602097
-0.05765713093308075 0.02797880324812712 -0.02910999407710903
-0.06254136772269164 0.03014779232736817 -0.02674165557819709
-0.018583236616193734 0.01062689061419871 -0.04805670206840456
-0.024001495330812018 0.010958045402625897 -0.0458882650977161
-0.0294197540454303 0.011289200191053088 -0.043719828127027634
-0.03483801276004859 0.011620354979480278 -0.04155139115633917
-0.04025627147466687 0.011951509767907466 -0.03938295418565071
-0.04567453018928516 0.012282664556334656 -0.037214517214962245
-0.05109278890390344 0.012613819344761844 -0.03504608024427378
-0.05651104761852172 0.01294497413318903 -0.032877643273585326
-0.061929306333140005 0.01327612892161622 -0.03070920630289686
-0.0673475650477583 0.01360728371004341 -0.0285407693322084
-0.018583236616193734 0.01062689061419871 -0.04805670206840456
-0.023948364851144238 0.00908432535208998 -0.04632315041848002
-0.029313493086094742 0.0075417600899812505 -0.04458959876855548
-0.034678621321045246 0.005999194827872522 -0.04285604711863094
-0.04004374955599575 0.004456629565763792 -0.041122495468706395
-0.04540887779094626 0.0029140643036550617 -0.03938894381878185
-0.05077400602589676 0.0013714990415463336 -0.03765539216885731
-0.05613913426084727 -0.0001710662205623926 -0.03592184051893277
-0.06150426249579777 -0.001713631482671126 -0.03418828886900823
-0.06686939073074828 -0.003256196744779852 -0.03245473721908368
-0.018583236616193734 0.01062689061419871 -0.04805670206840456
-0.023313839478677614 0.007377766183069733 -0.0469458929593386
-0.028044442341161494 0.004128641751940757 -0.04583508385027263
-0.03277504520364537 0.0008795173208117811 -0.04472427474120666
-0.03750564806612925 -0.002369607110317196 -0.04361346563214069
-0.04223625092861313 -0.005618731541446171 -0.04250265652307473
-0.046966853791097 -0.008867855972575146 -0.04139184741400876
-0.05169745665358089 -0.012116980403704122 -0.04028103830494279
-0.05642805951606477 -0.0153661048348331 -0.03917022919587683
-0.061158662378548646 -0.018615229265962076 -0.03805942008681086
-0.018583236616193734 0.01062689061419871 -0.04805670206840456
-0.022166679883194488 0.006023300061522333 -0.047689008903143676
-0.02575012315019524 0.0014197095088459562 -0.0473213157378828
-0.029333566417195995 -0.003183881043830422 -0.046953622572621916
-0.03291700968419675 -0.007787471596506796 -0.04658592940736103
-0.036500452951197505 -0.012391062149183178 -0.04621823624210015
-0.04008389621819826 -0.016994652701859552 -0.045850543076839265
-0.04366733948519901 -0.021598243254535934 -0.04548284991157838
-0.047250782752199766 -0.0262018338072123 -0.045115156746317504
-0.05083422601920052 -0.03080542435988869 -0.04474746358105662
-0.018583236616193734 0.01062689061419871 -0.04805670206840456
-0.020631198606880584 0.0051677044084247415 -0.04847197010675208
-0.022679160597567433 -0.0002914817973492266 -0.048887238145099605
-0.02472712258825428 -0.00575066800312319 -0.04930250618344712
-0.02677508457894113 -0.011209854208897162 -0.049717774221794644
-0.028823046569627978 -0.016669040414671123 -0.05013304226014216
-0.030871008560314824 -0.02212822662044509 -0.05054831029848968
-0.032918970551001674 -0.02758741282621906 -0.0509635783368372
-0.03496693254168853 -0.033046599031993036 -0.05137884637518472
-0.03701489453237537 -0.038505785237766994 -0.051794114413532245
-0.018583236616193734 0.01062689061419871 -0.04805670206840456
-0.01887378887147133 0.004903696288724513 -0.049209930574858014
-0.01916434112674893 -0.0008194980367496836 -0.05036315908131147
-0.01945489338202653 -0.006542692362223879 -0.05151638758776492
-0.019745445637304126 -0.012265886687698076 -0.05266961609421837
-0.02003599789258172 -0.01798908101317227 -0.053822844600671826
-0.02032655014785932 -0.023712275338646466 -0.054976073107125274
-0.020617102403136918 -0.029435469664120664 -0.05612930161357873
-0.02090765465841452 -0.035158663989594864 -0.057282530120032184
-0.021198206913692112 -0.040881858315069054 -0.05843575862648563
-0.018583236616193734 0.01062689061419871 -0.04805670206840456
-0.01708489329082 0.00525988507869922 -0.049822920840105735
-0.015586549965446263 -0.0001071204568002703 -0.05158913961180691
-0.014088206640072525 -0.0054741259922997595 -0.053355358383508085
-0.012589863314698791 -0.010841131527799249 -0.05512157715520925
-0.011091519989325052 -0.016208137063298742 -0.05688779592691043
-0.009593176663951318 -0.02157514259879823 -0.0586540146986116
-0.008094833338577582 -0.02694214813429772 -0.06042023347031278
-0.0065964900132038495 -0.03230915366979721 -0.06218645224201395
-0.005098146687830112 -0.037676159205296704 -0.06395267101371513
-0.018583236616193734 0.01062689061419871 -0.04805670206840456
-0.01545836645866505 0.006197672196116574 -0.05024451389573168
-0.012333496301136365 0.0017684537780344382 -0.0524323257230588
-0.00920862614360768 -0.0026607646400476953 -0.054620137550385923
-0.006083755986078996 -0.007089983058129832 -0.056807949377713045
-0.0029588858285503096 -0.011519201476211969 -0.05899576120504017
0.0001659843289783735 -0.0159484198942941 -0.06118357303236729
0.003290854486507056 -0.020377638312376233 -0.06337138485969442
0.0064157246440357425 -0.024806856730458373 -0.06555919668702154
0.009540594801564429 -0.029236075148540503 -0.06774700851434866
-0.018583236616193734 0.01062689061419871 -0.04805670206840456
-0.014170467795434653 0.007615433855538012 -0.050429023592468515
-0.009757698974675572 0.004603977096877316 -0.05280134511653247
-0.005344930153916492 0.0015925203382166193 -0.05517366664059642
-0.0009321613331574085 -0.0014189364204440784 -0.057545988164660375
0.0034806074876016745 -0.004430393179104774 -0.05991830968872433
0.00789337630836075 -0.00744184993776547 -0.06229063121278828
0.012306145129119834 -0.010453306696426166 -0.06466295273685223
0.016718913949878917 -0.013464763455086865 -0.06703527426091618
0.021131682770638 -0.016476220213747558 -0.06940759578498014
-0.018583236616193734 0.01062689061419871 -0.04805670206840456
-0.013360761105096586 0.009359533582326456 -0.05035645544171187
-0.008138285593999438 0.008092176550454204 -0.05265620881501917
-0.0029158100829022905 0.006824819518581951 -0.05495596218832648
0.0023066654281948575 0.005557462486709699 -0.05725571556163379
0.007529140939292005 0.004290105454837444 -0.0595554689349411
0.012751616450389153 0.0030227484229651924 -0.0618552223082484
0.0179740919614863 0.001755391391092939 -0.0641549756815557
0.02319656747258345 0.00048803435922068763 -0.06645472905486301
0.02841904298368059 -0.0007793226726515657 -0.06875448242817031
0.018583236616193734 -0.01062689061419871 0.04805670206840456
0.023805712127290882 -0.01189424764607096 0.045756948695097256
0.02902818763838803 -0.013161604677943212 0.04345719532178995
0.034250663149485175 -0.014428961709815464 0.04115744194848264
0.03947313866058232 -0.015696318741687715 0.03885768857517534
0.04469561417167948 -0.016963675773559967 0.03655793520186803
0.04991808968277662 -0.01823103280543222 0.034258181828560726
0.05514056519387377 -0.019498389837304467 0.03195842845525342
0.060363040704970915 -0.02076574686917672 0.029658675081946115
0.06558551621606806 -0.02203310390104897 0.02735892170863881
0.018583236616193734 -0.01062689061419871 0.04805670206840456
0.024049482560944687 -0.010012810119808646 0.046078730808202024
0.02951572850569564 -0.009398729625418583 0.04410075954799948
0.03498197445044659 -0.008784649131028522 0.04212278828779695
0.04044822039519754 -0.008170568636638459 0.040144817027594405
0.045914466339948494 -0.007556488142248396 0.03816684576739186
0.05138071228469944 -0.006942407647858333 0.03618887450718933
0.05684695822945039 -0.006328327153468271 0.034210903246986786
0.06231320417420135 -0.005714246659078208 0.032232931986784244
0.06777945011895231 -0.0051001661646881465 0.030254960726581705
0.018583236616193734 -0.01062689061419871 0.04805670206840456
0.023700900428939835 -0.008197917743554115 0.04661485679873608
0.02881856424168594 -0.005768944872909522 0.045173011529067594
0.03393622805443204 -0.0033399720022649275 0.043731166259399115
0.03905389186717814 -0.000910999131620335 0.04228932098973063
0.04417155567992425 0.0015179737390242577 0.04084747572006215
0.049289219492670344 0.003946946609668853 0.03940563045039367
0.05440688330541645 0.006375919480313446 0.037963785180725185
0.05952454711816255 0.008804892350958039 0.036521939911056706
0.06464221093090866 0.011233865221602631 0.03508009464138822
0.018583236616193734 -0.01062689061419871 0.04805670206840456
0.022797740014088127 -0.0066462422672312884 0.0473072290967732
0.02701224341198252 -0.0026655939202638672 0.04655775612514183
0.031226746809876915 0.0013150544267035544 0.045808283153510466
0.03544125020777131 0.005295702773670974 0.0450588101818791
0.0396557536056657 0.009276351120638397 0.04430933721024774
0.04387025700356009 0.013256999467605817 0.04355986423861637
0.048084760401454485 0.01723764781457324 0.042810391266985014
0.05229926379934888 0.021218296161540657 0.04206091829535365
0.05651376719724328 0.025198944508508087 0.04131144532372228
0.018583236616193734 -0.01062689061419871 0.04805670206840456
0.021437872761316486 -0.005525931805425467 0.04808081842055793
0.024292508906439237 -0.00042497299665222486 0.04810493477271131
0.027147145051561985 0.004675985812121017 0.04812905112486468
0.03000178119668474 0.009776944620894259 0.048153167477018054
0.03285641734180749 0.0148779034296675 0.04817728382917143
0.03571105348693024 0.019978862238440743 0.0482014001813248
0.03856568963205299 0.025079821047213974 0.04822551653347817
0.04142032577717574 0.030180779855987227 0.04824963288563154
0.04427496192229849 0.03528173866476047 0.048273749237784915
0.018583236616193734 -0.01062689061419871 0.04805670206840456
0.01976866138797721 -0.004958389380081205 0.04885179436338309
0.02095408615976068 0.0007101118540362997 0.04964688665836162
0.022139510931544152 0.006378613088153802 0.050441978953340155
0.023324935703327627 0.012047114322271308 0.051237071248318694
0.0245103604751111 0.017715615556388807 0.052032163543297226
0.025695785246894573 0.023384116790506313 0.05282725583827576
0.026881210018678048 0.029052618024623823 0.05362234813325429
0.028066634790461523 0.03472111925874133 0.05441744042823282
0.029252059562244994 0.040389620492858824 0.055212532723211354
0.018583236616193734 -0.01062689061419871 0.04805670206840456
0.017970990846854683 -0.005005117019312629 0.04953660971891923
0.01735874507751563 0.0006166565755734522 0.051016517369433904
0.01674649930817658 0.006238430170459532 0.05249642501994858
0.016134253538837524 0.011860203765345613 0.053976332670463256
0.015522007769498474 0.017481977360231698 0.05545624032097793
0.014909762000159423 0.023103750955117772 0.0569361479714926
0.01429751623082037 0.02872552455000386 0.058416055622007274
0.013685270461481318 0.03434729814488994 0.059895963272521946
0.013073024692142268 0.03996907173977603 0.06137587092303662
0.018583236616193734 -0.01062689061419871 0.04805670206840456
0.01623966663481197 -0.0056610510583549834 0.05006105411738894
0.013896096653430206 -0.0006952115025112574 0.05206540616637332
0.011552526672048442 0.0042706280533324655 0.05406975821535769
0.009208956690666677 0.009236467609176194 0.05607411026434207
0.006865386709284913 0.014202307165019915 0.05807846231332645
0.004521816727903149 0.01916814672086364 0.060082814362310825
0.0021782467465213846 0.024133986276707365 0.062087166411295205
-0.00016532323486037983 0.029099825832551097 0.06409151846027958
-0.0025088932162421473 0.034065665388394825 0.06609587050926395
0.018583236616193734 -0.01062689061419871 0.04805670206840456
0.01476230459448697 -0.006855110866212757 0.050368295870624726
0.010941372572780205 -0.0030833311182268054 0.05267988967284489
0.007120440551073441 0.0006884486297591457 0.05499148347506506
0.003299508529366677 0.0044602283777450975 0.05730307727728522
-0.0005214234923400891 0.00823200812573105 0.05961467107950539
-0.004342355514046853 0.012003787873717 0.061926264881725555
-0.008163287535753624 0.01577556762170295 0.06423785868394571
-0.01198421955746038 0.019547347369688904 0.06654945248616588
-0.01580515157916715 0.023319127117674854 0.06886104628838606
0.018583236616193734 -0.01062689061419871 0.04805670206840456
0.013698999826582856 -0.008457901534957658 0.050425040567316504
0.008814763036971979 -0.006288912455716607 0.05279337906622845
0.003930526247361099 -0.004119923376475556 0.055161717565140385
-0.0009537105422497765 -0.0019509342972345036 0.05753005606405233
-0.0058379473318606635 0.00021805478200654892 0.05989839456296427
-0.010722184121471537 0.002387043861247598 0.06226673306187621
-0.015606420911082417 0.0045560329404886486 0.06463507156078815
-0.020490657700693287 0.006725022019729701 0.06700341005970009
-0.025374894490304178 0.008894011098970752 0.06937174855861203
0.018583236616193734 -0.01062689061419871 0.04805670206840456
0.01316497790157545 -0.01029573582577152 0.05022513903909302
0.007746719186957166 -0.009964581037344331 0.052393576009781485
0.0023284604723388808 -0.00963342624891714 0.05456201298046995
-0.0030897982422794026 -0.009302271460489953 0.05673044995115841
-0.008508056956897693 -0.008971116672062763 0.058898886921846874
-0.013926315671515973 -0.008639961883635573 0.06106732389253534
-0.019344574386134256 -0.008308807095208386 0.0632357608632238
-0.02476283310075254 -0.007977652306781196 0.06540419783391227
-0.030181091815370823 -0.007646497518354008 0.06757263480460073
0.018583236616193734 -0.01062689061419871 0.04805670206840456
0.013218108381243229 -0.012169455876307439 0.049790253718329104
0.007852980146292725 -0.013712021138416167 0.05152380536825364
0.0024878519113422197 -0.015254586400524897 0.053257357018178186
-0.002877276323608284 -0.016797151662633625 0.05499090866810273
-0.008242404558558791 -0.018339716924742355 0.05672446031802727
-0.013607532793509295 -0.019882282186851084 0.05845801196795181
-0.018972661028459802 -0.02142484744895981 0.06019156361787635
-0.024337789263410303 -0.022967412711068544 0.061925115267800895
-0.029702917498360817 -0.02450997797317727 0.06365866691772544
0.018583236616193734 -0.01062689061419871 0.04805670206840456
0.013852633753709855 -0.013876015045327685 0.04916751117747053
0.009122030891225975 -0.01712513947645666 0.0502783202865365
0.004391428028742098 -0.020374263907585635 0.05138912939560246
-0.0003391748337417853 -0.023623388338714614 0.05249993850466843
-0.0050697776962256615 -0.02687251276984359 0.0536107476137344
-0.009800380558709538 -0.030121637200972565 0.054721556722800366
-0.014530983421193421 -0.03337076163210154 0.055832365831866335
-0.019261586283677305 -0.036619886063230515 0.0569431749409323
-0.02399218914616118 -0.039869010494359494 0.058053984049998265
0.018583236616193734 -0.01062689061419871 0.04805670206840456
0.014999793349192981 -0.015230481166875086 0.04842439523366544
0.011416350082192226 -0.019834071719551462 0.04879208839892633
0.007832906815191472 -0.02443766227222784 0.04915978156418721
0.004249463548190719 -0.029041252824904214 0.049527474729448094
0.0006660202811899633 -0.03364484337758059 0.04989516789470898
-0.00291742298581079 -0.03824843393025697 0.050262861059969854
-0.006500866252811547 -0.04285202448293335 0.05063055422523074
-0.010084309519812297 -0.047455615035609716 0.05099824739049162
-0.013667752786813054 -0.052059205588286105 0.051365940555752505
0.018583236616193734 -0.01062689061419871 0.04805670206840456
0.016535274625506885 -0.016086076819972678 0.047641434030057044
0.014487312634820036 -0.021545263025746643 0.04722616599170952
0.01243935064413319 -0.027004449231520608 0.046810897953362005
0.010391388653446338 -0.03246363543729458 0.04639562991501448
0.00834342666275949 -0.03792282164306854 0.04598036187666696
0.006295464672072645 -0.0433820078488425 0.04556509383831944
0.004247502681385795 -0.048841194054616476 0.04514982579997192
0.0021995406906989423 -0.05430038026039045 0.0447345577616244
0.00015157870001209612 -0.059759566466164406 0.04431928972327688
0.018583236616193734 -0.01062689061419871 0.04805670206840456
0.018292684360916137 -0.016350084939672906 0.04690347356195111
0.018002132105638537 -0.0220732792651471 0.04575024505549766
0.01771157985036094 -0.027796473590621297 0.0445970165490442
0.017421027595083342 -0.033519667916095494 0.043443788042590754
0.017130475339805745 -0.039242862241569684 0.0422905595361373
0.016839923084528145 -0.04496605656704388 0.041137331029683845
0.016549370829250547 -0.05068925089251808 0.0399841025232304
0.01625881857397295 -0.056412445217992276 0.03883087401677694
0.015968266318695353 -0.062135639543466466 0.03767764551032349
0.018583236616193734 -0.01062689061419871 0.04805670206840456
0.02008157994156747 -0.0159938961496982 0.04629048329670339
0.021579923266941206 -0.02136090168519769 0.044524264525002216
0.023078266592314944 -0.026727907220697178 0.04275804575330104
0.024576609917688678 -0.032094912756196664 0.040991826981599866
0.026074953243062415 -0.03746191829169616 0.03922560820989869
0.02757329656843615 -0.04282892382719564 0.03745938943819752
0.029071639893809887 -0.048195929362695136 0.03569317066649635
0.030569983219183618 -0.05356293489819462 0.03392695189479517
0.03206832654455736 -0.058929940433694115 0.032160733123094
0.018583236616193734 -0.01062689061419871 0.04805670206840456
0.021708106773722417 -0.015056109032280844 0.04586889024107744
0.024832976931251104 -0.01948532745036298 0.04368107841375032
0.027957847088779787 -0.023914545868445113 0.041493266586423196
0.031082717246308473 -0.02834376428652725 0.039305454759096074
0.034207587403837156 -0.032772982704609384 0.03711764293176895
0.03733245756136584 -0.037202201122691514 0.03492983110444183
0.04045732771889452 -0.04163141954077365 0.03274201927711471
0.04358219787642321 -0.04606063795885579 0.030554207449787592
0.046707068033951894 -0.05048985637693792 0.028366395622460468
0.018583236616193734 -0.01062689061419871 0.04805670206840456
0.022996005436952814 -0.013638347372859405 0.04568438054434061
0.027408774257711897 -0.0166498041315201 0.043312059020276655
0.031821543078470974 -0.019661260890180797 0.0409397374962127
0.03623431189923006 -0.022672717648841496 0.03856741597214875
0.04064708071998914 -0.025684174407502192 0.036195094448084796
0.045059849540748216 -0.028695631166162888 0.03382277292402085
0.0494726183615073 -0.03170708792482358 0.03145045139995689
0.05388538718226638 -0.03471854468348428 0.02907812987589294
0.058298156003025466 -0.03773000144214497 0.026705808351828984
0.018583236616193734 -0.01062689061419871 0.04805670206840456
0.023805712127290882 -0.01189424764607096 0.045756948695097256
0.02902818763838803 -0.013161604677943214 0.04345719532178995
0.034250663149485175 -0.014428961709815467 0.04115744194848264
0.03947313866058232 -0.01569631874168772 0.03885768857517534
0.04469561417167947 -0.016963675773559974 0.03655793520186803
0.04991808968277662 -0.018231032805432226 0.034258181828560726
0.05514056519387377 -0.019498389837304477 0.03195842845525342
0.060363040704970915 -0.02076574686917673 0.029658675081946115
0.06558551621606806 -0.022033103901048984 0.02735892170863881
