# .PCD v0.7 - Point Cloud Data file format
VERSION 0.7
FIELDS x y z
SIZE 4 4 4
TYPE F F F
COUNT 1 1 1
WIDTH 700
HEIGHT 1
VIEWPOINT 0 0 0 1 0 0 0
POINTS 700
DATA ascii
0.06987022315939356 0.0703405729205328 -0.11192919297780861
0.06535296838861047 0.08953194151507364 -0.1003534229368111
0.056340701364946066 0.10672678222345362 -0.08827744813784118
0.04325482567801152 0.12112108340484173 -0.07626592774101669
0.026707222331021675 0.13204178353411297 -0.06488050709024706
0.007471638865141563 0.13897824281070909 -0.05465355580117608
-0.013552490215579754 0.14160612010817716 -0.04606327474964074
-0.03538210000196891 0.13980253880476345 -0.0395113359301992
-0.05699646220228309 0.13365183235767897 -0.03530410072009151
-0.07738491326267376 0.1234416009643701 -0.03363829476173627
-0.09559411187169284 0.10964926369693087 -0.034591809290335805
-0.1107726161404533 0.09291973491690485 -0.03812005902628808
-0.12221069607904378 0.07403526879651023 -0.04405806693330792
-0.12937351978204853 0.05387888198296012 -0.05212817836128483
-0.13192616157402182 0.03339306472144121 -0.061953043869131245
-0.12974926276182855 0.013535711058751478 -0.07307326366525403
-0.12294461271447764 -0.00476467121770512 -0.08496886863122308
-0.11183038930535787 -0.020652376572095513 -0.097083633499845
-0.09692628126850761 -0.033384513559964656 -0.10885108533045712
-0.07892918813100362 -0.04236574160651365 -0.11972099115404335
-0.05868063396562318 -0.04717610847020393 -0.12918508625532543
-0.03712741866048792 -0.04759068674282813 -0.13680084006595364
-0.015277346608587672 -0.043590091205128946 -0.14221214840204538
0.005847897105541571 -0.03536138525810665 -0.1451659845000423
0.02526051956484916 -0.02328933404629419 -0.14552423026695507
0.04205280811871809 -0.007938413267234667 -0.14327013452888443
0.0554395740176577 0.009973585084766114 -0.13850909629729505
0.06479486696655522 0.029609115874524854 -0.1314637364283822
0.0696812438647816 0.0500500435056376 -0.12246348811926105
0.06987022315939356 0.07034057292053278 -0.11192919297780862
0.07670994511433925 0.05993311049650165 -0.09200566190139571
0.07219269034355616 0.07912447909104248 -0.08042989186039819
0.06318042331989175 0.09631931979942246 -0.06835391706142827
0.050094547632957204 0.11071362098081057 -0.05634239666460378
0.03354694428596736 0.12163432111008181 -0.04495697601383415
0.014311360820087249 0.12857078038667794 -0.03473002472476318
-0.006712768260634068 0.13119865768414601 -0.026139743673227835
-0.028542378047023222 0.1293950763807323 -0.019587804853786292
-0.050156740247337406 0.1232443699336478 -0.015380569643678609
-0.07054519130772807 0.11303413854033893 -0.013714763685323367
-0.08875438991674715 0.09924180127289971 -0.014668278213922902
-0.10393289418550762 0.08251227249287368 -0.018196527949875176
-0.1153709741240981 0.06362780637247907 -0.024134535856895012
-0.12253379782710283 0.04347141955892897 -0.03220464728487193
-0.12508643961907612 0.02298560229741006 -0.04202951279271834
-0.12290954080688285 0.003128248634720322 -0.05314973258884113
-0.11610489075953195 -0.015172133641736276 -0.06504533755481016
-0.10499066735041218 -0.03105983899612667 -0.0771601024234321
-0.09008655931356192 -0.043791975983995805 -0.08892755425404422
-0.07208946617605794 -0.0527732040305448 -0.09979746007763043
-0.051840912010677496 -0.05758357089423508 -0.10926155517891253
-0.03028769670554223 -0.05799814916685928 -0.11687730898954073
-0.008437624653641987 -0.053997553629160096 -0.12228861732563248
0.012687619060487257 -0.0457688476821378 -0.1252424534236294
0.03210024151979485 -0.03369679647032534 -0.12560069919054218
0.04889253007366377 -0.018345875691265823 -0.12334660345247152
0.062279295972603385 -0.0004338773392650417 -0.11858556522088215
0.0716345889215009 0.019201653450493697 -0.11154020535196928
0.07652096581972728 0.03964258108160645 -0.10253995704284814
0.07670994511433925 0.05993311049650163 -0.09200566190139572
0.08354966706928493 0.04952564807247051 -0.07208213082498281
0.07903241229850184 0.06871701666701134 -0.060506360783985295
0.07002014527483744 0.08591185737539132 -0.048430385985015374
0.05693426958790288 0.10030615855677943 -0.03641886558819089
0.04038666624091304 0.11122685868605067 -0.025033444937421264
0.02115108277503293 0.11816331796264679 -0.01480649364835029
0.00012695369431161172 0.12079119526011486 -0.006216212596814947
-0.021702656092077544 0.11898761395670115 0.0003357262226265958
-0.04331701829239172 0.11283690750961667 0.004542961432734281
-0.06370546935278239 0.1026266761163078 0.006208767391089522
-0.08191466796180147 0.08883433884886857 0.005255252862489988
-0.09709317223056194 0.07210481006884255 0.0017270031265377123
-0.10853125216915241 0.05322034394844793 -0.004211004780482124
-0.11569407587215715 0.03306395713489782 -0.01228111620845904
-0.11824671766413043 0.012578139873378913 -0.022105981716305453
-0.11606981885193716 -0.007279213789310824 -0.033226201512428236
-0.10926516880458627 -0.025579596065767422 -0.045121806478397274
-0.0981509453954665 -0.041467301420157816 -0.05723657134701921
-0.08324683735861624 -0.054199438408026955 -0.06900402317763132
-0.06524974422111225 -0.06318066645457594 -0.07987392900121755
-0.04500119005573181 -0.06799103331826623 -0.08933802410249964
-0.023447974750596554 -0.06840561159089042 -0.09695377791312784
-0.0015979026986963065 -0.06440501605319124 -0.1023650862492196
0.019527341015432936 -0.05617631010616895 -0.10531892234721651
0.038939963474740526 -0.04410425889435649 -0.10567716811412928
0.05573225202860945 -0.02875333811529697 -0.10342307237605863
0.06911901792754907 -0.010841339763296189 -0.09866203414446927
0.07847431087644659 0.00879419102646255 -0.09161667427555639
0.08336068777467297 0.029235118657575297 -0.08261642596643526
0.08354966706928493 0.049525648072470486 -0.07208213082498283
0.09038938902423062 0.03911818564843935 -0.052158599748569914
0.08587213425344753 0.058309554242980184 -0.0405828297075724
0.07685986722978312 0.07550439495136016 -0.028506854908602476
0.06377399154284857 0.08989869613274827 -0.01649533451177799
0.047226388195858726 0.10081939626201951 -0.0051099138610083625
0.027990804729978613 0.10775585553861562 0.005117037428062611
0.006966675649257296 0.1103837328360837 0.013707318479597955
-0.01486293413713186 0.10858015153266999 0.020259257299039497
-0.036477296337446036 0.1024294450855855 0.024466492509147182
-0.05686574739783671 0.09221921369227663 0.026132298467502424
-0.07507494600685578 0.07842687642483741 0.02517878393890289
-0.09025345027561625 0.06169734764481139 0.021650534202950614
-0.10169153021420672 0.04281288152441678 0.015712526295930777
-0.10885435391721146 0.02265649471086667 0.007642414867953862
-0.11140699570918475 0.0021706774493477615 -0.0021824506398925515
-0.10923009689699148 -0.017686676213341974 -0.013302670436015334
-0.10242544684964058 -0.03598705848979857 -0.025198275401984375
-0.09131122344052081 -0.051874763844188966 -0.037313040270606314
-0.07640711540367055 -0.06460690083205811 -0.049080492101218426
-0.058410022266166574 -0.0735881288786071 -0.05995039792480465
-0.038161468100786126 -0.07839849574229739 -0.06941449302608674
-0.01660825279565087 -0.07881307401492159 -0.07703024683671494
0.005241819256249378 -0.0748124784772224 -0.0824415551728067
0.02636706297037862 -0.0665837725302001 -0.08539539127080362
0.04577968542968621 -0.05451172131838764 -0.08575363703771638
0.06257197398355514 -0.03916080053932812 -0.08349954129964574
0.07595873988249476 -0.02124880218732734 -0.07873850306805637
0.08531403283139227 -0.0016132713975686008 -0.0716931431991435
0.09020040972961865 0.018827656233544147 -0.06269289489002236
0.09038938902423062 0.03911818564843933 -0.05215859974856993
0.09722911097917629 0.0287107232244082 -0.03223506867215701
0.0927118562083932 0.04790209181894903 -0.020659298631159496
0.08369958918472879 0.06509693252732901 -0.008583323832189575
0.07061371349779424 0.07949123370871712 0.0034281965646349136
0.05406611015080441 0.09041193383798836 0.014813617215404539
0.0348305266849243 0.09734839311458447 0.025040568504475513
0.01380639760420298 0.09997627041205255 0.03363084955601086
-0.008023212182186174 0.09817268910863884 0.0401827883754524
-0.029637574382500354 0.09202198266155436 0.04439002358556009
-0.050026025442891024 0.08181175126824548 0.04605582954391533
-0.06823522405191011 0.06801941400080626 0.045102315015315794
-0.08341372832067058 0.051289885220780235 0.04157406527936352
-0.09485180825926105 0.03240541910038562 0.03563605737234368
-0.10201463196226579 0.012249032286835515 0.027565945944366763
-0.10456727375423908 -0.008236784974683392 0.01774108043652035
-0.10239037494204581 -0.028094138637373128 0.006620860640397568
-0.09558572489469491 -0.04639452091382973 -0.005274744325571473
-0.08447150148557514 -0.06228222626822012 -0.01738950919419341
-0.06956739344872488 -0.07501436325608926 -0.029156961024805524
-0.05157030031122089 -0.08399559130263826 -0.04002686684839175
-0.03132174614584045 -0.08880595816632854 -0.04949096194967383
-0.009768530840705184 -0.08922053643895274 -0.05710671576030203
0.012081541211195063 -0.08521994090125355 -0.06251802409639379
0.033206784925324306 -0.07699123495423126 -0.06547186019439072
0.052619407384631896 -0.0649191837424188 -0.06583010596130348
0.06941169593850081 -0.049568262963359276 -0.06357601022323282
0.08279846183744043 -0.031656264611358495 -0.058814971991643455
0.09215375478633794 -0.012020733821599754 -0.05176961212273058
0.09704013168456432 0.008420193809512993 -0.04276936381360945
0.09722911097917629 0.02871072322440818 -0.03223506867215702
0.10406883293412199 0.018303260800377044 -0.012311537595744108
0.0995515781633389 0.03749462939491788 -0.0007357675547465912
0.09053931113967449 0.05468947010329786 0.01134020724422333
0.07745343545273994 0.06908377128468597 0.023351727641047818
0.060905832105750096 0.08000447141395721 0.03473714829181744
0.04167024863986998 0.08694093069055332 0.044964099580888414
0.020646119559148666 0.0895688079880214 0.05355438063242376
-0.001183490227240489 0.08776522668460769 0.0601063194518653
-0.02279785242755467 0.0816145202375232 0.06431355466197299
-0.04318630348794534 0.07140428884421433 0.06597936062032823
-0.06139550209696442 0.05761195157677511 0.06502584609172869
-0.07657400636572488 0.040882422796749085 0.06149759635577642
-0.08801208630431535 0.021997956676354468 0.05555958844875658
-0.09517491000732009 0.001841569862804362 0.047489477020779665
-0.09772755179929338 -0.018644247398714547 0.03766461151293325
-0.09555065298710011 -0.03850160106140428 0.026544391716810473
-0.08874600293974921 -0.05680198333786088 0.014648786750841431
-0.07763177953062944 -0.07268968869225127 0.002534021882219496
-0.06272767149377918 -0.08542182568012041 -0.00923342994839262
-0.044730578356275204 -0.0944030537266694 -0.020103335771978842
-0.02448202419089476 -0.09921342059035969 -0.02956743087326093
-0.0029288088857594985 -0.09962799886298389 -0.037183184683889134
0.018921263166140748 -0.0956274033252847 -0.04259449301998089
0.04004650688026999 -0.0873986973782624 -0.045548329117977814
0.05945912933957758 -0.07532664616644995 -0.045906574884890576
0.07625141789344651 -0.059975725387390426 -0.043652479146819925
0.08963818379238613 -0.042063727035389645 -0.03889144091523056
0.09899347674128364 -0.02242819624563091 -0.031846081046317684
0.10387985363951002 -0.001987268614518161 -0.022845832737196547
0.10406883293412199 0.018303260800377023 -0.012311537595744122
0.11090855488906766 0.0078957983763459 0.007611993480668783
0.10639130011828457 0.027087166970886728 0.0191877635216663
0.09737903309462016 0.04428200767926671 0.03126373832063622
0.08429315740768561 0.05867630886065482 0.043275258717460706
0.06774555406069578 0.06959700898992606 0.05466067936823033
0.04850997059481566 0.07653346826652217 0.06488763065730131
0.027485841514094347 0.07916134556399025 0.07347791170883665
0.0056562317277051915 0.07735776426057654 0.0800298505282782
-0.015958130472608988 0.07120705781349206 0.08423708573838588
-0.03634658153299966 0.060996826420183184 0.08590289169674112
-0.05455578014201874 0.04720448915274396 0.08494937716814159
-0.06973428441077921 0.030474960372717935 0.08142112743218931
-0.08117236434936968 0.011590494252323323 0.07548311952516948
-0.08833518805237442 -0.008565892561226784 0.06741300809719256
-0.0908878298443477 -0.029051709822745693 0.05758814258934614
-0.08871093103215444 -0.04890906348543543 0.046467922793223364
-0.08190628098480354 -0.06720944576189203 0.03457231782725432
-0.07079205757568377 -0.08309715111628242 0.022457552958632387
-0.05588794953883351 -0.09582928810415156 0.01069010112802027
-0.037890856401329526 -0.10481051615070056 -0.0001798046955659517
-0.01764230223594908 -0.10962088301439084 -0.009643899796848042
0.003910913069186182 -0.11003546128701504 -0.01725965360747624
0.02576098512108643 -0.10603486574931585 -0.022670961943567994
0.04688622883521567 -0.09780615980229355 -0.02562479804156492
0.06629885129452326 -0.0857341085904811 -0.02598304380847768
0.08309113984839218 -0.07038318781142157 -0.02372894807040703
0.0964779057473318 -0.052471189459420794 -0.018967909838817663
0.10583319869622931 -0.03283565866966205 -0.011922549969904791
0.1107195755944557 -0.012394731038549307 -0.0029223016607836565
0.11090855488906766 0.007895798376345879 0.007611993480668769
0.11774827684401334 -0.0025116640476852566 0.02753552455708169
0.11323102207323026 0.016679704546855575 0.03911129459807921
0.10421875504956585 0.033874545255235554 0.05118726939704913
0.0911328793626313 0.048268846436623665 0.06319878979387361
0.07458527601564147 0.0591895465658949 0.07458421044464324
0.05534969254976135 0.06612600584249102 0.08481116173371421
0.03432556346904003 0.0687538831399591 0.09340144278524956
0.012495953682650877 0.06695030183654539 0.0999533816046911
-0.009118408517663303 0.0607995953894609 0.10416061681479878
-0.029506859578053973 0.05058936399615203 0.10582642277315403
-0.04771605818707305 0.0367970267287128 0.10487290824455449
-0.06289456245583352 0.020067497948686782 0.10134465850860222
-0.074332642394424 0.0011830318282921675 0.09540665060158238
-0.08149546609742873 -0.01897335498525794 0.08733653917360547
-0.08404810788940202 -0.03945917224677685 0.07751167366575905
-0.08187120907720875 -0.05931652590946659 0.06639145386963627
-0.07506655902985786 -0.07761690818592318 0.05449584890366723
-0.06395233562073808 -0.09350461354031357 0.04238108403504529
-0.04904822758388782 -0.10623675052818271 0.030613632204433177
-0.031051134446383837 -0.1152179785747317 0.019743726380846954
-0.010802580281003393 -0.12002834543842199 0.010279631279564867
0.010750635024131868 -0.12044292371104619 0.0026638774689366667
0.03260070707603212 -0.116442328173347 -0.0027474308671550885
0.05372595079016136 -0.1082136222263247 -0.005701266965152013
0.07313857324946894 -0.09614157101451225 -0.0060595127320647755
0.08993086180333787 -0.08079065023545273 -0.0038054169939941247
0.10331762770227748 -0.06287865188345194 0.0009556212375952433
0.112672920651175 -0.04324312109369321 0.008000981106508117
0.11755929754940138 -0.022802193462580462 0.01700122941562925
0.11774827684401334 -0.0025116640476852774 0.027535524557081675
0.12458799879895903 -0.012919126471716405 0.04745905563349458
0.12007074402817594 0.006272242122824424 0.0590348256744921
0.11105847700451153 0.023467082831204408 0.07111080047346202
0.09797260131757698 0.037861384012592515 0.08312232087028651
0.08142499797058715 0.04878208414186375 0.09450774152105614
0.06218941450470703 0.055718543418459866 0.10473469281012711
0.04116528542398572 0.058346420715927945 0.11332497386166246
0.01933567563759656 0.056542839412514236 0.119876912681104
-0.0022786865627176197 0.05039213296542975 0.12408414789121168
-0.02266713762310829 0.04018190157212088 0.12574995384956691
-0.04087633623212737 0.026389564304681656 0.12479643932096739
-0.05605484050088784 0.009660035524655632 0.12126818958501512
-0.06749292043947831 -0.009224430595738981 0.11533018167799527
-0.07465574414248305 -0.02938081740928909 0.10726007025001837
-0.07720838593445634 -0.049866634670808 0.09743520474217195
-0.07503148712226307 -0.06972398833349773 0.08631498494604917
-0.06822683707491217 -0.08802437060995433 0.07441937998008012
-0.0571126136657924 -0.10391207596434472 0.06230461511145819
-0.04220850562894214 -0.11664421295221386 0.05053716328084607
-0.024211412491438156 -0.12562544099876286 0.03966725745725985
-0.003962858326057711 -0.13043580786245315 0.03020316235597776
0.01759035697907755 -0.13085038613507735 0.02258740854534956
0.039440429030977796 -0.12684979059737816 0.017176100209257805
0.06056567274510704 -0.11862108465035585 0.014222264111260883
0.07997829520441463 -0.1065490334385434 0.01386401834434812
0.09677058375828355 -0.09119811265948388 0.01611811408241877
0.11015734965722317 -0.0732861143074831 0.020879152314008137
0.11951264260612068 -0.05365058351772436 0.02792451218292101
0.12439901950434706 -0.033209655886611615 0.036924760492042144
0.12458799879895903 -0.012919126471716426 0.04745905563349457
0.13142772075390471 -0.02332658889574756 0.06738258670990749
0.12691046598312164 -0.004135220301206731 0.07895835675090501
0.11789819895945722 0.013059620407173251 0.09103433154987493
0.10481232327252267 0.027453921588561362 0.10304585194669942
0.08826471992553284 0.038374621717832604 0.11443127259746905
0.06902913645965272 0.04531108099442872 0.12465822388654002
0.0480050073789314 0.047938958291896795 0.13324850493807536
0.026175397592542247 0.046135376988483086 0.1398004437575169
0.004561035392228067 0.0399846705413986 0.1440076789676246
-0.015827415668162603 0.029774439148089724 0.14567348492597984
-0.03403661427718169 0.0159821018806505 0.1447199703973803
-0.049215118545942155 -0.0007474268993755236 0.14119172066142802
-0.06065319848453263 -0.019631893019770138 0.13525371275440817
-0.06781602218753736 -0.03978827983332024 0.12718360132643128
-0.07036866397951065 -0.06027409709483915 0.11735873581858486
-0.06819176516731738 -0.0801314507575289 0.10623851602246207
-0.06138711511996649 -0.09843183303398549 0.09434291105649303
-0.050272891710846715 -0.11431953838837589 0.0822281461878711
-0.03536878367399646 -0.127051675376245 0.07046069435725898
-0.017371690536492467 -0.136032903422794 0.05959078853367276
0.002876863628887976 -0.1408432702864843 0.050126693432390665
0.024430078934023238 -0.1412578485591085 0.042510939621762465
0.04628015098592348 -0.13725725302140931 0.03709963128567071
0.06740539470005273 -0.12902854707438702 0.034145795187673786
0.08681801715936031 -0.11695649586257456 0.03378754942076102
0.10361030571322924 -0.10160557508351503 0.036041645158831674
0.11699707161216885 -0.08369357673151426 0.04080268339042104
0.12635236456106638 -0.06405804594175551 0.047848043259333915
0.13123874145929276 -0.043617118310642765 0.05684829156845505
0.13142772075390471 -0.023326588895747583 0.06738258670990747
-0.03077874879725558 0.04683358090814018 -0.08965588984385806
-0.01959552969096123 0.04944546890951714 -0.09213070130318589
-0.008412310584666882 0.0520573569108941 -0.09460551276251374
0.0027709085216274633 0.054669244912271056 -0.09708032422184157
0.013954127627921814 0.05728113291364802 -0.09955513568116942
0.02513734673421617 0.05989302091502497 -0.10202994714049725
0.03632056584051051 0.06250490891640192 -0.1045047585998251
0.04750378494680485 0.06511679691777889 -0.10697957005915293
0.05868700405309921 0.06772868491915585 -0.10945438151848078
0.06987022315939356 0.0703405729205328 -0.11192919297780861
-0.03077874879725558 0.04683358090814018 -0.08965588984385806
-0.02056466683187768 0.05261700235829231 -0.09014128267941143
-0.010350584866499783 0.05840042380844443 -0.09062667551496481
-0.00013650290112189492 0.06418384525859655 -0.09111206835051819
0.010077579064256012 0.06996726670874868 -0.09159746118607158
0.020291661029633905 0.0757506881589008 -0.09208285402162496
0.030505742995011787 0.08153410960905293 -0.09256824685717834
0.040719824960389714 0.08731753105920505 -0.09305363969273173
0.0509339069257676 0.09310095250935718 -0.0935390325282851
0.061147988891145505 0.0988843739595093 -0.09402442536383848
-0.03077874879725558 0.04683358090814018 -0.08965588984385806
-0.022640658241554083 0.05516181235391356 -0.0880992642102589
-0.01450256768585259 0.06349004379968694 -0.08654263857665977
-0.006364477130151101 0.0718182752454603 -0.08498601294306063
0.0017736134255503984 0.08014650669123369 -0.08342938730946148
0.009911703981251891 0.08847473813700707 -0.08187276167586234
0.018049794536953375 0.09680296958278044 -0.0803161360422632
0.026187885092654867 0.10513120102855382 -0.07875951040866405
0.03432597564835638 0.1134594324743272 -0.07720288477506491
0.042464066204057876 0.12178766392010057 -0.07564625914146578
-0.03077874879725558 0.04683358090814018 -0.08965588984385806
-0.02559853803842633 0.05680412924655979 -0.08622593028204219
-0.02041832727959708 0.06677467758497939 -0.08279597072022632
-0.015238116520767836 0.07674522592339898 -0.07936601115841045
-0.010057905761938586 0.08671577426181859 -0.07593605159659458
-0.004877695003109336 0.0966863226002382 -0.07250609203477872
0.00030251575571990414 0.10665687093865779 -0.06907613247296285
0.005482726514549151 0.1166274192770774 -0.06564617291114698
0.010662937273378406 0.126597967615497 -0.06221621334933112
0.015843148032207644 0.1365685159539166 -0.05878625378751524
-0.03077874879725558 0.04683358090814018 -0.08965588984385806
-0.029117774050269413 0.057365982517740555 -0.0847242856936544
-0.027456799303283246 0.06789838412734094 -0.07979268154345073
-0.02579582455629708 0.0784307857369413 -0.07486107739324707
-0.024134849809310917 0.08896318734654168 -0.0699294732430434
-0.02247387506232475 0.09949558895614205 -0.06499786909283975
-0.020812900315338584 0.11002799056574242 -0.06006626494263609
-0.019151925568352417 0.1205603921753428 -0.05513466079243243
-0.017490950821366254 0.13109279378494318 -0.05020305664222875
-0.015829976074380088 0.14162519539454355 -0.0452714524920251
-0.03077874879725558 0.04683358090814018 -0.08965588984385806
-0.0328170024486271 0.05678648664747168 -0.08375705693666385
-0.034855256099998615 0.06673939238680318 -0.07785822402946967
-0.03689350975137013 0.07669229812613466 -0.07195939112227548
-0.03893176340274165 0.08664520386546617 -0.06606055821508128
-0.04097001705411317 0.09659810960479767 -0.0601617253078871
-0.043008270705484686 0.10655101534412915 -0.05426289240069291
-0.0450465243568562 0.11650392108346068 -0.04836405949349871
-0.04708477800822772 0.12645682682279216 -0.042465226586304514
-0.049123031659599234 0.13640973256212366 -0.03656639367911033
-0.03077874879725558 0.04683358090814018 -0.08965588984385806
-0.036295354437094654 0.05512843900510168 -0.08342905825499101
-0.04181196007693373 0.06342329710206317 -0.07720222666612399
-0.047328565716772804 0.07171815519902466 -0.07097539507725696
-0.05284517135661188 0.08001301329598616 -0.06474856348838992
-0.058361776996450954 0.08830787139294766 -0.058521731899522894
-0.06387838263629003 0.09660272948990914 -0.052294900310655874
-0.06939498827612911 0.10489758758687065 -0.046068068721788834
-0.07491159391596819 0.11319244568383213 -0.0398412371329218
-0.08042819955580727 0.12148730378079364 -0.03361440554405477
-0.03077874879725558 0.04683358090814018 -0.08965588984385806
-0.03917589660552958 0.05257151477994128 -0.08377583339521905
-0.047573044413803584 0.058309448651742375 -0.07789577694658005
-0.05597019222207758 0.06404738252354346 -0.07201572049794105
-0.06436734003035159 0.06978531639534456 -0.06613566404930205
-0.0727644878386256 0.07552325026714565 -0.06025560760066304
-0.08116163564689959 0.08126118413894674 -0.05437555115202405
-0.0895587834551736 0.08699911801074785 -0.04849549470338505
-0.0979559312634476 0.09273705188254894 -0.04261543825474605
-0.10635307907172159 0.09847498575435004 -0.03673538180610705
-0.03077874879725558 0.04683358090814018 -0.08965588984385806
-0.041146477513765 0.0493927963865538 -0.08475980389013354
-0.05151420623027442 0.05195201186496741 -0.07986371793640903
-0.06188193494678383 0.05451122734338102 -0.07496763198268454
-0.07224966366329326 0.05707044282179463 -0.07007154602896003
-0.08261739237980267 0.05962965830020825 -0.06517546007523552
-0.09298512109631209 0.06218887377862186 -0.06027937412151101
-0.10335284981282152 0.06474808925703547 -0.0553832881677865
-0.11372057852933093 0.06730730473544907 -0.050487202214062006
-0.12408830724584034 0.06986652021386269 -0.045591116260337496
-0.03077874879725558 0.04683358090814018 -0.08965588984385806
-0.041993554143680376 0.045936747285760554 -0.08627434126873519
-0.05320835949010517 0.045039913663380934 -0.08289279269361231
-0.06442316483652996 0.04414308004100131 -0.07951124411848945
-0.07563797018295476 0.04324624641862168 -0.07612969554336659
-0.08685277552937956 0.042349412796242054 -0.07274814696824371
-0.09806758087580435 0.04145257917386243 -0.06936659839312084
-0.10928238622222915 0.0405557455514828 -0.06598504981799798
-0.12049719156865395 0.039658911929103174 -0.06260350124287511
-0.13171199691507876 0.03876207830672355 -0.059221952667752244
-0.03077874879725558 0.04683358090814018 -0.08965588984385806
-0.04162533259867623 0.042577884023759595 -0.08815532190558371
-0.05247191640009687 0.03832218713937901 -0.08665475396730937
-0.06331850020151752 0.03406649025499842 -0.08515418602903503
-0.07416508400293817 0.029810793370617837 -0.0836536180907607
-0.08501166780435881 0.025555096486237248 -0.08215305015248636
-0.09585825160577946 0.021299399601856665 -0.08065248221421202
-0.10670483540720009 0.017043702717476083 -0.0791519142759377
-0.11755141920862075 0.01278800583309549 -0.07765134633766335
-0.1283980030100414 0.008532308948714904 -0.07615077839938901
-0.03077874879725558 0.04683358090814018 -0.08965588984385806
-0.0400817153966997 0.03968019155312215 -0.09019891236225483
-0.04938468199614382 0.03252680219810411 -0.09074193488065162
-0.05868764859558794 0.025373412843086075 -0.0912849573990484
-0.06799061519503206 0.018220023488068036 -0.09182797991744518
-0.07729358179447618 0.011066634133050004 -0.09237100243584197
-0.08659654839392031 0.003913244778031964 -0.09291402495423876
-0.09589951499336442 -0.003240144576986068 -0.09345704747263553
-0.10520248159280854 -0.010393533932004113 -0.09400006999103232
-0.11450544819225267 -0.01754692328702215 -0.09454309250942909
-0.03077874879725558 0.04683358090814018 -0.08965588984385806
-0.03752997741327368 0.03755767981537309 -0.09218365790319515
-0.04428120602929179 0.028281778722606 -0.09471142596253224
-0.05103243464530988 0.019005877629838904 -0.09723919402186933
-0.05778366326132799 0.009729976537071815 -0.0997669620812064
-0.0645348918773461 0.00045407544430472584 -0.1022947301405435
-0.07128612049336419 -0.008821825648462376 -0.1048224981998806
-0.0780373491093823 -0.018097726741229465 -0.10735026625921767
-0.08478857772540041 -0.027373627833996553 -0.10987803431855477
-0.0915398063414185 -0.036649528926763646 -0.11240580237789186
-0.03077874879725558 0.04683358090814018 -0.08965588984385806
-0.03424663905319673 0.03644035589146047 -0.09389448055254361
-0.03771452930913787 0.026047130874780753 -0.09813307126122918
-0.041182419565079016 0.015653905858101037 -0.10237166196991475
-0.04465030982102016 0.005260680841421321 -0.10661025267860032
-0.04811820007696131 -0.005132544175258405 -0.11084884338728587
-0.05158609033290246 -0.01552576919193811 -0.11508743409597143
-0.0550539805888436 -0.02591899420861785 -0.11932602480465701
-0.058521870844784746 -0.036312219225297544 -0.12356461551334258
-0.0619897611007259 -0.04670544424197728 -0.12780320622202815
-0.03077874879725558 0.04683358090814018 -0.08965588984385806
-0.030587500974027 0.03644929916560719 -0.0951459861300948
-0.030396253150798424 0.0260650174230742 -0.10063608241633155
-0.03020500532756985 0.01568073568054121 -0.1061261787025683
-0.030013757504341272 0.005296453938008215 -0.11161627498880505
-0.029822509681112695 -0.005087827804524781 -0.1171063712750418
-0.02963126185788412 -0.015472109547057761 -0.12259646756127854
-0.029440014034655543 -0.025856391289590778 -0.1280865638475153
-0.029248766211426965 -0.036240673032123756 -0.13357666013375205
-0.029057518388198388 -0.04662495477465676 -0.13906675641998878
-0.03077874879725558 0.04683358090814018 -0.08965588984385806
-0.026949087564019824 0.037583540495290266 -0.09580255458741117
-0.023119426330784072 0.028333500082440354 -0.10194921933096428
-0.01928976509754832 0.019083459669590446 -0.1080958840745174
-0.015460103864312567 0.009833419256740524 -0.11424254881807051
-0.011630442631076815 0.0005833788438906153 -0.12038921356162362
-0.0078007813978410645 -0.008666661568959292 -0.12653587830517674
-0.003971120164605313 -0.017916701981809214 -0.13268254304872984
-0.00014145893136955734 -0.027166742394659136 -0.13882920779228297
0.0036882023018661976 -0.03641678280750905 -0.14497587253583608
-0.03077874879725558 0.04683358090814018 -0.08965588984385806
-0.023725677371950374 0.039720167232870966 -0.09579303654443319
-0.016672605946645172 0.032606753557601745 -0.10193018324500834
-0.009619534521339965 0.025493339882332534 -0.10806732994558348
-0.002566463096034764 0.018379926207063312 -0.11420447664615863
0.004486608329270445 0.011266512531794098 -0.12034162334673376
0.011539679754575647 0.004153098856524882 -0.1264787700473089
0.018592751179880847 -0.0029603148187443322 -0.13261591674788406
0.02564582260518605 -0.01007372849401356 -0.1387530634484592
0.03269889403049127 -0.017187142169282774 -0.14489021014903433
-0.03077874879725558 0.04683358090814018 -0.08965588984385806
-0.021266576908491867 0.04262764271815268 -0.0951184634288052
-0.011754405019728157 0.038421704528165186 -0.10058103701375234
-0.0022422331309644465 0.03421576633817769 -0.1060436105986995
0.007269938757799262 0.030009828148190195 -0.11150618418364665
0.016782110646562983 0.025803889958202698 -0.1169687577685938
0.026294282535326684 0.0215979517682152 -0.12243133135354095
0.0358064544240904 0.017392013578227707 -0.1278939049384881
0.045318626312854104 0.013186075388240206 -0.13335647852343524
0.054830798201617834 0.008980137198252709 -0.1388190521083824
-0.03077874879725558 0.04683358090814018 -0.08965588984385806
-0.01983826786573516 0.04599089686817473 -0.09385193570468583
-0.008897786934214743 0.04514821282820928 -0.09804798156551361
0.002042693997305664 0.04430552878824383 -0.1022440274263414
0.01298317492882609 0.04346284474827838 -0.10644007328716917
0.0239236558603465 0.042620160708312926 -0.11063611914799695
0.03486413679186691 0.041777476668347475 -0.11483216500882473
0.045804617723387356 0.040934792628382025 -0.11902821086965251
0.05674509865490776 0.040092108588416574 -0.12322425673048029
0.06768557958642818 0.03924942454845112 -0.12742030259130807
-0.03077874879725558 0.04683358090814018 -0.08965588984385806
-0.01959552969096123 0.04944546890951714 -0.09213070130318589
-0.008412310584666882 0.052057356910894095 -0.09460551276251374
0.0027709085216274633 0.05466924491227105 -0.09708032422184158
0.013954127627921814 0.057281132913648 -0.09955513568116942
0.02513734673421617 0.059893020915024964 -0.10202994714049726
0.03632056584051051 0.06250490891640191 -0.1045047585998251
0.04750378494680485 0.06511679691777887 -0.10697957005915294
0.05868700405309921 0.06772868491915583 -0.10945438151848078
0.06987022315939356 0.07034057292053278 -0.11192919297780862
0.03077874879725558 -0.04683358090814018 0.08965588984385806
0.041961967903549925 -0.04422169290676323 0.08718107838453021
0.053145187009844275 -0.041609804905386266 0.08470626692520238
0.06432840611613862 -0.03899791690400931 0.08223145546587453
0.07551162522243297 -0.03638602890263235 0.0797566440065467
0.08669484432872733 -0.03377414090125539 0.07728183254721885
0.09787806343502166 -0.031162252899878437 0.07480702108789102
0.109061282541316 -0.02855036489850148 0.07233220962856317
0.12024450164761036 -0.02593847689712452 0.06985739816923534
0.13142772075390471 -0.02332658889574756 0.06738258670990749
0.03077874879725558 -0.04683358090814018 0.08965588984385806
0.04099283076263348 -0.04105015945798806 0.08917049700830466
0.051206912728011374 -0.03526673800783593 0.08868510417275129
0.06142099469338926 -0.029483316557683815 0.08819971133719791
0.07163507665876717 -0.023699895107531687 0.08771431850164453
0.08184915862414506 -0.017916473657379563 0.08722892566609114
0.09206324058952295 -0.012133052207227445 0.08674353283053776
0.10227732255490087 -0.006349630757075317 0.08625813999498438
0.11249140452027875 -0.000566209306923189 0.085772747159431
0.12270548648565666 0.005217212143228939 0.08528735432387761
0.03077874879725558 -0.04683358090814018 0.08965588984385806
0.038916839352957075 -0.038505349462366806 0.09121251547745719
0.04705492990865857 -0.03017711801659343 0.09276914111105633
0.05519302046436005 -0.02184888657082006 0.09432576674465548
0.06333111102006156 -0.013520655125046677 0.09588239237825462
0.07146920157576304 -0.0051924236792733015 0.09743901801185376
0.07960729213146453 0.0031358077665000665 0.09899564364545291
0.08774538268716603 0.011464039212273448 0.10055226927905205
0.09588347324286753 0.01979227065804683 0.10210889491265118
0.10402156379856903 0.028120502103820198 0.10366552054625032
0.03077874879725558 -0.04683358090814018 0.08965588984385806
0.03595895955608482 -0.03686303256972058 0.09308584940567392
0.04113917031491408 -0.02689248423130098 0.09651580896748978
0.04631938107374332 -0.01692193589288138 0.09994576852930565
0.05149959183257257 -0.006951387554461774 0.10337572809112151
0.05667980259140182 0.0030191607839578265 0.10680568765293738
0.06186001335023106 0.012989709122377426 0.11023564721475325
0.06704022410906031 0.022960257460797027 0.11366560677656912
0.07222043486788957 0.03293080579921664 0.11709556633838498
0.0774006456267188 0.042901354137636245 0.12052552590020087
0.03077874879725558 -0.04683358090814018 0.08965588984385806
0.032439723544241746 -0.03630117929853981 0.09458749399406172
0.03410069829122791 -0.025768777688939436 0.09951909814426538
0.03576167303821408 -0.01523637607933907 0.10445070229446902
0.03742264778520024 -0.004703974469738688 0.1093823064446727
0.039083622532186404 0.005828427139861686 0.11431391059487636
0.040744597279172574 0.016360828749462045 0.11924551474508001
0.04240557202615874 0.026893230359062426 0.12417711889528367
0.0440665467731449 0.03742563196866281 0.12910872304548734
0.04572752152013107 0.04795803357826318 0.134040327195691
0.03077874879725558 -0.04683358090814018 0.08965588984385806
0.02874049514588406 -0.036880675168808684 0.09555472275105224
0.026702241494512544 -0.02692776942947719 0.10145355565824643
0.024663987843141024 -0.016974863690145697 0.10735238856544062
0.022625734191769508 -0.007021957950814196 0.11325122147263482
0.02058748054039799 0.0029309477885173007 0.119150054379829
0.018549226889026472 0.01288385352784879 0.12504888728702318
0.016510973237654956 0.022836759267180307 0.13094772019421738
0.014472719586283435 0.032789665006511794 0.13684655310141158
0.01243446593491192 0.042742570745843304 0.14274538600860576
0.03077874879725558 -0.04683358090814018 0.08965588984385806
0.0252621431574165 -0.03853872281117869 0.09588272143272508
0.019745537517577426 -0.030243864714217198 0.10210955302159211
0.014228931877738353 -0.02194900661725571 0.10833638461045914
0.008712326237899274 -0.013654148520294212 0.11456321619932618
0.0031957205980602003 -0.005359290423332714 0.1207900477881932
-0.002320885041778871 0.0029355676736287683 0.12701687937706022
-0.00783749068161795 0.011230425770590278 0.13324371096592727
-0.013354096321457029 0.01952528386755176 0.1394705425547943
-0.018870701961296105 0.02782014196451327 0.14569737414366132
0.03077874879725558 -0.04683358090814018 0.08965588984385806
0.022381600988981575 -0.04109564703633909 0.09553594629249705
0.013984453180707573 -0.03535771316453799 0.10141600274113605
0.0055873053724335734 -0.029619779292736903 0.10729605918977506
-0.0028098424358404305 -0.023881845420935806 0.11317611563841405
-0.011206990244114442 -0.018143911549134712 0.11905617208705306
-0.01960413805238843 -0.012405977677333622 0.12493622853569206
-0.028001285860662434 -0.006668043805532524 0.13081628498433104
-0.03639843366893644 -0.0009301099337314266 0.13669634143297005
-0.04479558147721044 0.004807823938069671 0.14257639788160906
0.03077874879725558 -0.04683358090814018 0.08965588984385806
0.020411020080746158 -0.04427436542972657 0.09455197579758255
0.010043291364236739 -0.04171514995131296 0.09944806175130706
-0.00032443735227267773 -0.03915593447289935 0.10434414770503157
-0.0106921660687821 -0.03659671899448574 0.10924023365875607
-0.02105989478529151 -0.03403750351607212 0.11413631961248058
-0.031427623501800936 -0.03147828803765851 0.11903240556620509
-0.041795352218310364 -0.028919072559244894 0.1239284915199296
-0.05216308093481978 -0.026359857080831287 0.12882457747365408
-0.06253080965132919 -0.02380064160241767 0.1337206634273786
0.03077874879725558 -0.04683358090814018 0.08965588984385806
0.019563943450830783 -0.04773041453051981 0.09303743841898092
0.008349138104405985 -0.048627248152899434 0.09641898699410378
-0.0028656672420188075 -0.04952408177527906 0.09980053556922665
-0.014080472588443608 -0.05042091539765869 0.10318208414434953
-0.025295277934868406 -0.051317749020038314 0.10656363271947239
-0.036510083281293196 -0.05221458264241794 0.10994518129459525
-0.047724888627717996 -0.05311141626479757 0.11332672986971812
-0.058939693974142796 -0.054008249887177194 0.11670827844484098
-0.0701544993205676 -0.05490508350955682 0.12008982701996386
0.03077874879725558 -0.04683358090814018 0.08965588984385806
0.01993216499583493 -0.051089277792520774 0.09115645778213238
0.009085581194414284 -0.05534497467690136 0.09265702572040672
-0.001761002607006364 -0.059600671561281945 0.09415759365868107
-0.01260758640842701 -0.06385636844566253 0.09565816159695541
-0.023454170209847653 -0.06811206533004312 0.09715872953522973
-0.03430075401126831 -0.0723677622144237 0.09865929747350408
-0.04514733781268894 -0.07662345909880429 0.10015986541177842
-0.0559939216141096 -0.08087915598318487 0.10166043335005275
-0.06684050541553023 -0.08513485286756546 0.10316100128832709
0.03077874879725558 -0.04683358090814018 0.08965588984385806
0.021475782197811457 -0.05398697026315822 0.08911286732546127
0.012172815598367337 -0.06114035961817626 0.08856984480706448
0.0028698489989232153 -0.06829374897319429 0.0880268222886677
-0.006433117600520903 -0.07544713832821233 0.08748379977027092
-0.015736084199965025 -0.08260052768323037 0.08694077725187413
-0.025039050799409147 -0.08975391703824841 0.08639775473347736
-0.03434201739885327 -0.09690730639326643 0.08585473221508057
-0.04364498399829739 -0.10406069574828448 0.08531170969668378
-0.05294795059774152 -0.11121408510330252 0.084768687178287
0.03077874879725558 -0.04683358090814018 0.08965588984385806
0.024027520181237473 -0.056109482000907276 0.08712812178452096
0.01727629156521937 -0.06538538309367437 0.08460035372518387
0.01052506294920127 -0.07466128418644147 0.08207258566584678
0.0037738343331831644 -0.08393718527920856 0.0795448176065097
-0.0029773942828349416 -0.09321308637197565 0.0770170495471726
-0.009728622898853038 -0.10248898746474275 0.07448928148783551
-0.016479851514871146 -0.11176488855750984 0.07196151342849842
-0.02323108013088925 -0.12104078965027693 0.06943374536916133
-0.02998230874690735 -0.130316690743044 0.06690597730982424
0.03077874879725558 -0.04683358090814018 0.08965588984385806
0.02731085854131443 -0.0572268059248199 0.08541729913517249
0.023842968285373287 -0.06762003094149961 0.08117870842648692
0.02037507802943214 -0.07801325595817933 0.07694011771780136
0.016907187773490994 -0.08840648097485905 0.0727015270091158
0.013439297517549841 -0.09879970599153877 0.06846293630043022
0.009971407261608696 -0.10919293100821847 0.06422434559174467
0.006503517005667553 -0.11958615602489822 0.059985754883059086
0.003035626749726408 -0.1299793810415779 0.055747164174373524
-0.0004322635062147435 -0.14037260605825763 0.05150857346568796
0.03077874879725558 -0.04683358090814018 0.08965588984385806
0.030969996620484153 -0.057217862650673176 0.0841657935576213
0.03116124444371273 -0.06760214439320616 0.07867569727138456
0.031352492266941305 -0.07798642613573915 0.0731856009851478
0.031543740090169886 -0.08837070787827216 0.06769550469891106
0.03173498791339846 -0.09875498962080514 0.06220540841267431
0.031926235736627034 -0.10913927136333813 0.05671531212643756
0.032117483559855615 -0.11952355310587115 0.0512252158402008
0.03230873138308419 -0.12990783484840412 0.04573511955396405
0.03249997920631277 -0.14029211659093713 0.04024502326772731
0.03077874879725558 -0.04683358090814018 0.08965588984385806
0.03460841003049133 -0.056083621320990096 0.08350922510030494
0.038438071263727086 -0.06533366173384002 0.07736256035675182
0.042267732496962834 -0.07458370214668993 0.0712158956131987
0.04609739373019859 -0.08383374255953985 0.06506923086964558
0.04992705496343434 -0.09308378297238976 0.05892256612609248
0.05375671619667009 -0.10233382338523966 0.05277590138253936
0.05758637742990584 -0.11158386379808959 0.04662923663898625
0.061416038663141596 -0.12083390421093951 0.040482571895433125
0.06524569989637735 -0.13008394462378942 0.034335907151880014
0.03077874879725558 -0.04683358090814018 0.08965588984385806
0.037831820222560784 -0.0539469945834094 0.0835187431432829
0.044884891647865986 -0.06106040825867862 0.07738159644270777
0.05193796307317119 -0.06817382193394783 0.07124444974213262
0.05899103449847639 -0.07528723560921706 0.06510730304155748
0.0660441059237816 -0.08240064928448627 0.058970156340982335
0.0730971773490868 -0.08951406295975549 0.05283300964040719
0.080150248774392 -0.0966274766350247 0.04669586293983205
0.0872033201996972 -0.10374089031029393 0.04055871623925691
0.09425639162500242 -0.11085430398556315 0.03442156953868176
0.03077874879725558 -0.04683358090814018 0.08965588984385806
0.04029092068601929 -0.05103951909812768 0.0841933162589109
0.049803092574783 -0.055245457288115175 0.07873074267396375
0.05931526446354671 -0.05945139547810267 0.0732681690890166
0.06882743635231042 -0.06365733366809018 0.06780559550406945
0.07833960824107414 -0.06786327185807767 0.0623430219191223
0.08785178012983784 -0.07206921004806517 0.056880448334175146
0.09736395201860155 -0.07627514823805266 0.051417874749227994
0.10687612390736526 -0.08048108642804017 0.04595530116428085
0.11638829579612898 -0.08468702461802766 0.04049272757933369
0.03077874879725558 -0.04683358090814018 0.08965588984385806
0.041719229728775994 -0.04767626494810563 0.08545984398303028
0.05265971066029641 -0.04851894898807109 0.0812637981222025
0.06360019159181682 -0.04936163302803654 0.07706775226137472
0.07454067252333725 -0.05020431706800199 0.07287170640054694
0.08548115345485766 -0.05104700110796744 0.06867566053971916
0.09642163438637806 -0.05188968514793289 0.06447961467889138
0.10736211531789851 -0.05273236918789834 0.06028356881806359
0.11830259624941891 -0.053575053227863795 0.05608752295723581
0.12924307718093933 -0.054417737267829246 0.051891477096408026
0.03077874879725558 -0.04683358090814018 0.08965588984385806
0.041961967903549925 -0.04422169290676323 0.08718107838453021
0.053145187009844275 -0.04160980490538627 0.08470626692520238
0.06432840611613862 -0.03899791690400932 0.08223145546587453
0.07551162522243297 -0.03638602890263236 0.07975664400654668
0.08669484432872733 -0.033774140901255405 0.07728183254721885
0.09787806343502166 -0.03116225289987845 0.074807021087891
0.109061282541316 -0.028550364898501497 0.07233220962856315
0.12024450164761036 -0.02593847689712454 0.06985739816923532
0.13142772075390471 -0.023326588895747583 0.06738258670990747
