# .PCD v0.7 - Point Cloud Data file format
VERSION 0.7
FIELDS x y z
SIZE 4 4 4
TYPE F F F
COUNT 1 1 1
WIDTH 700
HEIGHT 1
VIEWPOINT 0 0 0 1 0 0 0
POINTS 700
DATA ascii
0.12931973020155865 -0.02433926274526893 -0.06694430751255456
0.13670164869480878 -0.00639854654017303 -0.05540081664575851
0.13986669509241836 0.013537710367031863 -0.04529426719426485
0.1386668753425316 0.034537310760922944 -0.03709723017780249
0.13315829168314935 0.055618336666461377 -0.0311929899369089
0.1235985193638333 0.07579506274218165 -0.027857622183156548
0.11043456271331085 0.09412404770160349 -0.0272470850057159
0.09428195371387348 0.10974824857922792 -0.02938992644444074
0.07589597040999935 0.12193709510706936 -0.03418594961525349
0.05613632094642486 0.1301206503684158 -0.04141089780508387
0.035926944570793776 0.1339162604146151 -0.050726940466528536
0.01621280926132196 0.13314644673842457 -0.061698469798776134
-0.0020842739256073726 0.1278472049717564 -0.0738124692842298
-0.01810875371592073 0.1182663217699358 -0.08650250177069309
-0.031111343244553183 0.10485178858309309 -0.09917519544305708
-0.04048405587648621 0.08823085407386215 -0.11123798922988949
-0.04578863398607251 0.06918069466705276 -0.12212684030055035
-0.04677704139652293 0.04859207464379582 -0.13133259808106432
-0.04340306127586077 0.027427694993771234 -0.13842481156907946
-0.03582445718461863 0.006677178586895627 -0.14307185674432535
-0.024395596227089464 -0.012689203492188059 -0.14505644293922723
-0.009650879239380766 -0.029765900741649594 -0.14428577310902063
0.007720247199738163 -0.043754425777489926 -0.14079588291842798
0.026905528524594442 -0.05400069071616214 -0.1347499557540271
0.047007882303346495 -0.06002559159703947 -0.1264306924504599
0.06708734481546141 -0.06154741075112841 -0.11622709251360412
0.0862050227105924 -0.058494989606164345 -0.10461626493602036
0.10346699461813594 -0.051011055982363364 -0.09214111911072846
0.11806610991699924 -0.039445550298179526 -0.07938497899139026
0.12931973020155865 -0.02433926274526895 -0.06694430751255458
0.11898232517465612 -0.03240119648847437 -0.047803932279358856
0.12636424366790625 -0.014460480283378471 -0.0362604414125628
0.12952929006551583 0.005475776623826423 -0.02615389196106915
0.12832947031562908 0.026475377017717502 -0.017956854944606786
0.12282088665624682 0.047556402923255935 -0.012052614703713199
0.11326111433693077 0.06773312899897621 -0.008717246949960848
0.10009715768640833 0.08606211395839805 -0.0081067097725202
0.08394454868697095 0.10168631483602249 -0.010249551211245041
0.06555856538309682 0.11387516136386393 -0.015045574382057784
0.04579891591952233 0.12205871662521035 -0.022270522571888166
0.025589539543891253 0.12585432667140967 -0.03158656523333283
0.005875404234419434 0.12508451299521914 -0.042558094565580434
-0.012421678952509898 0.11978527122855095 -0.0546720940510341
-0.028446158742823253 0.11020438802673037 -0.06736212653749739
-0.041448748271455706 0.09678985483988765 -0.08003482020986137
-0.05082146090338873 0.08016892033065671 -0.09209761399669378
-0.05612603901297503 0.061118760923847326 -0.10298646506735465
-0.057114446423425454 0.04053014090059038 -0.11219222284786863
-0.053740466302763294 0.019365761250565793 -0.11928443633588377
-0.04616186221152115 -0.0013847551563098137 -0.12393148151112965
-0.03473300125399199 -0.0207511372353935 -0.12591606770603153
-0.01998828426628329 -0.037827834484855036 -0.12514539787582493
-0.0026171578271643615 -0.05181635952069537 -0.1216555076852323
0.01656812349769192 -0.06206262445936758 -0.1156095805208314
0.03667047727644397 -0.06808752534024491 -0.1072903172172642
0.056749939788558884 -0.06960934449433386 -0.09708671728040842
0.07586761768368987 -0.06655692334936979 -0.08547588970282466
0.09312958959123341 -0.059072989725568806 -0.07300074387753276
0.10772870489009671 -0.04750748404138497 -0.06024460375819455
0.11898232517465611 -0.03240119648847439 -0.04780393227935887
0.10864492014775361 -0.040463130231679814 -0.02866355704616315
0.11602683864100373 -0.022522414026583913 -0.017120066179367097
0.11919188503861332 -0.0025861571193790205 -0.007013516727873442
0.11799206528872656 0.01841344327451206 0.0011835202885889216
0.11248348162934431 0.03949446918005049 0.007087760529482509
0.10292370931002826 0.05967119525577077 0.010423128283234861
0.08975975265950581 0.0780001802151926 0.011033665460675508
0.07360714366006842 0.09362438109281704 0.008890824021950667
0.05522116035619429 0.10581322762065848 0.004094800851137924
0.035461510892619806 0.1139967828820049 -0.003130147338692458
0.015252134516988723 0.11779239292820422 -0.012446190000137124
-0.004462000792483094 0.11702257925201368 -0.023417719332384727
-0.022759083979412426 0.1117233374853455 -0.03553171881783839
-0.03878356376972578 0.10214245428352492 -0.048221751304301674
-0.051786153298358235 0.0887279210966822 -0.06089444497666567
-0.06115886593029126 0.07210698658745127 -0.07295723876349808
-0.06646344403987756 0.053056827180641884 -0.08384608983415895
-0.06745185145032798 0.03246820715738494 -0.09305184761467292
-0.06407787132966582 0.011303827507360349 -0.10014406110268806
-0.05649926723842368 -0.009446688899515257 -0.10479110627793395
-0.045070406280894516 -0.02881307097859894 -0.10677569247283583
-0.03032568929318582 -0.04588976822806048 -0.10600502264262923
-0.01295456285406689 -0.05987829326390081 -0.10251513245203658
0.00623071847078939 -0.07012455820257303 -0.0964692052876357
0.026333072249541442 -0.07614945908345036 -0.08814994198406849
0.046412534761656354 -0.0776712782375393 -0.07794634204721272
0.06553021265678735 -0.07461885709257524 -0.06633551446962896
0.08279218456433089 -0.06713492346877425 -0.053860368644337055
0.0973912998631942 -0.05556941778459041 -0.04110422852499884
0.1086449201477536 -0.040463130231679835 -0.028663557046163163
0.09830751512085108 -0.048525063974885256 -0.009523181812967445
0.1056894336141012 -0.030584347769789355 0.0020203090538286057
0.10885448001171079 -0.010648090862584461 0.01212685850532226
0.10765466026182403 0.010351509531306619 0.020323895521784624
0.10214607660244178 0.03143253543684505 0.026228135762678212
0.09258630428312573 0.05160926151256533 0.029563503516430563
0.07942234763260328 0.06993824647198717 0.03017404069387121
0.06326973863316589 0.0855624473496116 0.02803119925514637
0.044883755329291765 0.09775129387745304 0.023235176084333627
0.02512410586571728 0.10593484913879947 0.016010227894503244
0.004914729490086199 0.10973045918499878 0.006694185233058578
-0.014799405819385618 0.10896064550880824 -0.004277344099189024
-0.03309648900631495 0.10366140374214007 -0.016391343584642688
-0.049120968796628306 0.09408052054031948 -0.029081376071105974
-0.06212355832526076 0.08066598735347677 -0.04175406974346997
-0.07149627095719378 0.06404505284424583 -0.05381686353030238
-0.07680084906678009 0.04499489343743644 -0.06470571460096325
-0.0777892564772305 0.024406273414179495 -0.07391147238147722
-0.07441527635656835 0.0032418937641549082 -0.08100368586949236
-0.0668366722653262 -0.017508622642720698 -0.08565073104473825
-0.05540781130779704 -0.03687500472180438 -0.08763531723964013
-0.04066309432008834 -0.05395170197126592 -0.08686464740943353
-0.023291967880969412 -0.06794022700710625 -0.08337475721884088
-0.004106686556113135 -0.07818649194577847 -0.07732883005444
0.01599566722263892 -0.0842113928266558 -0.06900956675087279
0.03607512973475383 -0.08573321198074474 -0.058805966814017015
0.05519280762988482 -0.08268079083578067 -0.04719513923643325
0.07245477953742836 -0.07519685721197969 -0.034719993411141355
0.08705389483629167 -0.06363135152779585 -0.02196385329180314
0.09830751512085106 -0.04852506397488528 -0.00952318181296746
0.08797011009394855 -0.0565869977180907 0.009617193420228263
0.09535202858719867 -0.0386462815129948 0.021160684287024313
0.09851707498480826 -0.018710024605789907 0.03126723373851797
0.0973172552349215 0.0022895757881011745 0.03946427075498033
0.09180867157553925 0.023370601693639605 0.04536851099587392
0.0822488992562232 0.043547327769359885 0.04870387874962627
0.06908494260570075 0.061876312728781725 0.04931441592706692
0.052932333606263364 0.07750051360640615 0.047171574488342076
0.034546350302389235 0.0896893601342476 0.042375551317529334
0.01478670083881475 0.09787291539559402 0.03515060312769895
-0.005422675536816329 0.10166852544179333 0.025834560466254285
-0.025136810846288146 0.10089871176560279 0.014863031134006685
-0.04343389403321748 0.09559946999893462 0.002749031648553021
-0.059458373823530836 0.08601858679711404 -0.009941000837910266
-0.07246096335216329 0.07260405361027132 -0.02261369451027426
-0.08183367598409631 0.05598311910104039 -0.034676488297106664
-0.08713825409368262 0.036932959694231 -0.045565339367767535
-0.08812666150413304 0.01634433967097405 -0.05477109714828151
-0.08475268138347088 -0.004820039979050536 -0.06186331063629665
-0.07717407729222873 -0.025570556385926143 -0.06651035581154253
-0.06574521633469957 -0.044936938465009825 -0.06849494200644442
-0.05100049934699087 -0.06201363571447136 -0.06772427217623782
-0.03362937290787194 -0.0760021607503117 -0.06423438198564517
-0.014444091583015663 -0.08624842568898392 -0.05818845482124428
0.00565826219573639 -0.09227332656986124 -0.04986919151767708
0.025737724707851302 -0.09379514572395019 -0.03966559158082131
0.04485540260298229 -0.09074272457898612 -0.028054764003237545
0.06211737451052583 -0.08325879095518514 -0.015579618177945643
0.07671648980938914 -0.0716932852710013 -0.0028234780586074305
0.08797011009394853 -0.05658699771809072 0.00961719342022825
0.07763270506704602 -0.06464893146129615 0.028757568653423975
0.08501462356029614 -0.046708215256200246 0.04030105952022003
0.08817966995790573 -0.02677195834899535 0.05040760897171368
0.08697985020801897 -0.00577235795510427 0.058604645988176045
0.08147126654863672 0.015308667950434162 0.06450888622906963
0.07191149422932067 0.035485394026154436 0.06784425398282198
0.05874753757879822 0.053814378985576276 0.06845479116026262
0.042594928579360834 0.06943857986320072 0.06631194972153778
0.024208945275486705 0.08162742639104216 0.06151592655072505
0.00444929581191222 0.08981098165238859 0.054290978360894665
-0.01576008056371886 0.0936065916985879 0.04497493569945
-0.035474215873190676 0.09283677802239736 0.03400340636720239
-0.05377129906012001 0.08753753625572919 0.021889406881748733
-0.06979577885043337 0.0779566530539086 0.009199374395285445
-0.08279836837906582 0.06454211986706589 -0.0034733192770785484
-0.09217108101099884 0.04792118535783494 -0.015536113063910955
-0.09747565912058515 0.028871025951025555 -0.02642496413457182
-0.09846406653103557 0.008282405927768606 -0.035630721915085796
-0.0950900864103734 -0.01288197372225598 -0.04272293540310094
-0.08751148231913126 -0.03363249012913159 -0.04736998057834682
-0.0760826213616021 -0.052998872208215274 -0.049354566773248704
-0.0613379043738934 -0.0700755694576768 -0.048583896943042104
-0.04396677793477447 -0.08406409449351714 -0.04509400675244946
-0.024781496609918192 -0.09431035943218935 -0.03904807958804857
-0.00467914283116614 -0.10033526031306668 -0.030728816284481368
0.015400319680948772 -0.10185707946715562 -0.020525216347625594
0.03451799757607976 -0.09880465832219155 -0.008914388770041833
0.0517799694836233 -0.09132072469839057 0.003560757055250068
0.06637908478248661 -0.07975521901420674 0.01631689717458828
0.077632705067046 -0.06464893146129616 0.02875756865342396
0.0672953000401435 -0.07271086520450158 0.04789794388661967
0.07467721853339362 -0.05477014899940568 0.05944143475341572
0.07784226493100321 -0.03483389209220079 0.06954798420490937
0.07664244518111646 -0.013834291698309709 0.07774502122137174
0.0711338615217342 0.007246734207228723 0.08364926146226533
0.06157408920241814 0.027423460282948998 0.08698462921601768
0.0484101325518957 0.04575244524237084 0.08759516639345832
0.03225752355245831 0.06137664611999528 0.08545232495473348
0.013871540248584183 0.07356549264783671 0.08065630178392075
-0.0058881092149903015 0.08174904790918314 0.07343135359409037
-0.026097485590621382 0.08554465795538245 0.06411531093264569
-0.0458116209000932 0.08477484427919191 0.05314378160039809
-0.06410870408702253 0.07947560251252374 0.04102978211494443
-0.08013318387733588 0.06989471931070315 0.028339749628481143
-0.09313577340596833 0.056480186123860444 0.01566705595611715
-0.10250848603790136 0.039859251614629505 0.0036042621692847425
-0.10781306414748766 0.020809092207820113 -0.0072845889013761255
-0.10880147155793808 0.00022047218456316774 -0.0164903466818901
-0.10542749143727592 -0.02094390746546142 -0.02358256016990524
-0.09784888734603378 -0.04169442387233702 -0.028229605345151124
-0.08642002638850461 -0.06106080595142071 -0.030214191540053007
-0.07167530940079592 -0.07813750320088225 -0.029443521709846408
-0.054304182961676994 -0.09212602823672258 -0.025953631519253766
-0.035118901636820715 -0.1023722931753948 -0.01990770435485287
-0.015016547858068663 -0.10839719405627213 -0.011588441051285672
0.00506291465404625 -0.10991901321036107 -0.001384841114429898
0.02418059254917724 -0.106866592065397 0.010225986463153865
0.04144256445672078 -0.09938265844159602 0.022701132288445766
0.056041679755584085 -0.08781715275741218 0.03545727240778398
0.06729530004014349 -0.07271086520450161 0.04789794388661966
0.056957895013240965 -0.08077279894770703 0.06703831911981538
0.0643398135064911 -0.06283208274261112 0.07858180998661143
0.06750485990410068 -0.04289582583540623 0.08868835943810509
0.06630504015421393 -0.021896225441515153 0.09688539645456745
0.06079645649483167 -0.0008151995359767202 0.10278963669546104
0.051236684175515614 0.019361526539743556 0.10612500444921338
0.03807272752499317 0.0376905114991654 0.10673554162665404
0.021920118525555785 0.053314712376789836 0.1045927001879292
0.0035341352216816556 0.06550355890463128 0.09979667701711645
-0.01622551424189283 0.0736871141659777 0.09257172882728607
-0.03643489061752391 0.07748272421217701 0.0832556861658414
-0.05614902592699573 0.07671291053598647 0.07228415683359381
-0.07444610911392506 0.0714136687693183 0.06017015734814014
-0.09047058890423841 0.06183278556749772 0.04748012486167685
-0.10347317843287086 0.048418252380655 0.03480743118931286
-0.11284589106480389 0.03179731787142406 0.02274463740248045
-0.11815046917439019 0.012747158464614671 0.011855786331819582
-0.11913887658484061 -0.007841461558642276 0.0026500285513056075
-0.11576489646417845 -0.029005841208666863 -0.004442184936709535
-0.10818629237293631 -0.049756357615542465 -0.009089230111955417
-0.09675743141540714 -0.06912273969462615 -0.0110738163068573
-0.08201271442769845 -0.08619943694408769 -0.0103031464766507
-0.06464158798857952 -0.10018796197992802 -0.006813256286058059
-0.045456306663723245 -0.11043422691860023 -0.000767329121657164
-0.02535395288497119 -0.11645912779947756 0.007551934181910035
-0.005274490372856278 -0.1179809469535665 0.01775553411876581
0.013843187522274713 -0.11492852580860244 0.029366361696349572
0.031105159429818254 -0.10744459218480146 0.04184150752164147
0.045704274728681556 -0.09587908650061762 0.054597647640979685
0.05695789501324095 -0.08077279894770704 0.06703831911981536
0.046620489986338436 -0.08883473269091248 0.08617869435301109
0.05400240847958856 -0.07089401648581657 0.09772218521980715
0.05716745487719815 -0.05095775957861168 0.1078287346713008
0.05596763512731139 -0.029958159184720598 0.11602577168776317
0.05045905146792914 -0.008877133279182166 0.12193001192865675
0.040899279148613084 0.01129959279653811 0.1252653796824091
0.027735322498090638 0.02962857775595995 0.12587591685984975
0.011582713498653254 0.04525277863358439 0.12373307542112491
-0.006803269805220875 0.05744162516142583 0.11893705225031216
-0.026562919268795362 0.06562518042277225 0.11171210406048178
-0.04677229564442644 0.06942079046897157 0.10239606139903712
-0.06648643095389825 0.06865097679278102 0.09142453206678951
-0.08478351414082759 0.06335173502611285 0.07931053258133584
-0.10080799393114094 0.05377085182429227 0.06662050009487257
-0.11381058345977339 0.040356318637449554 0.05394780642250857
-0.12318329609170642 0.023735384128218615 0.041885012635676164
-0.12848787420129273 0.004685224721409226 0.030996161565015296
-0.12947628161174315 -0.01590339530184772 0.02179040378450132
-0.12610230149108098 -0.03706777495187231 0.01469819029648618
-0.11852369739983884 -0.057818291358747914 0.010051145121240296
-0.10709483644230967 -0.0771846734378316 0.008066558926338414
-0.09235011945460098 -0.09426137068729314 0.008837228756545013
-0.07497899301548205 -0.10824989572313347 0.012327118947137655
-0.055793711690625775 -0.11849616066180568 0.01837304611153855
-0.03569135791187372 -0.12452106154268301 0.02669230941510575
-0.015611895399758808 -0.12604288069677197 0.03689590935196152
0.0035057824953721815 -0.12299045955180789 0.04850673692954528
0.02076775440291572 -0.1155065259280069 0.06098188275483719
0.035366869701779026 -0.10394102024382307 0.0737380228741754
0.04662048998633842 -0.0888347326909125 0.08617869435301108
0.03628308495943591 -0.09689666643411791 0.10531906958620679
0.043665003452686035 -0.078955950229022 0.11686256045300285
0.046830049850295624 -0.05901969332181712 0.1269691099044965
0.04563023010040887 -0.03802009292792604 0.13516614692095885
0.040121646441026615 -0.016939067022387608 0.14107038716185244
0.03056187412171056 0.0032376590533326694 0.1444057549156048
0.017397917471188115 0.02156664401275451 0.14501629209304545
0.001245308471750729 0.037190844890378945 0.1428734506543206
-0.0171406748321234 0.049379691418220385 0.13807742748350788
-0.03690032429569789 0.05756324667956681 0.1308524792936775
-0.057109700671328964 0.061358856725766124 0.12153643663223282
-0.07682383598080078 0.06058904304957558 0.11056490729998522
-0.09512091916773012 0.05528980128290741 0.09845090781453156
-0.11114539895804347 0.045708918081086826 0.08576087532806827
-0.12414798848667592 0.03229438489424411 0.07308818165570427
-0.13352070111860895 0.015673450385013173 0.061025387868871864
-0.13882527922819526 -0.0033767090217962153 0.050136536798211
-0.13981368663864568 -0.023965329045053163 0.040930779017697025
-0.1364397065179835 -0.04512970869507775 0.03383856552968188
-0.12886110242674137 -0.06588022510195335 0.029191520354435996
-0.1174322414692122 -0.08524660718103703 0.027206934159534114
-0.1026875244815035 -0.10232330443049857 0.027977603989740713
-0.08531639804238458 -0.1163118294663389 0.03146749418033336
-0.0661311167175283 -0.12655809440501112 0.03751342134473425
-0.046028762938776245 -0.13258299528588846 0.04583268464830145
-0.025949300426661333 -0.1341048144399774 0.05603628458515723
-0.006831622531530343 -0.13105239329501334 0.06764711216274098
0.010430349376013198 -0.12356845967121234 0.0801222579880329
0.025029464674876503 -0.1120029539870285 0.0928783981073711
0.0362830849594359 -0.09689666643411793 0.10531906958620678
0.04651832262106137 0.03627870184442449 -0.08613168854938068
0.0557184790188944 0.029543372445569666 -0.08399975732306666
0.06491863541672743 0.02280804304671484 -0.08186782609675265
0.07411879181456046 0.016072713647860018 -0.07973589487043864
0.08331894821239351 0.009337384249005187 -0.07760396364412463
0.09251910461022653 0.0026020548501503654 -0.07547203241781061
0.10171926100805956 -0.004133274548704457 -0.0733401011914966
0.11091941740589259 -0.010868603947559287 -0.07120816996518259
0.12011957380372563 -0.017603933346414115 -0.06907623873886856
0.12931973020155865 -0.02433926274526893 -0.06694430751255456
0.04651832262106137 0.03627870184442449 -0.08613168854938068
0.056783757022003375 0.03268139129163463 -0.08210268321851523
0.06704919142294538 0.029084080738844775 -0.0780736778876498
0.07731462582388737 0.025486770186054917 -0.07404467255678435
0.08758006022482938 0.02188945963326506 -0.0700156672259189
0.09784549462577138 0.018292149080475197 -0.06598666189505345
0.10811092902671339 0.014694838527685343 -0.061957656564188016
0.1183763634276554 0.011097527974895478 -0.05792865123332257
0.1286417978285974 0.007500217422105624 -0.05389964590245713
0.1389072322295394 0.003902906869315762 -0.049870640571591685
0.04651832262106137 0.03627870184442449 -0.08613168854938068
0.056736615923143885 0.03620923455411874 -0.08064221435802207
0.0669549092252264 0.03613976726381298 -0.07515274016666347
0.0771732025273089 0.03607029997350723 -0.06966326597530487
0.08739149582939143 0.03600083268320148 -0.06417379178394626
0.09760978913147393 0.03593136539289572 -0.05868431759258767
0.10782808243355643 0.035861898102589974 -0.05319484340122907
0.11804637573563895 0.035792430812284226 -0.047705369209870466
0.1282646690377215 0.035722963521978464 -0.04221589501851186
0.138482962339804 0.03565349623167271 -0.03672642082715326
0.04651832262106137 0.03627870184442449 -0.08613168854938068
0.055582164191846875 0.03974460567540354 -0.07977661520413089
0.06464600576263238 0.04321050950638258 -0.07342154185888111
0.07370984733341789 0.04667641333736163 -0.06706646851363132
0.08277368890420339 0.05014231716834068 -0.06071139516838154
0.09183753047498888 0.05360822099931973 -0.05435632182313175
0.10090137204577439 0.05707412483029877 -0.048001248477881966
0.10996521361655989 0.06054002866127782 -0.041646175132632184
0.1190290551873454 0.06400593249225686 -0.0352911017873824
0.1280928967581309 0.06747183632323592 -0.028936028442132607
0.04651832262106137 0.03627870184442449 -0.08613168854938068
0.053445504586362644 0.042904392337562776 -0.07959968685632052
0.06037268655166391 0.04953008283070106 -0.07306768516326037
0.06729986851696518 0.05615577332383934 -0.06653568347020022
0.07422705048226645 0.06278146381697763 -0.06000368177714007
0.08115423244756773 0.06940715431011592 -0.05347168008407992
0.08808141441286899 0.0760328448032542 -0.04693967839101977
0.09500859637817026 0.08265853529639249 -0.04040767669795962
0.10193577834347153 0.08928422578953077 -0.033875675004899464
0.1088629603087728 0.09590991628266907 -0.027343673311839307
0.04651832262106137 0.03627870184442449 -0.08613168854938068
0.05055817732863513 0.04534618262660979 -0.08013060224640241
0.05459803203620888 0.05441366340879508 -0.07412951594342412
0.05863788674378263 0.06348114419098037 -0.06812842964044585
0.06267774145135639 0.07254862497316568 -0.06212734333746758
0.06671759615893015 0.08161610575535097 -0.05612625703448932
0.0707574508665039 0.09068358653753626 -0.05012517073151104
0.07479730557407765 0.09975106731972155 -0.04412408442853277
0.07883716028165141 0.10881854810190686 -0.038122998125554496
0.08287701498922517 0.11788602888409215 -0.032121911822576225
0.04651832262106137 0.03627870184442449 -0.08613168854938068
0.04723306912853757 0.046805370676446224 -0.08131182845386009
0.04794781563601377 0.05733203950846796 -0.0764919683583395
0.04866256214348997 0.06785870834048968 -0.07167210826281892
0.04937730865096617 0.07838537717251141 -0.06685224816729833
0.05009205515844237 0.08891204600453316 -0.06203238807177774
0.05080680166591856 0.09943871483655488 -0.05721252797625716
0.051521548173394764 0.10996538366857661 -0.05239266788073657
0.052236294680870966 0.12049205250059834 -0.047572807785215984
0.05295104118834716 0.13101872133262008 -0.0427529476896954
0.04651832262106137 0.03627870184442449 -0.08613168854938068
0.04383050705392021 0.04712383082023687 -0.08301536129050247
0.04114269148677906 0.057968959796049255 -0.07989903403162427
0.03845487591963791 0.06881408877186163 -0.07678270677274605
0.03576706035249675 0.07965921774767401 -0.07366637951386786
0.033079244785355594 0.09050434672348638 -0.07055005225498964
0.03039142921821444 0.10134947569929877 -0.06743372499611144
0.027703613651073284 0.11219460467511112 -0.06431739773723323
0.025015798083932127 0.12303973365092354 -0.06120107047835503
0.022327982516790974 0.1338848626267359 -0.05808474321947683
0.04651832262106137 0.03627870184442449 -0.08613168854938068
0.04071921150175822 0.04626705295998375 -0.0850565965404439
0.03492010038245507 0.056255404075543 -0.08398150453150711
0.029120989263151924 0.06624375519110225 -0.08290641252257033
0.02332187814384877 0.07623210630666151 -0.08183132051363355
0.017522767024545624 0.08622045742222076 -0.08075622850469677
0.011723655905242478 0.09620880853778001 -0.07968113649575999
0.0059245447859393174 0.10619715965333926 -0.07860604448682322
0.00012543366663617136 0.11618551076889852 -0.07753095247788644
-0.005673677452666975 0.12617386188445778 -0.07645586046894966
0.04651832262106137 0.03627870184442449 -0.08613168854938068
0.03823633962185296 0.04432788227112353 -0.08721433469132492
0.029954356622644545 0.05237706269782257 -0.08829698083326917
0.02167237362343613 0.06042624312452162 -0.08937962697521341
0.01339039062422772 0.06847542355122066 -0.09046227311715765
0.0051084076250193025 0.0765246039779197 -0.09154491925910191
-0.0031735753741891077 0.08457378440461874 -0.09262756540104615
-0.011455558373397533 0.09262296483131778 -0.0937102115429904
-0.01973754137260593 0.10067214525801682 -0.09479285768493464
-0.02801952437181436 0.10872132568471587 -0.09587550382687889
0.04651832262106137 0.03627870184442449 -0.08613168854938068
0.036650949108118815 0.04151645798712769 -0.08925475133374054
0.026783575595176263 0.04675421412983089 -0.0923778141181004
0.016916202082233708 0.051991970272534084 -0.09550087690246026
0.007048828569291156 0.05722972641523729 -0.09862393968682012
-0.002818544943651406 0.06246748255794049 -0.10174700247117999
-0.012685918456593955 0.06770523870064368 -0.10487006525553984
-0.02255329196953651 0.07294299484334688 -0.1079931280398997
-0.03242066548247906 0.07818075098605008 -0.11111619082425957
-0.04228803899542162 0.08341850712875327 -0.11423925360861943
0.04651832262106137 0.03627870184442449 -0.08613168854938068
0.03613484162258733 0.038137441552909636 -0.09095673566415872
0.025751360624113286 0.039996181261394786 -0.09578178277893677
0.015367879625639243 0.04185492096987993 -0.10060682989371482
0.004984398627165203 0.04371366067836508 -0.10543187700849288
-0.005399082371308844 0.045572400386850224 -0.11025692412327093
-0.015782563369782884 0.04743114009533537 -0.11508197123804897
-0.026166044368256924 0.04928987980382052 -0.11990701835282702
-0.036549525366730964 0.05114861951230567 -0.12473206546760507
-0.04693300636520502 0.05300735922079083 -0.12955711258238312
0.04651832262106137 0.03627870184442449 -0.08613168854938068
0.03674394541954858 0.03455700182995902 -0.09213585127137078
0.026969568218035794 0.03283530181549356 -0.09814001399336088
0.017195191016523004 0.031113601801028096 -0.10414417671535098
0.007420813815010217 0.029391901786562626 -0.11014833943734108
-0.0023535633865025686 0.027670201772097162 -0.11615250215933118
-0.012127940588015362 0.0259485017576317 -0.12215666488132126
-0.021902317789528142 0.024226801743166236 -0.12816082760331135
-0.031676694991040935 0.02250510172870076 -0.13416499032530146
-0.04145107219255373 0.020783401714235303 -0.14016915304729155
0.04651832262106137 0.03627870184442449 -0.08613168854938068
0.03841225465138262 0.031163135018504 -0.09266432268347152
0.030306186681703876 0.02604756819258351 -0.09919695681756238
0.02220011871202513 0.020932001366663015 -0.10572959095165323
0.014094050742346383 0.015816434540742524 -0.11226222508574409
0.005987982772667627 0.010700867714822029 -0.11879485921983494
-0.002118085197011107 0.00558530088890154 -0.1253274933539258
-0.010224153166689863 0.00046973406298104245 -0.13186012748801665
-0.018330221136368605 -0.004645832762939444 -0.13839276162210748
-0.026436289106047353 -0.009761399588859939 -0.14492539575619834
0.04651832262106137 0.03627870184442449 -0.08613168854938068
0.04095898212633533 0.028323619248835176 -0.09248488182288102
0.03539964163160928 0.02036853665324586 -0.09883807509638137
0.02984030113688324 0.012413454057656549 -0.10519126836988173
0.024280960642157196 0.0044583714620672265 -0.11154446164338207
0.018721620147431152 -0.0034967111335220827 -0.11789765491688242
0.013162279652705111 -0.011451793729111393 -0.12425084819038276
0.007602939157979063 -0.019406876324700714 -0.13060404146388313
0.002043598663253023 -0.027361958920290037 -0.13695723473738347
-0.0035157418314730247 -0.03531704151587934 -0.1433104280108838
0.04651832262106137 0.03627870184442449 -0.08613168854938068
0.04410815040594726 0.02634616011422296 -0.09161697389115607
0.04169797819083315 0.01641361838402143 -0.09710225923293148
0.03928780597571904 0.006481076653819902 -0.10258754457470687
0.03687763376060493 -0.003451465076381632 -0.10807282991648227
0.034467461545490824 -0.01338400680658316 -0.11355811525825767
0.032057289330376715 -0.023316548536784686 -0.11904340060003307
0.029647117115262606 -0.03324909026698623 -0.12452868594180846
0.027236944900148493 -0.043181631997187754 -0.13001397128358386
0.024826772685034387 -0.05311417372738928 -0.13549925662535928
0.04651832262106137 0.03627870184442449 -0.08613168854938068
0.047518498242741944 0.025445045995342485 -0.09015465017967819
0.04851867386442251 0.014611390146260476 -0.0941776118099757
0.049518849486103085 0.0037777342971784663 -0.09820057344027322
0.05051902510778366 -0.007055921551903537 -0.10222353507057073
0.05151920072946423 -0.017889577400985547 -0.10624649670086825
0.05251937635114481 -0.028723233250067558 -0.11026945833116575
0.05351955197282538 -0.039556889099149554 -0.11429241996146326
0.05451972759450594 -0.050390544948231565 -0.11831538159176079
0.05551990321618652 -0.06122420079731356 -0.12233834322205829
0.04651832262106137 0.03627870184442449 -0.08613168854938068
0.05082046153160375 0.02571792658920064 -0.08825637615287624
0.05512260044214613 0.01515715133397679 -0.09038106375637181
0.059424739352688515 0.00459637607875294 -0.09250575135986737
0.0637268782632309 -0.00596439917647091 -0.09463043896336294
0.06802901717377328 -0.01652517443169476 -0.0967551265668585
0.07233115608431566 -0.02708594968691861 -0.09887981417035407
0.07663329499485803 -0.03764672494214246 -0.10100450177384963
0.08093543390540042 -0.04820750019736631 -0.1031291893773452
0.0852375728159428 -0.058768275452590175 -0.10525387698084077
0.04651832262106137 0.03627870184442449 -0.08613168854938068
0.053656221314945136 0.02713523104927422 -0.08612785925631058
0.0607941200088289 0.017991760254123947 -0.08612402996324048
0.06793201870271268 0.008848289458973672 -0.08612020067017039
0.07506991739659644 -0.00029518133617659995 -0.08611637137710029
0.08220781609048021 -0.00943865213132688 -0.08611254208403019
0.08934571478436397 -0.018582122926477145 -0.08610871279096009
0.09648361347824774 -0.027725593721627424 -0.08610488349788999
0.1036215121721315 -0.03686906451677769 -0.0861010542048199
0.11075941086601526 -0.04601253531192797 -0.0860972249117498
0.04651832262106137 0.03627870184442449 -0.08613168854938068
0.0557184790188944 0.029543372445569663 -0.08399975732306666
0.06491863541672743 0.022808043046714837 -0.08186782609675265
0.07411879181456046 0.01607271364786001 -0.07973589487043864
0.0833189482123935 0.00933738424900518 -0.07760396364412463
0.09251910461022653 0.0026020548501503515 -0.07547203241781061
0.10171926100805956 -0.004133274548704471 -0.0733401011914966
0.11091941740589258 -0.010868603947559301 -0.07120816996518259
0.12011957380372562 -0.01760393334641413 -0.06907623873886858
0.12931973020155865 -0.02433926274526895 -0.06694430751255458
-0.04651832262106137 -0.03627870184442449 0.08613168854938068
-0.03731816622322834 -0.043014031243279315 0.08826361977569469
-0.028118009825395304 -0.049749360642134144 0.0903955510020087
-0.018917853427562276 -0.056484690040988966 0.09252748222832272
-0.009717697029729237 -0.06322001943984379 0.09465941345463673
-0.0005175406318962131 -0.06995534883869861 0.09679134468095074
0.008682615765936819 -0.07669067823755343 0.09892327590726475
0.01788277216376985 -0.08342600763640827 0.10105520713357877
0.027082928561602895 -0.09016133703526309 0.10318713835989278
0.03628308495943591 -0.09689666643411791 0.10531906958620679
-0.04651832262106137 -0.03627870184442449 0.08613168854938068
-0.03625288822011937 -0.03987601239721435 0.09016069388024611
-0.025987453819177365 -0.04347332295000421 0.09418969921111156
-0.015722019418235363 -0.047070633502794064 0.09821870454197701
-0.005456585017293361 -0.050667944055583926 0.10224770987284244
0.0048088493836486446 -0.05426525460837379 0.10627671520370789
0.015074283784590643 -0.057862565161163636 0.11030572053457334
0.025339718185532656 -0.061459875713953505 0.11433472586543879
0.03560515258647465 -0.06505718626674335 0.11836373119630422
0.04587058698741665 -0.06865449681953321 0.12239273652716967
-0.04651832262106137 -0.03627870184442449 0.08613168854938068
-0.036300029318978855 -0.03634816913473025 0.09162116274073928
-0.026081736016896343 -0.036417636425035996 0.09711063693209789
-0.01586344271481384 -0.03648710371534175 0.10260011112345647
-0.0056451494127313165 -0.036556571005647506 0.10808958531481508
0.004573143889351192 -0.03662603829595326 0.11357905950617368
0.014791437191433693 -0.03669550558625901 0.11906853369753229
0.025009730493516208 -0.03676497287656476 0.12455800788889089
0.03522802379559874 -0.03683444016687052 0.1300474820802495
0.04544631709768125 -0.036903907457176276 0.13553695627160808
-0.04651832262106137 -0.03627870184442449 0.08613168854938068
-0.037454481050275865 -0.03281279801344544 0.09248676189463045
-0.028390639479490363 -0.029346894182466398 0.09884183523988024
-0.01932679790870486 -0.02588099035148735 0.10519690858513003
-0.010262956337919356 -0.022415086520508304 0.11155198193037981
-0.0011991147671338578 -0.018949182689529255 0.1179070552756296
0.007864726803651648 -0.015483278858550208 0.12426212862087939
0.016928568374437153 -0.01201737502757116 0.13061720196612917
0.025992409945222658 -0.008551471196592114 0.13697227531137895
0.03505625151600815 -0.005085567365613066 0.14332734865662874
-0.04651832262106137 -0.03627870184442449 0.08613168854938068
-0.0395911406557601 -0.029653011351286205 0.09266369024244082
-0.03266395869045883 -0.02302732085814792 0.09919569193550098
-0.025736776725157562 -0.016401630365009637 0.10572769362856113
-0.018809594759856288 -0.009775939871871349 0.11225969532162128
-0.011882412794555021 -0.0031502493787330587 0.11879169701468144
-0.004955230829253754 0.003475441114405218 0.12532369870774157
0.0019719511360475196 0.01010113160754351 0.13185570040080175
0.008899133101348794 0.01672682210068179 0.1383877020938619
0.015826315066650054 0.023352512593820082 0.14491970378692204
-0.04651832262106137 -0.03627870184442449 0.08613168854938068
-0.04247846791348762 -0.027211221062239194 0.09213277485235895
-0.03843861320591386 -0.0181437402800539 0.09813386115533722
-0.03439875849834011 -0.009076259497868605 0.10413494745831549
-0.030358903790766348 -8.778715683304278e-06 0.11013603376129377
-0.026319049083192596 0.009058702066501988 0.11613712006427203
-0.02227919437561884 0.018126182848687278 0.12213820636725031
-0.01823933966804508 0.027193663630872576 0.12813929267022858
-0.014199484960471326 0.03626114441305788 0.13414037897320685
-0.010159630252897567 0.04532862519524317 0.14014146527618512
-0.04651832262106137 -0.03627870184442449 0.08613168854938068
-0.04580357611358517 -0.02575203301240276 0.09095154864490126
-0.04508882960610897 -0.015225364180381026 0.09577140874042185
-0.04437408309863278 -0.004698695348359295 0.10059126883594244
-0.043659336591156575 0.0058279734836624375 0.10541112893146302
-0.04294459008368037 0.016354642315684176 0.11023098902698361
-0.04222984357620418 0.0268813111477059 0.1150508491225042
-0.04151509706872798 0.03740797997972763 0.11987070921802478
-0.04080035056125177 0.047934648811749365 0.12469056931354537
-0.04008560405377558 0.0584613176437711 0.12951042940906596
-0.04651832262106137 -0.03627870184442449 0.08613168854938068
-0.049206138188202526 -0.02543357286861211 0.08924801580825888
-0.05189395375534368 -0.014588443892799728 0.09236434306713709
-0.05458176932248483 -0.003743314916987351 0.09548067032601529
-0.05726958488962599 0.007101814058825034 0.0985969975848935
-0.059957400456767146 0.017946943034637404 0.1017133248437717
-0.0626452160239083 0.02879207201044979 0.10482965210264991
-0.06533303159104946 0.039637200986262146 0.10794597936152811
-0.06802084715819061 0.05048232996207456 0.11106230662040632
-0.07070866272533177 0.061327458937886915 0.11417863387928452
-0.04651832262106137 -0.03627870184442449 0.08613168854938068
-0.05231743374036452 -0.026290350728865236 0.08720678055831746
-0.05811654485966767 -0.016301999613305983 0.08828187256725424
-0.06391565597897082 -0.00631364849774673 0.08935696457619102
-0.06971476709827397 0.003674702617812526 0.09043205658512779
-0.07551387821757712 0.013663053733371783 0.09150714859406457
-0.08131298933688026 0.02365140484893103 0.09258224060300135
-0.08711210045618342 0.03363975596449028 0.09365733261193813
-0.09291121157548657 0.04362810708004954 0.09473242462087492
-0.09871032269478971 0.05361645819560879 0.0958075166298117
-0.04651832262106137 -0.03627870184442449 0.08613168854938068
-0.05480030562026978 -0.02822952141772545 0.08504904240743642
-0.06308228861947819 -0.020180340991026408 0.08396639626549218
-0.07136427161868661 -0.012131160564327363 0.08288375012354794
-0.07964625461789503 -0.0040819801376283235 0.08180110398160369
-0.08792823761710344 0.003967200289070724 0.08071845783965945
-0.09621022061631185 0.012016380715769765 0.0796358116977152
-0.10449220361552028 0.020065561142468803 0.07855316555577095
-0.11277418661472867 0.028114741569167843 0.07747051941382671
-0.1210561696139371 0.0361639219958669 0.07638787327188246
-0.04651832262106137 -0.03627870184442449 0.08613168854938068
-0.056385696134003925 -0.031040945701721293 0.08300862576502081
-0.06625306964694648 -0.025803189559018093 0.07988556298066095
-0.07612044315988903 -0.020565433416314897 0.0767625001963011
-0.08598781667283159 -0.015327677273611692 0.07363943741194123
-0.09585519018577415 -0.010089921130908492 0.07051637462758137
-0.1057225636987167 -0.0048521649882053005 0.0673933118432215
-0.11558993721165925 0.0003855911544978992 0.06427024905886165
-0.1254573107246018 0.005623347297201106 0.06114718627450179
-0.13532468423754437 0.0108611034399043 0.058024123490141924
-0.04651832262106137 -0.03627870184442449 0.08613168854938068
-0.05690180361953541 -0.03441996213593934 0.08130664143460263
-0.06728528461800945 -0.0325612224274542 0.07648159431982457
-0.0776687656164835 -0.03070248271896905 0.07165654720504652
-0.08805224661495754 -0.028843743010483903 0.06683150009026848
-0.09843572761343158 -0.026985003301998756 0.06200645297549042
-0.10881920861190562 -0.025126263593513613 0.057181405860712374
-0.11920268961037966 -0.023267523885028462 0.052356358745934334
-0.12958617060885372 -0.021408784176543315 0.04753131163115628
-0.13996965160732777 -0.019550044468058157 0.042706264516378226
-0.04651832262106137 -0.03627870184442449 0.08613168854938068
-0.056292699822574156 -0.038000401858889955 0.08012752582739058
-0.06606707702408694 -0.039722101873355425 0.07412336310540048
-0.07584145422559974 -0.04144380188782089 0.06811920038341038
-0.08561583142711253 -0.04316550190228636 0.06211503766142028
-0.09539020862862531 -0.04488720191675182 0.05611087493943018
-0.1051645858301381 -0.046608901931217285 0.050106712217440084
-0.11493896303165088 -0.04833060194568275 0.04410254949544999
-0.12471334023316367 -0.050052301960148225 0.038098386773459884
-0.13448771743467647 -0.05177400197461368 0.03209422405146979
-0.04651832262106137 -0.03627870184442449 0.08613168854938068
-0.05462439059074012 -0.041394268670344986 0.07959905441528982
-0.06273045856041887 -0.04650983549626547 0.07306642028119897
-0.07083652653009762 -0.051625402322185966 0.06653378614710811
-0.07894259449977636 -0.05674096914810646 0.06000115201301727
-0.08704866246945511 -0.061856535974026954 0.05346851787892641
-0.09515473043913385 -0.06697210279994745 0.046935883744835566
-0.10326079840881261 -0.07208766962586793 0.04040324961074471
-0.11136686637849134 -0.07720323645178842 0.03387061547665386
-0.11947293434817009 -0.08231880327770892 0.027337981342563
-0.04651832262106137 -0.03627870184442449 0.08613168854938068
-0.05207766311578741 -0.04423378444001381 0.07977849527588032
-0.05763700361051346 -0.052188867035603125 0.07342530200237998
-0.0631963441052395 -0.060143949631192434 0.06707210872887963
-0.06875568459996555 -0.06809903222678175 0.06071891545537928
-0.0743150250946916 -0.07605411482237107 0.054365722181878934
-0.07987436558941763 -0.08400919741796037 0.048012528908378586
-0.08543370608414368 -0.0919642800135497 0.04165933563487823
-0.09099304657886972 -0.09991936260913901 0.035306142361377885
-0.09655238707359577 -0.10787444520472832 0.028952949087877527
-0.04651832262106137 -0.03627870184442449 0.08613168854938068
-0.04892849483617548 -0.04621124357462602 0.08064640320760527
-0.05133866705128959 -0.056143785304827554 0.07516111786582988
-0.0537488392664037 -0.06607632703502908 0.06967583252405447
-0.056159011481517807 -0.07600886876523061 0.06419054718227908
-0.058569183696631916 -0.08594141049543214 0.05870526184050368
-0.060979355911746025 -0.09587395222563366 0.05321997649872828
-0.06338952812686013 -0.1058064939558352 0.047734691156952884
-0.06579970034197424 -0.11573903568603673 0.042249405815177485
-0.06820987255708835 -0.12567157741623827 0.036764120473402086
-0.04651832262106137 -0.03627870184442449 0.08613168854938068
-0.045518146999380796 -0.047112357693506496 0.08210872691908316
-0.04451797137770023 -0.057946013542588506 0.07808576528878565
-0.043517795756019655 -0.06877966939167052 0.07406280365848814
-0.04251762013433909 -0.07961332524075251 0.07003984202819062
-0.041517444512658506 -0.09044698108983452 0.06601688039789311
-0.04051726889097794 -0.10128063693891654 0.0619939187675956
-0.039517093269297365 -0.11211429278799853 0.057970957137298086
-0.0385169176476168 -0.12294794863708054 0.053947995507000565
-0.03751674202593622 -0.13378160448616255 0.049925033876703065
-0.04651832262106137 -0.03627870184442449 0.08613168854938068
-0.04221618371051899 -0.04683947709964834 0.0840070009458851
-0.03791404479997661 -0.05740025235487219 0.08188231334238955
-0.033611905889434225 -0.06796102761009604 0.07975762573889397
-0.029309766978891847 -0.07852180286531989 0.07763293813539841
-0.025007628068349462 -0.08908257812054374 0.07550825053190284
-0.02070548915780708 -0.09964335337576759 0.07338356292840728
-0.01640335024726471 -0.11020412863099144 0.07125887532491171
-0.012101211336722324 -0.12076490388621529 0.06913418772141615
-0.007799072426179943 -0.13132567914143917 0.06700950011792058
-0.04651832262106137 -0.03627870184442449 0.08613168854938068
-0.0393804239271776 -0.045422172639574765 0.08613551784245077
-0.03224252523329384 -0.05456564343472504 0.08613934713552086
-0.02510462653941007 -0.06370911422987531 0.08614317642859097
-0.017966727845526307 -0.07285258502502558 0.08614700572166106
-0.010828829151642537 -0.08199605582017586 0.08615083501473117
-0.003690930457758771 -0.09113952661532612 0.08615466430780126
0.0034469682361250027 -0.1002829974104764 0.08615849360087136
0.010584866930008756 -0.10942646820562667 0.08616232289394145
0.017722765623892522 -0.11856993900077695 0.08616615218701155
-0.04651832262106137 -0.03627870184442449 0.08613168854938068
-0.03731816622322834 -0.04301403124327932 0.08826361977569469
-0.028118009825395307 -0.049749360642134144 0.0903955510020087
-0.01891785342756228 -0.05648469004098897 0.09252748222832272
-0.009717697029729244 -0.0632200194398438 0.09465941345463673
-0.0005175406318962201 -0.06995534883869862 0.09679134468095074
0.008682615765936812 -0.07669067823755345 0.09892327590726474
0.017882772163769836 -0.08342600763640828 0.10105520713357875
0.02708292856160288 -0.0901613370352631 0.10318713835989277
0.0362830849594359 -0.09689666643411793 0.10531906958620678
