# .PCD v0.7 - Point Cloud Data file format
VERSION 0.7
FIELDS x y z
SIZE 4 4 4
TYPE F F F
COUNT 1 1 1
WIDTH 700
HEIGHT 1
VIEWPOINT 0 0 0 1 0 0 0
POINTS 700
DATA ascii
0.06504570189683405 -0.014450755433792904 -0.05665256502974545
0.06549581174047155 -0.0011485486972783057 -0.05795049846770365
0.06306811031727164 0.011920924460911246 -0.0594103173978589
0.057876114247586805 0.024146550001574944 -0.06096376230950937
0.050162595497146356 0.03495667126223817 -0.06253819584511627
0.04028822962976051 0.04384581898733921 -0.06405999924241183
0.028714731018818825 0.050398346508830426 -0.06545801466590152
0.015983263596349113 0.05430786492241813 -0.06666687246816548
0.0026891366290163043 0.05539156949220066 -0.06763004780191881
-0.010546031281548011 0.05359878739694604 -0.06830250365904769
-0.023103378393678445 0.049013347134894227 -0.06865279675105379
-0.0343957371129007 0.04184965879634795 -0.0686645477622777
-0.04389508929605923 0.03244268848614986 -0.06833720722849493
-0.05115725579284117 0.021232295680908307 -0.06768608122925225
-0.05584266576917537 0.008742665888739655 -0.0667416156925997
-0.0577322346620276 -0.004442199682500838 -0.06554797277733311
-0.05673760833007307 -0.017705791372627518 -0.06416096589953152
-0.052905294395146206 -0.030427918375633443 -0.06264544995925349
-0.04641448759753318 -0.042013708172486654 -0.061072288797491464
-0.03756869084907677 -0.051921422108966775 -0.05951504168172636
-0.026781523774337804 -0.05968778649303717 -0.05804652375633551
-0.014557382316655999 -0.06494965475779275 -0.05673540128736973
-0.0014678537444351369 -0.06746098779132007 -0.055642980904269904
0.01187501013425385 -0.06710435845211761 -0.054820342970011725
0.024847311833971545 -0.06389644233172141 -0.05430595312010472
0.03684248094491696 -0.057987238022578526 -0.05412386365222727
0.04729963669113522 -0.04965305335057559 -0.05428258886751943
0.05572981409222697 -0.03928358552819451 -0.05477470695132453
0.06173882742238647 -0.02736369934597406 -0.05557720700899383
0.06504570189683405 -0.01445075543379292 -0.05665256502974545
0.06416791230007805 -0.013089453051439652 -0.043005313587718245
0.06461802214371555 0.0002127536850749456 -0.044303247025676444
0.06219032072051564 0.013282226843264498 -0.0457630659558317
0.05699832465083081 0.025507852383928196 -0.04731651086748216
0.04928480590039036 0.036317973644591425 -0.04889094440308907
0.039410440033004514 0.04520712136969247 -0.050412747800384634
0.02783694142206283 0.05175964889118368 -0.05181076322387432
0.01510547399959312 0.05566916730477139 -0.053019621026138275
0.001811347032260308 0.05675287187455391 -0.0539827963598916
-0.011423820878304007 0.054960089779299295 -0.054655252217020486
-0.02398116799043444 0.05037464951724748 -0.055005545309026585
-0.035273526709656694 0.043210961178701206 -0.0550172963202505
-0.04477287889281523 0.033803990868503116 -0.05468995578646772
-0.05203504538959717 0.02259359806326156 -0.054038829787225046
-0.056720455365931365 0.010103968271092906 -0.053094364250572505
-0.058610024258783595 -0.003080897300147587 -0.051900721335305905
-0.057615397926829064 -0.016344488990274266 -0.05051371445750431
-0.0537830839919022 -0.02906661599328019 -0.04899819851722629
-0.047292277194289176 -0.0406524057901334 -0.04742503735546426
-0.038446480445832765 -0.05056011972661352 -0.04586779023969916
-0.0276593133710938 -0.05832648411068392 -0.044399272314308305
-0.015435171913411995 -0.0635883523754395 -0.043088149845342524
-0.0023456433411911328 -0.06609968540896682 -0.0419957294622427
0.010997220537497854 -0.06574305606976437 -0.041173091527984526
0.02396952223721555 -0.06253513994936817 -0.040658701678077516
0.035964691348160965 -0.05662593564022527 -0.04047661221020007
0.04642184709437922 -0.04829175096822234 -0.040635337425492225
0.054852024495470976 -0.03792228314584126 -0.041127455509297334
0.060861037825630473 -0.02600239696362081 -0.041929955566966624
0.06416791230007805 -0.013089453051439668 -0.043005313587718245
0.06329012270332206 -0.011728150669086402 -0.02935806214569105
0.06374023254695955 0.0015740560674281962 -0.030655995583649245
0.061312531123759645 0.014643529225617747 -0.0321158145138045
0.05612053505407481 0.026869154766281447 -0.03366925942545496
0.048407016303634365 0.03767927602694467 -0.03524369296106187
0.03853265043624852 0.046568423752045715 -0.036765496358357436
0.026959151825306834 0.05312095127353693 -0.03816351178184712
0.014227684402837124 0.057030469687124635 -0.039372369584111076
0.0009335574355043123 0.05811417425690716 -0.040335544917864403
-0.012301610475060003 0.05632139216165254 -0.04100800077499329
-0.024858957587190436 0.05173595189960073 -0.041358293866999386
-0.03615131630641269 0.044572263561054454 -0.0413700448782233
-0.04565066848957122 0.035165293250856364 -0.041042704344440524
-0.052912834986353165 0.02395490044561481 -0.04039157834519785
-0.05759824496268736 0.011465270653446156 -0.03944711280854531
-0.05948781385553959 -0.0017195949177943363 -0.03825346989327871
-0.05849318752358506 -0.014983186607921016 -0.036866463015477115
-0.0546608735886582 -0.02770531361092694 -0.03535094707519909
-0.04817006679104517 -0.03929110340778015 -0.03377778591343706
-0.03932427004258876 -0.04919881734426027 -0.03222053879767196
-0.028537102967849795 -0.05696518172833067 -0.030752020872281106
-0.016312961510167992 -0.06222704999308625 -0.029440898403315326
-0.0032234329379471284 -0.06473838302661357 -0.0283484780202155
0.010119430940741858 -0.06438175368741111 -0.027525840085957324
0.023091732640459554 -0.061173837567014916 -0.027011450236050318
0.03508690175140497 -0.05526463325787202 -0.02682936076817287
0.045544057497623226 -0.04693044858586909 -0.026988085983465027
0.05397423489871498 -0.03656098076348801 -0.027480204067270135
0.05998324822887448 -0.024641094581267557 -0.02828270412493943
0.06329012270332206 -0.011728150669086418 -0.029358062145691047
0.06241233310656606 -0.01036684828673315 -0.015710810703663845
0.06286244295020356 0.0029353584497814477 -0.017008744141622043
0.06043474152700365 0.016004831607971 -0.018468563071777296
0.05524274545731882 0.0282304571486347 -0.02002200798342776
0.04752922670687837 0.03904057840929793 -0.021596441519034667
0.03765486083949252 0.04792972613439897 -0.023118244916330234
0.02608136222855084 0.054482253655890184 -0.024516260339819913
0.013349894806081126 0.05839177206947789 -0.02572511814208387
5.5767838748316226e-05 0.059475476639260415 -0.0266882934758372
-0.013179400071816 0.0576826945440058 -0.027360749332966082
-0.025736747183946432 0.053097254281953984 -0.02771104242497218
-0.037029105903168685 0.04593356594340771 -0.0277227934361961
-0.04652845808632722 0.03652659563320962 -0.02739545290241332
-0.05379062458310916 0.02531620282796806 -0.026744326903170645
-0.058476034559443356 0.012826573035799408 -0.025799861366518104
-0.06036560345229559 -0.00035829253544108493 -0.024606218451251508
-0.059370977120341055 -0.013621884225567765 -0.02321921157344991
-0.05553866318541419 -0.02634401122857369 -0.02170369563317189
-0.04904785638780117 -0.037929801025426896 -0.020130534471409858
-0.040202059639344756 -0.04783751496190702 -0.018573287355644758
-0.02941489256460579 -0.055603879345977415 -0.0171047694302539
-0.017190751106923988 -0.060865747610733 -0.015793646961288123
-0.0041012225347031245 -0.06337708064426031 -0.014701226578188297
0.00924164134398586 -0.06302045130505786 -0.013878588643930122
0.022213943043703558 -0.05981253518466166 -0.013364198794023114
0.034209112154648974 -0.05390333087551877 -0.013182109326145667
0.04466626790086723 -0.045569146203515834 -0.013340834541437824
0.053096445301958985 -0.035199678381134754 -0.01383295262524293
0.05910545863211848 -0.023279792198914306 -0.014635452682912225
0.06241233310656606 -0.010366848286733166 -0.015710810703663845
0.061534543509810066 -0.0090055459043799 -0.0020635592616366424
0.061984653353447564 0.004296660832134699 -0.0033614926995948393
0.059556951930247654 0.017366133990324252 -0.004821311629750094
0.05436495586056282 0.02959175953098795 -0.006374756541400558
0.046651437110122373 0.040401880791651176 -0.007949190077007463
0.03677707124273653 0.04929102851675222 -0.00947099347430303
0.025203572631794843 0.05584355603824343 -0.01086900889779271
0.01247210520932513 0.05975307445183114 -0.012077866700056668
-0.0008220217580076798 0.06083677902161366 -0.013041042033809997
-0.014057189668571996 0.059043996926359046 -0.01371349789093888
-0.026614536780702427 0.05445855666430723 -0.014063790982944979
-0.03790689549992468 0.04729486832576096 -0.014075541994168897
-0.047406247683083214 0.03788789801556287 -0.013748201460386114
-0.054668414179865156 0.026677505210321313 -0.013097075461143443
-0.05935382415619935 0.01418787541815266 -0.0121526099244909
-0.06124339304905158 0.0010030098469121663 -0.010958967009224304
-0.06024876671709705 -0.012260581843214513 -0.009571960131422705
-0.05641645278217019 -0.024982708846220437 -0.008056444191144685
-0.04992564598455716 -0.03656849864307365 -0.006483283029382654
-0.04107984923610075 -0.04647621257955377 -0.004926035913617554
-0.030292682161361786 -0.05424257696362417 -0.0034575179882266986
-0.018068540703679983 -0.05950444522837975 -0.0021463955192609187
-0.004979012131459121 -0.062015778261907066 -0.0010539751361610934
0.008363851747229865 -0.06165914892270461 -0.000231337201902918
0.021336153446947562 -0.05845123280230841 0.0002830526480040901
0.03333132255789298 -0.05254202849316552 0.00046514211588153683
0.043788478304111235 -0.044207843821162586 0.0003064169005893793
0.05221865570520299 -0.033838375998781506 -0.0001857011832157265
0.058227669035362487 -0.021918489816561054 -0.0009882012408850215
0.061534543509810066 -0.009005545904379915 -0.0020635592616366407
0.06065675391305407 -0.007644243522026648 0.011583692180390563
0.06110686375669157 0.00565796321448795 0.010285758742432366
0.05867916233349166 0.0187274363726775 0.008825939812277112
0.053487166263806826 0.0309530619133412 0.007272494900626648
0.04577364751336638 0.04176318317400443 0.005698061365019743
0.03589928164598053 0.05065233089910547 0.004176257967724176
0.024325783035038847 0.05720485842059669 0.0027782425442344962
0.011594315612569135 0.06111437683418439 0.0015693847419705374
-0.001699811354763676 0.06219808140396692 0.0006062094082172092
-0.014934979265327991 0.0604052993087123 -6.624644891167402e-05
-0.027492326377458423 0.05581985904666049 -0.00041653954091777184
-0.03878468509668068 0.04865617070811421 -0.00042829055214169115
-0.04828403727983921 0.03924920039791612 -0.00010095001835890869
-0.05554620377662115 0.02803880759267456 0.000550175980883764
-0.06023161375295535 0.01554917780050591 0.0014946415175363062
-0.06212118264580758 0.0023643122292654178 0.002688284432802903
-0.061126556313853046 -0.010899279460861262 0.0040752913106045004
-0.057294242378926184 -0.02362140646386719 0.005590807250882521
-0.05080343558131316 -0.03520719626072039 0.007163968412644553
-0.04195763883285675 -0.045114910197200514 0.008721215528409652
-0.031170471758117782 -0.05288127458127091 0.010189733453800507
-0.01894633030043598 -0.058143142846026494 0.011500855922766288
-0.005856801728215117 -0.06065447587955381 0.012593276305866112
0.007486062150473869 -0.060297846540351356 0.013415914240124288
0.020458363850191567 -0.05708993041995516 0.013930304090031296
0.03245353296113698 -0.051180726110812265 0.014112393557908743
0.04291068870735524 -0.04284654143880933 0.013953668342616585
0.05134086610844699 -0.03247707361642825 0.01346155025881148
0.05734987943860649 -0.020557187434207806 0.012659050201142184
0.06065675391305407 -0.0076442435220266634 0.011583692180390565
0.059778964316298075 -0.006282941139673397 0.02523094362241776
0.06022907415993557 0.007019265596841201 0.023933010184459563
0.05780137273673566 0.02008873875503075 0.02247319125430431
0.05260937666705083 0.03231436429569445 0.020919746342653846
0.04489585791661038 0.04312448555635768 0.01934531280704694
0.035021492049224535 0.05201363328145872 0.017823509409751373
0.02344799343828285 0.058566160802949935 0.016425493986261693
0.01071652601581314 0.06247567921653764 0.015216636183997734
-0.002577600951519672 0.06355938378632017 0.014253460850244405
-0.01581276886208399 0.06176660169106555 0.013581004993115523
-0.02837011597421442 0.057181161429013735 0.013230711901109424
-0.03966247469343667 0.05001747309046746 0.013218960889885506
-0.049161826876595205 0.04061050278026937 0.013546301423668288
-0.05642399337337715 0.029400109975027813 0.01419742742291096
-0.06110940334971134 0.01691048018285916 0.015141892959563502
-0.06299897224256358 0.0037256146116186684 0.0163355358748301
-0.06200434591060904 -0.009537977078508012 0.017722542752631697
-0.05817203197568218 -0.022260104081513937 0.019238058692909718
-0.051681225178069154 -0.033845893878367145 0.02081121985467175
-0.04283542842961274 -0.043753607814847266 0.02236846697043685
-0.03204826135487378 -0.051519972198917664 0.023836984895827702
-0.019824119897191975 -0.056781840463673246 0.025148107364793483
-0.006734591324971112 -0.05929317349720056 0.02624052774789331
0.006608272553717874 -0.05893654415799811 0.027063165682151485
0.01958057425343557 -0.05572862803760191 0.02757755553205849
0.03157574336438099 -0.04981942372845902 0.02775964499993594
0.042032899110599244 -0.04148523905645608 0.027600919784643782
0.050463076511691 -0.031115771234075003 0.027108801700838677
0.056472089841850495 -0.019195885051854555 0.02630630164316938
0.059778964316298075 -0.006282941139673413 0.025230943622417762
0.05890117471954208 -0.004921638757320146 0.03887819506444496
0.05935128456317958 0.008380567979194451 0.03758026162648677
0.05692358313997967 0.021450041137384003 0.036120442696331516
0.051731587070294835 0.0336756666780477 0.03456699778468105
0.044018068319854387 0.044485787938710934 0.032992564249074145
0.03414370245246854 0.053374935663811976 0.03147076085177858
0.022570203841526856 0.05992746318530319 0.030072745428288895
0.009838736419057144 0.0638369815988909 0.028863887626024938
-0.003455390548275668 0.06492068616867341 0.02790071229227161
-0.016690558458839985 0.0631279040734188 0.027228256435142727
-0.029247905570970414 0.05854246381136699 0.026877963343136628
-0.04054026429019267 0.051378775472820715 0.02686621233191271
-0.0500396164733512 0.041971805162622625 0.02719355286569549
-0.05730178297013314 0.030761412357381064 0.027844678864938164
-0.06198719294646734 0.018271782565212412 0.028789144401590708
-0.06387676183931958 0.00508691699397192 0.029982787316857305
-0.06288213550736504 -0.00817667469615476 0.0313697941946589
-0.059049821572438176 -0.020898801699160686 0.032885310134936924
-0.05255901477482515 -0.03248459149601389 0.034458471296698955
-0.04371321802636874 -0.04239230543249401 0.03601571841246405
-0.03292605095162977 -0.05015866981656441 0.03748423633785491
-0.02070190949394797 -0.05542053808131999 0.03879535880682069
-0.007612380921727109 -0.05793187111484731 0.039887779189920515
0.005730482956961877 -0.05757524177564485 0.04071041712417869
0.018702784656679575 -0.054367325655248655 0.0412248069740857
0.03069795376762499 -0.04845812134610576 0.041406896441963145
0.04115510951384325 -0.04012393667410283 0.04124817122667099
0.049585286914935 -0.02975446885172175 0.04075605314286588
0.0555943002450945 -0.017834582669501303 0.03995355308519658
0.05890117471954208 -0.004921638757320161 0.03887819506444497
0.058023385122786084 -0.0035603363749668947 0.052525446506472166
0.05847349496642358 0.009741870361547703 0.051227513068513975
0.05604579354322367 0.022811343519737255 0.049767694138358715
0.05085379747353884 0.035036969060400956 0.04821424922670825
0.04314027872309839 0.04584709032106418 0.04663981569110135
0.033265912855712544 0.054736238046165224 0.045118012293805784
0.02169241424477086 0.06128876556765644 0.0437199968703161
0.008960946822301146 0.06519828398124415 0.042511139068052144
-0.004333180145031664 0.06628198855102667 0.041547963734298816
-0.01756834805559598 0.06448920645577205 0.04087550787716993
-0.03012569516772641 0.05990376619372024 0.040525214785163834
-0.041418053886948664 0.05274007785517396 0.04051346377393991
-0.050917406070107196 0.04333310754497587 0.040840804307722696
-0.05817957256688914 0.03212271473973432 0.041491930306965366
-0.06286498254322334 0.019633084947565663 0.04243639584361791
-0.06475455143607557 0.0064482193763251705 0.04363003875888451
-0.06375992510412104 -0.006815372313801509 0.045017045636686105
-0.05992761116919417 -0.019537499316807434 0.04653256157696413
-0.053436804371581145 -0.031123289113660642 0.04810572273872616
-0.044591007623124734 -0.04103100305014076 0.04966296985449126
-0.03380384054838577 -0.04879736743421116 0.051131487779882114
-0.021579699090703966 -0.05405923569896674 0.052442610248847894
-0.008490170518483105 -0.05657056873249406 0.05353503063194772
0.0048526933602058816 -0.056213939393291605 0.05435766856620589
0.01782499505992358 -0.05300602327289541 0.0548720584161129
0.029820164170868996 -0.047096818963752514 0.05505414788399035
0.04027731991708725 -0.03876263429174958 0.05489542266869819
0.048707497318179006 -0.0283931664693685 0.054403304584893085
0.054716510648338504 -0.01647328028714805 0.05360080452722379
0.058023385122786084 -0.0035603363749669103 0.05252544650647217
0.05714559552603009 -0.0021990339926136436 0.06617269794849938
0.057595705369667585 0.011103172743900954 0.06487476451054118
0.055168003946467675 0.024172645902090506 0.06341494558038592
0.049976007876782844 0.036398271442754204 0.061861500668735456
0.042262489126342395 0.04720839270341744 0.06028706713312855
0.03238812325895655 0.05609754042851848 0.05876526373583298
0.020814624648014864 0.06265006795000969 0.05736724831234331
0.00808315722554515 0.06655958636359739 0.05615839051007935
-0.00521096974178766 0.06764329093337992 0.055195215176326015
-0.018446137652351976 0.06585050883812531 0.05452275931919714
-0.031003484764482406 0.06126506857607349 0.05417246622719104
-0.04229584348370466 0.05410138023752722 0.05416071521596712
-0.05179519566686319 0.04469440992732913 0.0544880557497499
-0.059057362163645134 0.03348401712208757 0.05513918174899257
-0.06374277213997934 0.020994387329918915 0.05608364728564511
-0.06563234103283157 0.007809521758678422 0.05727729020091171
-0.06463771470087704 -0.005454069931448258 0.05866429707871331
-0.06080540076595017 -0.018176196934454183 0.06017981301899133
-0.05431459396833714 -0.02976198673130739 0.06175297418075336
-0.04546879721988073 -0.03966970066778751 0.06331022129651846
-0.034681630145141765 -0.047436065051857906 0.06477873922190931
-0.02245748868745996 -0.05269793331661349 0.06608986169087509
-0.009367960115239101 -0.055209266350140805 0.06718228207397492
0.003974903763449885 -0.05485263701093835 0.06800492000823309
0.016947205463167584 -0.05164472089054215 0.0685193098581401
0.028942374574113 -0.04573551658139926 0.06870139932601756
0.03939953032033126 -0.037401331909396325 0.0685426741107254
0.04782970772142301 -0.02703186408701525 0.06805055602692028
0.05383872105158251 -0.0151119779047948 0.067248055969251
0.05714559552603009 -0.002199033992613659 0.06617269794849938
0.003950053185401982 -0.00612586072058963 -0.06141263148912241
0.010738458597783322 -0.007050849022056661 -0.060883735215858305
0.017526864010164664 -0.00797583732352369 -0.0603548389425942
0.024315269422546002 -0.008900825624990722 -0.05982594266933009
0.031103674834927344 -0.009825813926457752 -0.059297046396065985
0.03789208024730869 -0.010750802227924783 -0.05876815012280188
0.044680485659690024 -0.011675790529391812 -0.05823925384953777
0.051468891072071365 -0.012600778830858844 -0.057710357576273665
0.05825729648445271 -0.013525767132325874 -0.05718146130300956
0.06504570189683405 -0.014450755433792904 -0.05665256502974545
0.003950053185401982 -0.00612586072058963 -0.06141263148912241
0.010685904677016354 -0.0048009331986486785 -0.06111154277612963
0.017421756168630727 -0.003476005676707726 -0.06081045406313685
0.024157607660245096 -0.002151078154766773 -0.06050936535014407
0.03089345915185947 -0.0008261506328258227 -0.06020827663715129
0.03762931064347384 0.0004987768891151305 -0.05990718792415851
0.04436516213508821 0.0018237044110560837 -0.059606099211165726
0.051101013626702586 0.0031486319329970328 -0.059305010498172946
0.05783686511831696 0.004473559454937985 -0.059003921785180165
0.06457271660993134 0.005798486976878937 -0.058702833072187384
0.003950053185401982 -0.00612586072058963 -0.06141263148912241
0.009903416729628264 -0.002694593830611702 -0.061371977970326466
0.015856780273854548 0.0007366730593662254 -0.06133132445153052
0.021810143818080822 0.004167939949344153 -0.061290670932734576
0.02776350736230711 0.007599206839322081 -0.06125001741393863
0.03371687090653339 0.011030473729300008 -0.061209363895142685
0.039670234450759664 0.014461740619277935 -0.06116871037634674
0.04562359799498596 0.017893007509255862 -0.061128056857550794
0.05157696153921224 0.021324274399233793 -0.06108740333875484
0.05753032508343852 0.024755541289211723 -0.0610467498199589
0.003950053185401982 -0.00612586072058963 -0.06141263148912241
0.008475789466270044 -0.0009600854716953057 -0.06163681860408918
0.013001525747138106 0.004205689777199019 -0.06186100571905595
0.017527262028006165 0.009371465026093342 -0.062085192834022716
0.02205299830887423 0.014537240274987668 -0.06230937994898948
0.02657873458974229 0.019703015523881994 -0.06253356706395626
0.03110447087061035 0.024868790772776313 -0.06275775417892301
0.03563020715147841 0.030034566021670647 -0.06298194129388979
0.04015594343234648 0.03520034127056496 -0.06320612840885656
0.04468167971321454 0.04036611651945929 -0.06343031552382333
0.003950053185401982 -0.00612586072058963 -0.06141263148912241
0.006557728452845937 0.00021463098374172282 -0.061877365085323745
0.009165403720289891 0.006555122688073076 -0.06234209868152507
0.011773078987733844 0.012895614392404425 -0.0628068322777264
0.0143807542551778 0.019236106096735782 -0.06327156587392772
0.016988429522621754 0.025576597801067132 -0.06373629947012906
0.019596104790065703 0.031917089505398476 -0.06420103306633039
0.02220378005750966 0.03825758120972983 -0.06466576666253172
0.024811455324953616 0.04459807291406119 -0.06513050025873304
0.02741913059239757 0.05093856461839253 -0.06559523385493438
0.003950053185401982 -0.00612586072058963 -0.06141263148912241
0.0043570853619435326 0.0007022567801489175 -0.06206755047032516
0.004764117538485082 0.0075303742808874655 -0.0627224694515279
0.0051711497150266315 0.014358491781626005 -0.06337738843273065
0.005578181891568183 0.02118660928236456 -0.0640323074139334
0.005985214068109731 0.028014726783103103 -0.06468722639513615
0.006392246244651281 0.034842844283841636 -0.0653421453763389
0.006799278421192833 0.04167096178458019 -0.06599706435754164
0.007206310597734383 0.04849907928531875 -0.06665198333874439
0.007613342774275933 0.055327196786057284 -0.06730690231994714
0.003950053185401982 -0.00612586072058963 -0.06141263148912241
0.002112334018957898 0.00044995009619174555 -0.06218676522159823
0.000274614852513814 0.007025760912973121 -0.06296089895407404
-0.0015631043139302692 0.013601571729754493 -0.06373503268654986
-0.003400823480374354 0.020177382546535873 -0.06450916641902568
-0.005238542646818436 0.02675319336331725 -0.0652833001515015
-0.00707626181326252 0.03332900418009861 -0.0660574338839773
-0.0089139809797066 0.039904814996879985 -0.06683156761645312
-0.01075170014615069 0.04648062581366137 -0.06760570134892895
-0.012589419312594772 0.053056436630442745 -0.06837983508140476
0.003950053185401982 -0.00612586072058963 -0.06141263148912241
6.672806280736618e-05 -0.0005149477239814609 -0.06222209057103505
-0.0038165970597872495 0.005095965272626709 -0.06303154965294769
-0.007699922182381866 0.010706878269234877 -0.06384100873486033
-0.011583247304976481 0.016317791265843047 -0.06465046781677297
-0.0154665724275711 0.02192870426245122 -0.06545992689868561
-0.019349897550165716 0.027539617259059384 -0.06626938598059824
-0.02323322267276033 0.03315053025566755 -0.06707884506251088
-0.027116547795354946 0.03876144325227572 -0.06788830414442353
-0.03099987291794957 0.04437235624888389 -0.06869776322633617
0.003950053185401982 -0.00612586072058963 -0.06141263148912241
-0.0015580593603123727 -0.002087875029622643 -0.06216969846889488
-0.007066171906026727 0.0019501106613443433 -0.06292676544866734
-0.012574284451741082 0.0059880963523113295 -0.06368383242843981
-0.01808239699745544 0.010026082043278317 -0.06444089940821227
-0.023590509543169796 0.014064067734245303 -0.06519796638798474
-0.029098622088884148 0.01810205342521229 -0.0659550333677572
-0.034606734634598506 0.022140039116179278 -0.06671210034752967
-0.04011484718031286 0.026178024807146264 -0.06746916732730213
-0.04562295972602722 0.03021601049811325 -0.0682262343070746
0.003950053185401982 -0.00612586072058963 -0.06141263148912241
-0.0025859573219318257 -0.004098380740683746 -0.06203526641239182
-0.009121967829265634 -0.0020709007607778605 -0.06265790133566122
-0.01565797833659944 -4.342078087197551e-05 -0.06328053625893063
-0.02219398884393325 0.001984059199033909 -0.06390317118220004
-0.028729999351267056 0.004011539178939795 -0.06452580610546944
-0.03526600985860086 0.006039019158845679 -0.06514844102873885
-0.04180202036593468 0.008066499138751564 -0.06577107595200825
-0.04833803087326848 0.010093979118657448 -0.06639371087527766
-0.0548740413806023 0.012121459098563336 -0.06701634579854707
0.003950053185401982 -0.00612586072058963 -0.06141263148912241
-0.0029055771284293196 -0.006328595367160932 -0.06183336220077626
-0.009761207442260621 -0.006531330013732235 -0.06225409291243011
-0.01661683775609192 -0.006734064660303538 -0.06267482362408396
-0.023472468069923227 -0.006936799306874839 -0.0630955543357378
-0.030328098383754526 -0.007139533953446142 -0.06351628504739165
-0.03718372869758582 -0.007342268600017445 -0.06393701575904549
-0.04403935901141713 -0.0075450032465887475 -0.06435774647069935
-0.050894989325248434 -0.007747737893160049 -0.06477847718235319
-0.05775061963907974 -0.007950472539731353 -0.06519920789400704
0.003950053185401982 -0.00612586072058963 -0.06141263148912241
-0.002482283014358564 -0.008536840548929961 -0.06158586528824338
-0.00891461921411911 -0.01094782037727029 -0.06175909908736435
-0.015346955413879657 -0.01335880020561062 -0.061932332886485315
-0.021779291613640204 -0.01576978003395095 -0.06210556668560628
-0.02821162781340076 -0.01818075986229128 -0.062278800484727254
-0.0346439640131613 -0.02059173969063161 -0.06245203428384822
-0.04107630021292185 -0.023002719518971936 -0.06262526808296918
-0.04750863641268239 -0.02541369934731227 -0.06279850188209016
-0.05394097261244295 -0.0278246791756526 -0.06297173568121113
0.003950053185401982 -0.00612586072058963 -0.06141263148912241
-0.0013619454650640463 -0.010483818656091767 -0.061319595805576395
-0.0066739441155300745 -0.014841776591593903 -0.06122656012203038
-0.011985942765996098 -0.019199734527096037 -0.06113352443848437
-0.017297941416462133 -0.023557692462598177 -0.06104048875493835
-0.02260994006692816 -0.027915650398100303 -0.060947453071392335
-0.02792193871739418 -0.03227360833360244 -0.06085441738784632
-0.033233937367860206 -0.03663156626910458 -0.0607613817043003
-0.038545936018326246 -0.04098952420460673 -0.06066834602075429
-0.04385793466879227 -0.04534748214010885 -0.060575310337208275
0.003950053185401982 -0.00612586072058963 -0.06141263148912241
0.0003340295621599864 -0.011958544400257348 -0.061063408182818996
-0.003281994061082009 -0.017791228079925066 -0.06071418487651557
-0.006898017684324005 -0.023623911759592782 -0.06036496157021216
-0.010514041307566 -0.029456595439260498 -0.060015738263908734
-0.014130064930808 -0.03528927911892823 -0.05966651495760532
-0.017746088554049994 -0.04112196279859594 -0.059317291651301896
-0.02136211217729199 -0.04695464647826366 -0.05896806834499848
-0.024978135800533985 -0.05278733015793137 -0.05861884503869506
-0.02859415942377598 -0.0586200138375991 -0.05826962173239164
0.003950053185401982 -0.00612586072058963 -0.06141263148912241
0.002421856857349851 -0.012801208364318754 -0.06084506432405747
0.0008936605292977193 -0.019476556008047877 -0.06027749715899254
-0.0006345357987544112 -0.026151903651776994 -0.0597099299939276
-0.0021627321268065432 -0.03282725129550613 -0.05914236282886267
-0.003690928454858673 -0.039502598939235245 -0.05857479566379773
-0.005219124782910804 -0.04617794658296436 -0.05800722849873279
-0.006747321110962937 -0.05285329422669349 -0.05743966133366786
-0.008275517439015069 -0.05952864187042262 -0.05687209416860292
-0.009803713767067198 -0.06620398951415173 -0.05630452700353799
0.003950053185401982 -0.00612586072058963 -0.06141263148912241
0.0046752879370933675 -0.012920494832491332 -0.0606882251743427
0.005400522688784754 -0.019715128944393034 -0.059963818859562985
0.006125757440476141 -0.02650976305629473 -0.059239412544783265
0.006850992192167525 -0.03330439716819644 -0.05851500623000355
0.007576226943858911 -0.04009903128009814 -0.05779059991522384
0.0083014616955503 -0.046893665391999836 -0.057066193600444126
0.009026696447241684 -0.05368829950390154 -0.05634178728566441
0.009751931198933068 -0.06048293361580325 -0.05561738097088469
0.010477165950624458 -0.06727756772770493 -0.05489297465610498
0.003950053185401982 -0.00612586072058963 -0.06141263148912241
0.006850128578314496 -0.012303477265028326 -0.06060988668915641
0.00975020397122701 -0.01848109380946702 -0.0598071418891904
0.012650279364139524 -0.02465871035390571 -0.05900439708922439
0.015550354757052036 -0.03083632689834441 -0.05820165228925839
0.01845043014996455 -0.03701394344278311 -0.05739890748929238
0.021350505542877065 -0.043191559987221795 -0.05659616268932637
0.02425058093578957 -0.049369176531660494 -0.05579341788936037
0.02715065632870209 -0.055546793076099193 -0.054990673089394364
0.030050731721614612 -0.061724409620537886 -0.05418792828942836
0.003950053185401982 -0.00612586072058963 -0.06141263148912241
0.008710701051407392 -0.011017019089378355 -0.06061853805891537
0.013471348917412801 -0.01590817745816708 -0.05982444462870834
0.01823199678341821 -0.020799335826955798 -0.0590303511985013
0.02299264464942362 -0.025690494195744526 -0.05823625776829426
0.02775329251542903 -0.030581652564533247 -0.05744216433808723
0.03251394038143444 -0.03547281093332197 -0.05664807090788019
0.03727458824743985 -0.04036396930211069 -0.05585397747767316
0.04203523611344526 -0.045255127670899425 -0.05505988404746612
0.04679588397945067 -0.05014628603968815 -0.05426579061725908
0.003950053185401982 -0.00612586072058963 -0.06141263148912241
0.010055383459155968 -0.009200528010328387 -0.06071324177346639
0.016160713732909955 -0.012275195300067146 -0.06001385205781037
0.022266044006663935 -0.015349862589805901 -0.05931446234215434
0.028371374280417926 -0.01842452987954466 -0.058615072626498316
0.034476704554171914 -0.02149919716928342 -0.057915682910842294
0.04058203482792589 -0.024573864459022172 -0.057216293195186264
0.04668736510167989 -0.027648531748760932 -0.05651690347953024
0.05279269537543387 -0.03072319903849969 -0.05581751376387422
0.05889802564918786 -0.03379786632823845 -0.0551181240482182
0.003950053185401982 -0.00612586072058963 -0.06141263148912241
0.010738458597783322 -0.007050849022056662 -0.060883735215858305
0.017526864010164664 -0.007975837323523693 -0.0603548389425942
0.024315269422546002 -0.008900825624990725 -0.05982594266933009
0.031103674834927344 -0.009825813926457759 -0.059297046396065985
0.03789208024730869 -0.010750802227924792 -0.05876815012280188
0.044680485659690024 -0.011675790529391822 -0.05823925384953777
0.051468891072071365 -0.012600778830858854 -0.057710357576273665
0.05825729648445271 -0.013525767132325886 -0.05718146130300956
0.06504570189683405 -0.01445075543379292 -0.05665256502974545
-0.003950053185401982 0.00612586072058963 0.06141263148912241
0.0028383522269793586 0.0052008724191226 0.06194152776238652
0.0096267576393607 0.004275884117655569 0.062470424035650625
0.01641516305174204 0.003350895816188539 0.06299932030891474
0.023203568464123383 0.0024259075147215086 0.06352821658217885
0.029991973876504728 0.0015009192132544775 0.06405711285544295
0.03678037928888606 0.0005759309117874484 0.06458600912870706
0.043568784701267405 -0.00034905738967958255 0.06511490540197117
0.050357190113648746 -0.0012740456911466125 0.06564380167523527
0.05714559552603009 -0.0021990339926136436 0.06617269794849938
-0.003950053185401982 0.00612586072058963 0.06141263148912241
0.0027857983062123904 0.007450788242530582 0.06171372020211519
0.009521649797826763 0.008775715764471535 0.06201480891510797
0.016257501289441135 0.010100643286412487 0.062315897628100754
0.02299335278105551 0.011425570808353437 0.06261698634109354
0.029729204272669882 0.012750498330294392 0.06291807505408632
0.03646505576428425 0.014075425852235344 0.0632191637670791
0.043200907255898625 0.015400353374176293 0.06352025248007188
0.049936758747513 0.016725280896117245 0.06382134119306467
0.056672610239127376 0.018050208418058197 0.06412242990605745
-0.003950053185401982 0.00612586072058963 0.06141263148912241
0.0020033103588243005 0.009557127610567559 0.06145328500791836
0.007956673903050583 0.012988394500545486 0.0614939385267143
0.01391003744727686 0.016419661390523414 0.06153459204551025
0.01986340099150315 0.01985092828050134 0.06157524556430619
0.025816764535729432 0.023282195170479268 0.06161589908310214
0.0317701280799557 0.026713462060457195 0.06165655260189808
0.037723491624181996 0.030144728950435122 0.061697206120694036
0.04367685516840828 0.033575995840413056 0.06173785963948998
0.04963021871263456 0.03700726273039098 0.061778513158285926
-0.003950053185401982 0.00612586072058963 0.06141263148912241
0.0005756830954660801 0.011291635969483954 0.061188444374155646
0.005101419376334142 0.01645741121837828 0.06096425725918887
0.009627155657202202 0.0216231864672726 0.06074007014422211
0.014152891938070266 0.026788961716166928 0.06051588302925534
0.01867862821893833 0.03195473696506126 0.06029169591428857
0.02320436449980639 0.03712051221395558 0.0600675087993218
0.02773010078067445 0.04228628746284991 0.059843321684355036
0.03225583706154252 0.04745206271174423 0.05961913456938827
0.03678157334241058 0.052617837960638555 0.0593949474544215
-0.003950053185401982 0.00612586072058963 0.06141263148912241
-0.0013423779179580276 0.012466352424920984 0.060947897892921085
0.0012652973494859268 0.018806844129252338 0.06048316429671975
0.0038729726169298793 0.025147335833583685 0.060018430700518426
0.006480647884373835 0.03148782753791504 0.05955369710431709
0.00908832315181779 0.037828319242246396 0.059088963508115766
0.01169599841926174 0.04416881094657774 0.05862422991191443
0.014303673686705697 0.050509302650909096 0.058159496315713106
0.016911348954149655 0.05684979435524046 0.05769476271951177
0.019519024221593607 0.06319028605957179 0.05723002912331045
-0.003950053185401982 0.00612586072058963 0.06141263148912241
-0.003543021008860432 0.012953978221328178 0.06075771250791966
-0.003135988832318882 0.019782095722066725 0.060102793526716915
-0.0027289566557773324 0.026610213222805264 0.059447874545514166
-0.0023219244792357817 0.033438330723543824 0.05879295556431142
-0.0019148923026942324 0.04026644822428237 0.05813803658310867
-0.0015078601261526829 0.0470945657250209 0.05748311760190593
-0.0011008279496111312 0.05392268322575946 0.05682819862070317
-0.0006937957730695809 0.060750800726498015 0.05617327963950043
-0.00028676359652803144 0.06757891822723655 0.05551836065829768
-0.003950053185401982 0.00612586072058963 0.06141263148912241
-0.005787772351846066 0.012701671537371007 0.0606384977566466
-0.00762549151829015 0.019277482354152383 0.05986436402417078
-0.009463210684734233 0.025853293170933753 0.05909023029169497
-0.011300929851178318 0.03242910398771513 0.05831609655921915
-0.0131386490176224 0.03900491480449651 0.05754196282674333
-0.014976368184066485 0.04558072562127788 0.056767829094267516
-0.016814087350510563 0.05215653643805925 0.0559936953617917
-0.018651806516954653 0.05873234725484064 0.055219561629315884
-0.020489525683398735 0.065308158071622 0.054445427896840065
-0.003950053185401982 0.00612586072058963 0.06141263148912241
-0.007833378307996597 0.0117367737171978 0.06060317240720977
-0.011716703430591214 0.01734768671380597 0.059793713325297135
-0.01560002855318583 0.022958599710414137 0.05898425424338449
-0.019483353675780444 0.028569512707022307 0.05817479516147186
-0.023366678798375062 0.03418042570363048 0.057365336079559216
-0.027250003920969677 0.03979133870023865 0.05655587699764658
-0.031133329043564292 0.045402251696846814 0.05574641791573394
-0.03501665416615891 0.05101316469345499 0.0549369588338213
-0.03889997928875353 0.056624077690063154 0.05412749975190866
-0.003950053185401982 0.00612586072058963 0.06141263148912241
-0.009458165731116337 0.010163846411556618 0.060655564509349946
-0.014966278276830692 0.014201832102523603 0.05989849752957748
-0.020474390822545045 0.01823981779349059 0.059141430549805016
-0.0259825033682594 0.022277803484457577 0.05838436357003256
-0.03149061591397376 0.026315789175424563 0.05762729659026009
-0.03699872845968811 0.03035377486639155 0.05687022961048763
-0.04250684100540247 0.03439176055735854 0.05611316263071516
-0.04801495355111682 0.03842974624832553 0.0553560956509427
-0.05352306609683118 0.04246773193929251 0.05459902867117023
-0.003950053185401982 0.00612586072058963 0.06141263148912241
-0.01048606369273579 0.008153340700495514 0.06078999656585301
-0.017022074200069598 0.0101808206804014 0.0601673616425836
-0.0235580847074034 0.012208300660307285 0.05954472671931419
-0.030094095214737212 0.014235780640213169 0.05892209179604479
-0.03663010572207102 0.016263260620119055 0.05829945687277538
-0.04316611622940482 0.01829074060002494 0.05767682194950598
-0.04970212673673864 0.020318220579930824 0.05705418702623657
-0.05623813724407244 0.022345700559836708 0.056431552102967165
-0.06277414775140626 0.024373180539742596 0.055808917179697756
-0.003950053185401982 0.00612586072058963 0.06141263148912241
-0.010805683499233283 0.005923126074018328 0.06099190077746856
-0.017661313813064586 0.005720391427447026 0.060571170065814715
-0.02451694412689588 0.005517656780875723 0.06015043935416087
-0.03137257444072719 0.005314922134304421 0.05972970864250702
-0.03822820475455849 0.005112187487733118 0.05930897793085317
-0.04508383506838978 0.004909452841161815 0.05888824721919933
-0.05193946538222109 0.0047067181945905125 0.05846751650754548
-0.058795095696052395 0.004503983548019211 0.058046785795891634
-0.0656507260098837 0.0043012489014479065 0.057626055084237786
-0.003950053185401982 0.00612586072058963 0.06141263148912241
-0.010382389385162527 0.0037148808922493 0.061239397690001446
-0.016814725584923074 0.00130390106390897 0.06106616389088047
-0.02324706178468362 -0.0011070787644313592 0.06089293009175951
-0.029679397984444165 -0.0035180585927716904 0.06071969629263854
-0.03611173418420472 -0.005929038421112021 0.06054646249351757
-0.04254407038396526 -0.008340018249452349 0.060373228694396604
-0.04897640658372581 -0.010750998077792676 0.06019999489527564
-0.05540874278348635 -0.01316197790613301 0.060026761096154665
-0.06184107898324691 -0.015572957734473342 0.0598535272970337
-0.003950053185401982 0.00612586072058963 0.06141263148912241
-0.00926205183586801 0.0017679027850874935 0.06150566717266843
-0.014574050486334039 -0.0025900551504146434 0.061598702856214445
-0.01988604913680006 -0.006948013085916775 0.061691738539760455
-0.025198047787266094 -0.011305971021418917 0.06178477422330647
-0.03051004643773212 -0.015663928956921043 0.06187780990685249
-0.03582204508819814 -0.02002188689242318 0.061970845590398504
-0.04113404373866417 -0.02437984482792532 0.06206388127394452
-0.04644604238913021 -0.028737802763427463 0.06215691695749054
-0.051758041039596234 -0.03309576069892958 0.06224995264103655
-0.003950053185401982 0.00612586072058963 0.06141263148912241
-0.007566076808643978 0.0002931770409219131 0.061761854795425834
-0.011182100431885974 -0.005539506638745804 0.06211107810172925
-0.01479812405512797 -0.011372190318413522 0.06246030140803267
-0.018414147678369963 -0.017204873998081238 0.06280952471433608
-0.022030171301611962 -0.023037557677748965 0.0631587480206395
-0.025646194924853954 -0.028870241357416674 0.06350797132694293
-0.02926221854809595 -0.034702925037084394 0.06385719463324635
-0.032878242171337946 -0.0405356087167521 0.06420641793954976
-0.03649426579457994 -0.04636829239641983 0.06455564124585318
-0.003950053185401982 0.00612586072058963 0.06141263148912241
-0.005478249513454114 -0.0005494869231394935 0.06198019865418735
-0.007006445841506245 -0.0072248345668686174 0.06254776581925228
-0.008534642169558375 -0.013900182210597734 0.06311533298431722
-0.010062838497610508 -0.020575529854326865 0.06368290014938216
-0.011591034825662637 -0.02725087749805598 0.0642504673144471
-0.013119231153714769 -0.033926225141785095 0.06481803447951202
-0.014647427481766902 -0.040601572785514226 0.06538560164457696
-0.01617562380981903 -0.047276920429243356 0.0659531688096419
-0.01770382013787116 -0.053952268072972466 0.06652073597470684
-0.003950053185401982 0.00612586072058963 0.06141263148912241
-0.0032248184337105965 -0.000668773391312072 0.062137037803902125
-0.0024995836820192107 -0.0074634075032137745 0.06286144411868184
-0.0017743489303278235 -0.014258041615115472 0.06358585043346156
-0.001049114178636439 -0.02105267572701718 0.06431025674824127
-0.00032387942694505294 -0.027847309838918876 0.06503466306302098
0.00040135532474633496 -0.03464194395082057 0.0657590693778007
0.0011265900764377194 -0.041436578062722274 0.06648347569258041
0.0018518248281291039 -0.048231212174623984 0.06720788200736012
0.0025770595798204933 -0.055025846286525675 0.06793228832213984
-0.003950053185401982 0.00612586072058963 0.06141263148912241
-0.0010499777924894685 -5.1755823849064864e-05 0.062215376289088416
0.001850097600423045 -0.00622937236828776 0.06301812108905443
0.00475017299333556 -0.01240698891272645 0.06382086588902043
0.007650248386248072 -0.01858460545716515 0.06462361068898644
0.010550323779160589 -0.024762222001603846 0.06542635548895244
0.013450399172073102 -0.03093983854604253 0.06622910028891844
0.01635047456498561 -0.03711745509048123 0.06703184508888446
0.019250549957898128 -0.04329507163491993 0.06783458988885047
0.02215062535081065 -0.04947268817935862 0.06863733468881647
-0.003950053185401982 0.00612586072058963 0.06141263148912241
0.0008105946806034276 0.0012347023518009062 0.06220672491932945
0.005571242546608837 -0.003656456016987818 0.06300081834953648
0.010331890412614246 -0.008547614385776538 0.06379491177974353
0.015092538278619656 -0.013438772754565266 0.06458900520995056
0.01985318614462507 -0.018329931123353987 0.0653830986401576
0.024613834010630477 -0.023221089492142705 0.06617719207036463
0.02937448187663589 -0.028112247860931427 0.06697128550057167
0.034135129742641296 -0.03300340622972016 0.0677653789307787
0.03889577760864671 -0.03789456459850888 0.06855947236098575
-0.003950053185401982 0.00612586072058963 0.06141263148912241
0.0021552770883520042 0.0030511934308508726 0.062112021204778434
0.00826060736210599 -2.3473858887884663e-05 0.06281141092043446
0.014365937635859973 -0.003098141148626641 0.06351080063609048
0.020471267909613965 -0.0061728084383654 0.06421019035174651
0.026576598183367953 -0.009247475728104158 0.06490958006740254
0.03268192845712193 -0.012322143017842912 0.06560896978305855
0.03878725873087593 -0.015396810307581672 0.06630835949871458
0.04489258900462991 -0.01847147759732043 0.06700774921437061
0.0509979192783839 -0.02154614488705919 0.06770713893002663
-0.003950053185401982 0.00612586072058963 0.06141263148912241
0.0028383522269793586 0.005200872419122598 0.06194152776238652
0.0096267576393607 0.0042758841176555665 0.062470424035650625
0.01641516305174204 0.0033508958161885343 0.06299932030891474
0.023203568464123383 0.002425907514721502 0.06352821658217885
0.029991973876504728 0.0015009192132544689 0.06405711285544295
0.03678037928888606 0.0005759309117874388 0.06458600912870706
0.043568784701267405 -0.0003490573896795938 0.06511490540197117
0.050357190113648746 -0.0012740456911466255 0.06564380167523527
0.05714559552603009 -0.002199033992613659 0.06617269794849938
