# .PCD v0.7 - Point Cloud Data file format
VERSION 0.7
FIELDS x y z
SIZE 4 4 4
TYPE F F F
COUNT 1 1 1
WIDTH 700
HEIGHT 1
VIEWPOINT 0 0 0 1 0 0 0
POINTS 700
DATA ascii
0.15971513306811574 -0.02410922677988249 -0.08985403616280706
0.1493588230402947 -0.005801346609998135 -0.1087299991684234
0.13391560924478946 0.009162402502670723 -0.12706921870623378
0.11410759919477846 0.020082332280628307 -0.14401417325322877
0.09086099342517827 0.02644783894408756 -0.15877253556775517
0.06526277738502873 0.027961278476217655 -0.1706542210307274
0.03850989520599356 0.024551884126563395 -0.1791036552354417
0.011853281925071525 0.016379075385644995 -0.18372575202935731
-0.013460628847419278 0.0038250037067632512 -0.18430438730348236
-0.03624818677814824 -0.01252331647122583 -0.18081250471550567
-0.055443870984826046 -0.031901455866652294 -0.1734133808142923
-0.07015011260841915 -0.05340331421864109 -0.1624529904099274
-0.07967926413542195 -0.07602348852825239 -0.14844382917612
-0.08358575303132298 -0.09870428458528674 -0.13204094992209864
-0.08168691621710056 -0.1203851735740115 -0.11401133305129044
-0.07407154119178212 -0.1400523812218914 -0.09519802341009441
-0.06109571442767016 -0.1567862907578428 -0.07648071044784106
-0.04336617116265888 -0.16980444317036933 -0.05873459491584613
-0.021711925134848223 -0.17849812412129842 -0.04278946545299491
0.0028544951784672794 -0.18246082675169703 -0.02939089859123179
0.02918439126705217 -0.18150725949079535 -0.01916539642557525
0.056046606453381866 -0.17568201008389925 -0.012591092072462054
0.08218509341055144 -0.1652574607189755 -0.009975392696629259
0.10637764553928536 -0.1507210517382735 -0.011440605493749761
0.12749304599013447 -0.13275248946967258 -0.016918218741897313
0.14454396210609913 -0.11219196391423004 -0.02615210533351834
0.156733112000329 -0.09000086239553545 -0.0387104989943165
0.1634905445710369 -0.06721681615696518 -0.05400618319436488
0.1645002897815635 -0.04490518187798596 -0.0713239487404013
0.15971513306811574 -0.02410922677988251 -0.08985403616280703
0.1506998593955676 -0.0069270125800295675 -0.06824269439225063
0.14034354936774657 0.011380867589854788 -0.08711865739786695
0.12490033557224131 0.026344616702523645 -0.10545787693567733
0.1050923255222303 0.03726454648048123 -0.12240283148267234
0.08184571975263011 0.04363005314394048 -0.13716119379719874
0.05624750371248057 0.045143492676070575 -0.14904287926017096
0.029494621533445405 0.041734098326416315 -0.15749231346488526
0.002838008252523373 0.033561289585497915 -0.16211441025880088
-0.02247590251996743 0.021007217906616173 -0.16269304553292593
-0.045263460450696395 0.004658897728627093 -0.15920116294494924
-0.0644591446573742 -0.014719241666799372 -0.15180203904373588
-0.07916538628096731 -0.03622110001878817 -0.14084164863937096
-0.08869453780797011 -0.058841274328399466 -0.12683248740556358
-0.09260102670387114 -0.08152207038543381 -0.11042960815154221
-0.09070218988964872 -0.10320295937415858 -0.092399991280734
-0.08308681486433028 -0.12287016702203846 -0.07358668163953798
-0.07011098810021832 -0.1396040765579899 -0.05486936867728463
-0.052381444835207035 -0.15262222897051642 -0.0371232531452897
-0.030727198807396376 -0.1613159099214455 -0.021178123682438477
-0.006160778494080873 -0.1652786125518441 -0.007779556820675358
0.020169117594504016 -0.1643250452909424 0.002445945344981183
0.04703133278083371 -0.15849979588404634 0.009020249698094377
0.07316981973800328 -0.14807524651912257 0.011635949073927171
0.0973623718667372 -0.13353883753842055 0.01017073627680667
0.11847777231758633 -0.11557027526981965 0.00469312302865912
0.13552868843355098 -0.09500974971437712 -0.004540763562961907
0.14771783832778085 -0.07281864819568253 -0.017099157223760066
0.15447527089848875 -0.050034601957112255 -0.03239484142380845
0.15548501610901536 -0.027722967678133037 -0.049712606969844864
0.1506998593955676 -0.006927012580029588 -0.0682426943922506
0.14168458572301945 0.010255201619823354 -0.04663135262169419
0.13132827569519842 0.02856308178970771 -0.06550731562731052
0.11588506189969316 0.04352683090237657 -0.0838465351651209
0.09607705184968215 0.054446760680334154 -0.1007914897121159
0.07283044608008196 0.06081226734379341 -0.11554985202664231
0.04723223003993242 0.0623257068759235 -0.12743153748961453
0.02047934786089725 0.05891631252626924 -0.13588097169432883
-0.006177265420024779 0.05074350378535084 -0.14050306848824445
-0.03149117619251558 0.0381894321064691 -0.1410817037623695
-0.05427873412324455 0.021841111928480015 -0.1375898211743928
-0.07347441832992235 0.0024629725330535504 -0.13019069727317945
-0.08818065995351546 -0.019038885818935248 -0.11923030686881451
-0.09770981148051826 -0.04165906012854654 -0.10522114563500715
-0.10161630037641929 -0.06433985618558088 -0.08881826638098578
-0.09971746356219686 -0.08602074517430565 -0.07078864951017758
-0.09210208853687843 -0.10568795282218554 -0.05197533986898155
-0.07912626177276647 -0.12242186235813697 -0.033258026906728196
-0.06139671850775519 -0.13544001477066347 -0.015511911374733265
-0.03974247247994453 -0.14413369572159257 0.0004332180881179532
-0.015176052166629025 -0.14809639835199118 0.013831784949881073
0.011153843921955862 -0.1471428310910895 0.024057287115537614
0.03801605910828556 -0.1413175816841934 0.03063159146865081
0.06415454606545513 -0.13089303231926966 0.03324729084448361
0.08834709819418905 -0.11635662333856764 0.031782078047363105
0.10946249864503818 -0.09838806106996673 0.02630446479921555
0.12651341476100283 -0.0778275355145242 0.017070578207594524
0.1387025646552327 -0.055636433995829605 0.004512184546796364
0.1454599972259406 -0.03285238775725933 -0.010783499653252013
0.1464697424364672 -0.010540753478280113 -0.02810126519928843
0.14168458572301945 0.010255201619823334 -0.04663135262169417
0.13266931205047128 0.027437415819676274 -0.025020010851137767
0.12231300202265026 0.045745295989560626 -0.043895973856754096
0.10686978822714502 0.060709045102229485 -0.06223519339456448
0.08706177817713401 0.07162897488018707 -0.07918014794155948
0.06381517240753382 0.07799448154364633 -0.09393851025608588
0.03821695636738427 0.07950792107577642 -0.1058201957190581
0.011464074188349101 0.07609852672612216 -0.11426962992377242
-0.01519253909257293 0.06792571798520376 -0.11889172671768804
-0.04050644986506373 0.05537164630632201 -0.11947036199181307
-0.0632940077957927 0.03902332612833293 -0.11597847940383639
-0.0824896920024705 0.01964518673290647 -0.10857935550262302
-0.0971959336260636 -0.0018566716190823289 -0.0976189650982581
-0.1067250851530664 -0.024476845928693623 -0.08360980386445072
-0.11063157404896744 -0.04715764198572797 -0.06720692461042936
-0.10873273723474501 -0.06883853097445274 -0.04917730773962115
-0.10111736220942658 -0.08850573862233262 -0.030363998098425122
-0.08814153544531461 -0.10523964815828404 -0.011646685136171772
-0.07041199218030333 -0.11825780057081056 0.006099430395823162
-0.048757746152492676 -0.12695148152173966 0.02204455985867438
-0.024191325839177175 -0.13091418415213826 0.0354431267204375
0.002138570249407713 -0.12996061689123659 0.04566862888609404
0.02900078543573741 -0.12413536748434048 0.052242933239207236
0.05513927239290699 -0.11371081811941673 0.05485863261504003
0.0793318245216409 -0.09917440913871471 0.05339341981791953
0.10044722497249003 -0.08120584687011381 0.04791580656977198
0.11749814108845469 -0.060645321314671284 0.03868191997815095
0.12968729098268456 -0.03845421979597669 0.02612352631735279
0.13644472355339246 -0.015670173557406412 0.010827842117304413
0.13745446876391906 0.006641460721572806 -0.006489923428732003
0.1326693120504713 0.027437415819676254 -0.025020010851137746
0.12365403837792313 0.0446196300195292 -0.0034086690805813303
0.1132977283501021 0.06292751018941356 -0.022284632086197662
0.09785451455459686 0.07789125930208242 -0.04062385162400804
0.07804650450458585 0.08881118908004 -0.05756880617100304
0.054799898734985655 0.09517669574349925 -0.07232716848552945
0.029201682694836115 0.09669013527562935 -0.08420885394850165
0.002448800515800948 0.09328074092597509 -0.09265828815321597
-0.024207812765121083 0.08510793218505669 -0.09728038494713159
-0.04952172353761189 0.07255386050617495 -0.09785902022125663
-0.07230928146834086 0.05620554032818586 -0.09436713763327995
-0.09150496567501866 0.036827400932759394 -0.08696801373206657
-0.10621120729861176 0.015325542580770598 -0.07600762332770165
-0.11574035882561456 -0.007294631728840698 -0.06199846209389428
-0.1196468477215156 -0.029975427785875048 -0.04559558283987292
-0.11774801090729317 -0.05165631677459981 -0.02756596596906472
-0.11013263588197474 -0.07132352442247969 -0.008752656327868686
-0.09715680911786277 -0.08805743395843112 0.009964656634384663
-0.0794272658528515 -0.10107558637095763 0.027710772166379596
-0.057773019825040836 -0.10976926732188673 0.04365590162923082
-0.03320659951172533 -0.11373196995228532 0.05705446849099394
-0.006876703423140441 -0.11277840269138364 0.06727997065665048
0.019985511763189256 -0.10695315328448755 0.07385427500976367
0.04612399872035883 -0.0965286039195638 0.07646997438559647
0.07031655084909275 -0.08199219493886178 0.07500476158847597
0.09143195129994187 -0.06402363267026089 0.06952714834032842
0.10848286741590653 -0.04346310711481836 0.06029326174870739
0.1206720173101364 -0.021272005596123765 0.04773486808790923
0.12742944988084431 0.001512040642446513 0.03243918388786085
0.12843919509137092 0.02382367492142573 0.015121418341824433
0.12365403837792315 0.04461963001952918 -0.0034086690805813086
0.11463876470537498 0.061801844219382125 0.018202672689975104
0.10428245467755395 0.08010972438926647 -0.0006732903156412282
0.08883924088204871 0.09507347350193533 -0.01901250985345161
0.0690312308320377 0.10599340327989291 -0.03595746440044661
0.04578462506243751 0.11235890994335217 -0.05071582671497301
0.020186409022287962 0.11387234947548226 -0.06259751217794522
-0.006566473156747205 0.110462955125828 -0.07104694638265954
-0.03322308643766923 0.1022901463849096 -0.07566904317657516
-0.058536997210160036 0.08973607470602786 -0.0762476784507002
-0.081324555140889 0.07338775452803878 -0.07275579586272352
-0.1005202393475668 0.05400961513261232 -0.06535667196151014
-0.11522648097115991 0.03250775678062352 -0.054396281557145224
-0.12475563249816271 0.009887582471012226 -0.04038712032333785
-0.12866212139406374 -0.012793213586022123 -0.023984241069316483
-0.12676328457984132 -0.03447410257474688 -0.005954624198508283
-0.11914790955452288 -0.05414131022262677 0.01285868544268775
-0.10617208279041092 -0.0708752197585782 0.031575998404941095
-0.08844253952539964 -0.08389337217110472 0.04932211393693603
-0.06678829349758898 -0.09258705312203382 0.06526724339978725
-0.04222187318427348 -0.09654975575243241 0.07866581026155037
-0.015891977095688594 -0.09559618849153073 0.08889131242720691
0.010970238090641102 -0.08977093908463464 0.0954656167803201
0.03710872504781068 -0.07934638971971089 0.0980813161561529
0.0613012771765446 -0.06480998073900887 0.0966161033590324
0.08241667762739373 -0.04684141847040796 0.09113849011088485
0.09946759374335838 -0.02628089291496543 0.08190460351926382
0.11165674363758825 -0.004089791396270839 0.06934620985846567
0.11841417620829615 0.01869425484229944 0.05405052565841728
0.11942392141882276 0.04100588912127866 0.036732760112380865
0.114638764705375 0.061801844219382104 0.018202672689975125
0.10562349103282684 0.07898405841923503 0.039814014460531524
0.09526718100500581 0.09729193858911939 0.02093805145491519
0.07982396720950057 0.11225568770178825 0.0025988319171048103
0.06001595715948955 0.12317561747974583 -0.014346122629890186
0.036769351389889356 0.1295411241432051 -0.029104484944416587
0.011171135349739814 0.1310545636753352 -0.0409861704073888
-0.015581746829295353 0.12764516932568093 -0.04943560461210312
-0.042238360110217386 0.11947236058476252 -0.05405770140601874
-0.06755227088270818 0.10691828890588077 -0.054636336680143775
-0.09033982881343715 0.09056996872789169 -0.05114445409216709
-0.10953551302011495 0.07119182933246523 -0.04374533019095372
-0.12424175464370805 0.049689970980476436 -0.0327849397865888
-0.13377090617071086 0.02706979667086514 -0.018775778552781425
-0.1376773950666119 0.004389000613830791 -0.0023728992987600644
-0.13577855825238946 -0.01729188837489397 0.01565671757204814
-0.12816318322707104 -0.036959096022773856 0.034470027213244166
-0.11518735646295906 -0.05369300555872528 0.05318734017549752
-0.09745781319794779 -0.06671115797125181 0.07093345570749245
-0.07580356717013713 -0.0754048389221809 0.08687858517034366
-0.05123714685682163 -0.0793675415525795 0.10027715203210678
-0.02490725076823674 -0.07841397429167782 0.11050265419776333
0.0019549644180929552 -0.07258872488478173 0.11707695855087652
0.02809345137526253 -0.06216417551985797 0.11969265792670931
0.052286003503996446 -0.04762776653915595 0.11822744512958881
0.07340140395484558 -0.029659204270555045 0.11274983188144126
0.09045232007081024 -0.009098678715112517 0.10351594528982024
0.1026414699650401 0.013092422803582075 0.09095755162902208
0.10939890253574801 0.03587646904215235 0.0756618674289737
0.11040864774627461 0.05818810332113157 0.05834410188293729
0.10562349103282685 0.07898405841923502 0.039814014460531545
0.09660821736027868 0.09616627261908796 0.061425356231087955
0.08625190733245765 0.11447415278897231 0.042549393225471625
0.0708086935369524 0.12943790190164117 0.024210173687661242
0.0510006834869414 0.14035783167959875 0.007265219140666246
0.027754077717341206 0.146723338343058 -0.007493143173860156
0.002155861677191663 0.1482367778751881 -0.01937482863683237
-0.024597020501843505 0.14482738352553384 -0.02782426284154669
-0.05125363378276553 0.13665457478461546 -0.03244635963546231
-0.07656754455525634 0.1241005031057337 -0.033024994909587345
-0.09935510248598531 0.10775218292774462 -0.029533112321610662
-0.11855078669266311 0.08837404353231816 -0.022133988420397287
-0.13325702831625622 0.06687218518032936 -0.01117359801603237
-0.142786179843259 0.04425201087071806 0.0028355632177750056
-0.14669266873916004 0.021571214813683716 0.019238442471796367
-0.1447938319249376 -0.00010967417504104644 0.03726805934260457
-0.1371784568996192 -0.019776881822920932 0.0560813689838006
-0.12420263013550722 -0.03651079135887236 0.07479868194605395
-0.10647308687049595 -0.04952894377139888 0.09254479747804888
-0.08481884084268529 -0.058222624722327976 0.1084899269409001
-0.06025242052936978 -0.06218532735272657 0.12188849380266321
-0.03392252444078489 -0.06123176009182489 0.13211399596831977
-0.007060309254455197 -0.0554065106849288 0.13868830032143295
0.019078177702714378 -0.04498196132000505 0.14130399969726576
0.0432707298314483 -0.030445552339303027 0.13983878690014526
0.06438613028229742 -0.012476990070702123 0.1343611736519977
0.08143704639826208 0.008083535484740405 0.12512728706037668
0.09362619629249194 0.030274637003435 0.11256889339957851
0.10038362886319985 0.05305868324200527 0.09727320919953013
0.10139337407372645 0.0753703175209845 0.07995544365349372
0.09660821736027869 0.09616627261908794 0.061425356231087976
0.08759294368773053 0.11334848681894089 0.0830366980016444
0.0772366336599095 0.13165636698882524 0.06416073499602806
0.06179341986440425 0.1466201161014941 0.045821515458217686
0.04198540981439324 0.1575400458794517 0.028876560911222687
0.01873880404479305 0.16390555254291095 0.014118198596696286
-0.0068594119953564936 0.16541899207504104 0.0022365131337240734
-0.03361229417439166 0.16200959772538678 -0.006212921070990247
-0.06026890745531369 0.15383678898446837 -0.010835017864905866
-0.08558281822780449 0.14128271730558664 -0.011413653139030902
-0.10837037615853345 0.12493439712759755 -0.00792177055105422
-0.12756606036521126 0.10555625773217109 -0.0005226466498408449
-0.14227230198880436 0.08405439938018229 0.010437743754524073
-0.15180145351580718 0.061434225070570996 0.024446904988331446
-0.1557079424117082 0.03875342901353664 0.04084978424235281
-0.15380910559748578 0.017072540024811886 0.05887940111316101
-0.14619373057216734 -0.002594667623068003 0.07769271075435705
-0.13321790380805537 -0.01932857715901943 0.0964100237166104
-0.1154883605430441 -0.03234672957154595 0.11415613924860532
-0.09383411451523344 -0.04104041052247504 0.13010126871145655
-0.06926769420191793 -0.045003113152873635 0.14349983557321966
-0.04293779811333305 -0.04404954589197196 0.1537253377388762
-0.016075582927003354 -0.038224296485075866 0.1602996420919894
0.010062904030166221 -0.027799747120152117 0.1629153414678222
0.03425545615890014 -0.013263338139450099 0.1614501286707017
0.05537085660974927 0.004705224129150807 0.15597251542255414
0.07242177272571393 0.025265749684593337 0.1467386288309331
0.0846109226199438 0.04745685120328793 0.13418023517013494
0.0913683551906517 0.0702408974418582 0.11888455097008657
0.0923781004011783 0.09255253172083742 0.10156678542405016
0.08759294368773055 0.11334848681894087 0.08303669800164441
0.07857767001518237 0.13053070101879383 0.10464803977220083
0.06822135998736134 0.14883858118867818 0.08577207676658449
0.0527781461918561 0.16380233030134703 0.06743285722877411
0.03297013614184509 0.1747222600793046 0.05048790268177912
0.009723530372244897 0.18108776674276386 0.03572954036725272
-0.015874685667904648 0.18260120627489396 0.023847854904280506
-0.042627567846939815 0.1791918119252397 0.015398420699566184
-0.06928418112786185 0.1710190031843213 0.010776323905650564
-0.09459809190035265 0.15846493150543955 0.010197688631525528
-0.11738564983108161 0.1421166113274505 0.013689571219502211
-0.1365813340377594 0.12273847193202402 0.021088695120715588
-0.1512875756613525 0.10123661358003522 0.032049085525080505
-0.16081672718835532 0.07861643927042392 0.04605824675888788
-0.16472321608425636 0.05593564321338957 0.06246112601290924
-0.16282437927003393 0.034254754224664806 0.08049074288371744
-0.15520900424471548 0.01458754657678492 0.09930405252491348
-0.14223317748060352 -0.0021463629591665077 0.11802136548716682
-0.12450363421559225 -0.015164515371693025 0.13576748101916175
-0.1028493881877816 -0.02385819632262212 0.15171261048201298
-0.07828296787446609 -0.027820898953020715 0.1651111773437761
-0.051953071785881204 -0.026867331692119037 0.17533667950943263
-0.025090856599551507 -0.021042082285222946 0.18191098386254584
0.0010476303576180696 -0.010617532920299195 0.18452668323837862
0.025240182486351986 0.003918876060402824 0.18306147044125812
0.046355582937201115 0.02188743832900373 0.17758385719311057
0.06340649905316577 0.04244796388444626 0.16834997060148954
0.07559564894739564 0.06463906540314085 0.15579157694069137
0.08235308151810354 0.08742311164171113 0.140495892740643
0.08336282672863014 0.10973474592069035 0.1231781271946066
0.07857767001518239 0.1305307010187938 0.10464803977220086
0.040568731526466686 -0.07731996389933815 -0.09725103796750394
0.05380722058664991 -0.0714076597749542 -0.09642914887809317
0.06704570964683314 -0.06549535565057023 -0.09560725978868241
0.08028419870701636 -0.059583051526186266 -0.09478537069927165
0.0935226877671996 -0.053670747401802305 -0.09396348160986089
0.10676117682738283 -0.04775844327741834 -0.09314159252045012
0.11999966588756605 -0.041846139153034374 -0.09231970343103935
0.13323815494774927 -0.03593383502865041 -0.09149781434162858
0.1464766440079325 -0.03002153090426645 -0.09067592525221782
0.15971513306811574 -0.02410922677988249 -0.08985403616280706
0.040568731526466686 -0.07731996389933815 -0.09725103796750394
0.05181935367591977 -0.06844667643296035 -0.09961254280983416
0.06306997582537285 -0.05957338896658253 -0.10197404765216438
0.07432059797482594 -0.050700101500204715 -0.1043355524944946
0.08557122012427903 -0.0418268140338269 -0.10669705733682482
0.09682184227373213 -0.032953526567449085 -0.10905856217915502
0.10807246442318522 -0.02408023910107128 -0.11142006702148524
0.1193230865726383 -0.015206951634693463 -0.11378157186381546
0.13057370872209137 -0.006333664168315657 -0.11614307670614568
0.14182433087154447 0.0025396232980621617 -0.1185045815484759
0.040568731526466686 -0.07731996389933815 -0.09725103796750394
0.04861230728390703 -0.06644725147118956 -0.10254003104938562
0.056655883041347374 -0.05557453904304097 -0.10782902413126731
0.0646994587987877 -0.04470182661489239 -0.11311801721314899
0.07274303455622806 -0.03382911418674379 -0.11840701029503067
0.0807866103136684 -0.022956401758595202 -0.12369600337691235
0.08883018607110874 -0.012083689330446625 -0.12898499645879402
0.0968737618285491 -0.0012109769022980179 -0.1342739895406757
0.10491733758598944 0.009661735525850574 -0.1395629826225574
0.11296091334342978 0.02053444795399917 -0.14485197570443908
0.040568731526466686 -0.07731996389933815 -0.09725103796750394
0.04453361464963824 -0.06562605360852454 -0.10489437482133186
0.04849849777280979 -0.053932143317710936 -0.11253771167515979
0.05246338089598134 -0.04223823302689733 -0.12018104852898771
0.05642826401915289 -0.03054432273608372 -0.12782438538281563
0.060393147142324445 -0.018850412445270116 -0.13546772223664355
0.064358030265496 -0.007156502154456513 -0.14311105909047148
0.06832291338866754 0.004537408136357098 -0.15075439594429943
0.0722877965118391 0.01623131842717071 -0.15839773279812733
0.07625267963501065 0.027925228717984307 -0.16604106965195528
0.040568731526466686 -0.07731996389933815 -0.09725103796750394
0.04002526540747337 -0.06607207237558275 -0.10642044444657493
0.03948179928848005 -0.054824180851827366 -0.11558985092564592
0.038938333169486736 -0.04357628932807197 -0.12475925740471691
0.03839486705049342 -0.03232839780431658 -0.13392866388378788
0.0378514009315001 -0.021080506280561184 -0.14309807036285888
0.037307934812506785 -0.00983261475680579 -0.15226747684192987
0.03676446869351347 0.0014152767669495928 -0.16143688332100087
0.036221002574520156 0.012663168290704989 -0.17060628980007184
0.03567753645552684 0.023911059814460386 -0.17977569627914283
0.040568731526466686 -0.07731996389933815 -0.09725103796750394
0.03557580915204712 -0.06773697471825921 -0.10695286660180972
0.030582886777627553 -0.058153985537180264 -0.11665469523611549
0.025589964403207988 -0.04857099635610133 -0.12635652387042126
0.020597042028788422 -0.03898800717502238 -0.13605835250472706
0.015604119654368856 -0.029405017993943433 -0.14576018113903283
0.01061119727994929 -0.019822028812864496 -0.1554620097733386
0.005618274905529725 -0.010239039631785548 -0.16516383840764437
0.0006253525311101569 -0.0006560504507066036 -0.17486566704195017
-0.004367569843309405 0.00892693873037234 -0.18456749567625594
0.040568731526466686 -0.07731996389933815 -0.09725103796750394
0.03166741350906221 -0.07044034263410333 -0.10643394508513561
0.022766095491657735 -0.06356072136886849 -0.11561685220276727
0.013864777474253258 -0.05668110010363366 -0.12479975932039893
0.004963459456848783 -0.04980147883839883 -0.13398266643803058
-0.003937858560555703 -0.042921857573163996 -0.14316557355566226
-0.012839176577960168 -0.036042236307929174 -0.1523484806732939
-0.021740494595364653 -0.029162615042694337 -0.16153138779092557
-0.030641812612769118 -0.022282993777459514 -0.17071429490855725
-0.039543130630173604 -0.015403372512224673 -0.17989720202618892
0.040568731526466686 -0.07731996389933815 -0.09725103796750394
0.02872361379144292 -0.07388922426235822 -0.10491991309478117
0.016878496056419157 -0.07045848462537829 -0.11258878822205841
0.005033378321395393 -0.06702774498839836 -0.12025766334933564
-0.0068117394136283736 -0.06359700535141843 -0.12792653847661287
-0.01865685714865213 -0.060166265714438505 -0.13559541360389013
-0.030501974883675897 -0.05673552607745857 -0.14326428873116734
-0.042347092618699664 -0.05330478644047864 -0.15093316385844457
-0.05419221035372343 -0.0498740468034987 -0.1586020389857218
-0.0660373280887472 -0.04644330716651878 -0.16627091411299905
0.040568731526466686 -0.07731996389933815 -0.09725103796750394
0.02706341637635227 -0.07770987976369019 -0.1025748394895282
0.013558101226237853 -0.07809979562804224 -0.10789864101155244
5.278607612343832e-05 -0.07848971149239428 -0.11322244253357669
-0.01345252907399098 -0.07887962735674633 -0.11854624405560094
-0.02695784422410538 -0.07926954322109837 -0.12387004557762518
-0.040463159374219806 -0.07965945908545041 -0.12919384709964943
-0.05396847452433423 -0.08004937494980247 -0.13451764862167367
-0.06747378967444864 -0.0804392908141545 -0.13984145014369792
-0.08097910482456305 -0.08082920667850654 -0.1451652516657222
0.040568731526466686 -0.07731996389933815 -0.09725103796750394
0.026866729414332432 -0.08148828183095162 -0.09965284938207195
0.013164727302198176 -0.08565659976256508 -0.10205466079663994
-0.0005372748099360755 -0.08982491769417855 -0.10445647221120795
-0.014239276922070334 -0.09399323562579202 -0.10685828362577594
-0.027941279034204583 -0.09816155355740548 -0.10926009504034394
-0.041643281146338834 -0.10232987148901895 -0.11166190645491195
-0.0553452832584731 -0.10649818942063242 -0.11406371786947994
-0.06904728537060735 -0.11066650735224588 -0.11646552928404794
-0.08274928748274162 -0.11483482528385935 -0.11886734069861594
0.040568731526466686 -0.07731996389933815 -0.09725103796750394
0.02815486698963092 -0.084814981972206 -0.0964705857399033
0.015741002452795153 -0.09231000004507384 -0.09569013351230267
0.003327137915959384 -0.09980501811794168 -0.09490968128470202
-0.009086726620876383 -0.10730003619080952 -0.09412922905710139
-0.02150059115771215 -0.11479505426367738 -0.09334877682950074
-0.033914455694547915 -0.12229007233654521 -0.0925683246019001
-0.04632832023138368 -0.12978509040941305 -0.09178787237429946
-0.05874218476821945 -0.1372801084822809 -0.09100742014669883
-0.07115604930505522 -0.14477512655514876 -0.09022696791909819
0.040568731526466686 -0.07731996389933815 -0.09725103796750394
0.03078823940845028 -0.08732948060807723 -0.09337289620655924
0.021007747290433875 -0.0973389973168163 -0.08949475444561453
0.011227255172417462 -0.10734851402555538 -0.08561661268466983
0.001446763054401062 -0.11735803073429445 -0.08173847092372512
-0.008333729063615349 -0.12736754744303352 -0.0778603291627804
-0.018114221181631758 -0.13737706415177262 -0.07398218740183571
-0.02789471329964817 -0.14738658086051168 -0.070104045640891
-0.03767520541766456 -0.15739609756925074 -0.0662259038799463
-0.04745569753568098 -0.16740561427798983 -0.06234776211900159
0.040568731526466686 -0.07731996389933815 -0.09725103796750394
0.034481479908228294 -0.08875929279490231 -0.09069546350858305
0.0283942282899899 -0.10019862169046649 -0.08413988904966217
0.022306976671751508 -0.11163795058603065 -0.07758431459074129
0.016219725053513115 -0.12307727948159482 -0.07102874013182041
0.010132473435274713 -0.13451660837715898 -0.06447316567289953
0.004045221817036327 -0.14595593727272316 -0.05791759121397864
-0.0020420298012020655 -0.15739526616828733 -0.051362016755057756
-0.008129281419440458 -0.16883459506385148 -0.04480644229613687
-0.014216533037678865 -0.18027392395941566 -0.03825086783721599
0.040568731526466686 -0.07731996389933815 -0.09725103796750394
0.03883436857428317 -0.08894947619641681 -0.08872842902344928
0.03710000562209966 -0.10057898849349549 -0.08020582007939461
0.03536564266991615 -0.11220850079057415 -0.07168321113533996
0.03363127971773264 -0.12383801308765281 -0.06316060219128529
0.03189691676554912 -0.13546752538473147 -0.05463799324723064
0.030162553813365616 -0.14709703768181015 -0.04611538430317597
0.028428190861182104 -0.15872654997888883 -0.03759277535912132
0.026693827908998588 -0.17035606227596747 -0.02907016641506665
0.02495946495681508 -0.18198557457304615 -0.020547557471011994
0.040568731526466686 -0.07731996389933815 -0.09725103796750394
0.04337520237762112 -0.0878794214900671 -0.08768495145930695
0.046181673228775554 -0.09843887908079604 -0.07811886495110995
0.04898814407992999 -0.10899833667152498 -0.06855277844291296
0.05179461493108443 -0.11955779426225392 -0.05898669193471597
0.05460108578223886 -0.13011725185298287 -0.04942060542651898
0.057407556633393295 -0.1406767094437118 -0.039854518918322
0.06021402748454773 -0.15123616703444076 -0.030288432410125
0.06302049833570217 -0.1617956246251697 -0.020722345901928
0.0658269691868566 -0.17235508221589865 -0.011156259393731013
0.040568731526466686 -0.07731996389933815 -0.09725103796750394
0.04761191151735444 -0.08566508570689564 -0.08767810780145353
0.054655091508242194 -0.09401020751445313 -0.07810517763540313
0.061698271499129945 -0.10235532932201062 -0.06853224746935271
0.0687414514900177 -0.11070045112956813 -0.05895931730330231
0.07578463148090545 -0.1190455729371256 -0.04938638713725191
0.0828278114717932 -0.1273906947446831 -0.03981345697120149
0.08987099146268096 -0.1357358165522406 -0.03024052680515108
0.09691417145356872 -0.1440809383597981 -0.02066759663910068
0.10395735144445646 -0.15242606016735558 -0.01109466647305026
0.040568731526466686 -0.07731996389933815 -0.09725103796750394
0.05108538281887736 -0.0825464264879689 -0.08870863966640774
0.06160203411128804 -0.08777288907659962 -0.08016624136531154
0.07211868540369872 -0.09299935166523036 -0.07162384306421535
0.0826353366961094 -0.09822581425386111 -0.06308144476311914
0.09315198798852006 -0.10345227684249185 -0.05453904646202294
0.10366863928093074 -0.10867873943112258 -0.04599664816092675
0.11418529057334141 -0.11390520201975332 -0.03745424985983055
0.1247019418657521 -0.11913166460838405 -0.028911851558734346
0.13521859315816276 -0.1243581271970148 -0.02036945325763815
0.040568731526466686 -0.07731996389933815 -0.09725103796750394
0.053419211770209495 -0.07886139895064123 -0.09066487293625236
0.0662696920139523 -0.0804028340019443 -0.08407870790500077
0.0791201722576951 -0.08194426905324738 -0.0774925428737492
0.09197065250143792 -0.08348570410455046 -0.0709063778424976
0.10482113274518072 -0.08502713915585353 -0.06432021281124603
0.11767161298892352 -0.0865685742071566 -0.057734047779994455
0.13052209323266634 -0.08811000925845969 -0.05114788274874287
0.14337257347640914 -0.08965144430976277 -0.04456171771749128
0.15622305372015194 -0.09119287936106583 -0.03797555268623971
0.040568731526466686 -0.07731996389933815 -0.09725103796750394
0.054360491791386654 -0.07500933300767572 -0.09333481938211305
0.06815225205630662 -0.07269870211601329 -0.08941860079672216
0.08194401232122658 -0.07038807122435085 -0.08550238221133127
0.09573577258614656 -0.06807744033268841 -0.08158616362594037
0.10952753285106652 -0.06576680944102598 -0.07766994504054948
0.1233192931159865 -0.06345617854936354 -0.0737537264551586
0.13711105338090646 -0.0611455476577011 -0.0698375078697677
0.15090281364582642 -0.05883491676603867 -0.06592128928437681
0.1646945739107464 -0.05652428587437623 -0.06200507069898591
0.040568731526466686 -0.07731996389933815 -0.09725103796750394
0.05380722058664992 -0.0714076597749542 -0.09642914887809317
0.06704570964683315 -0.06549535565057023 -0.09560725978868241
0.08028419870701636 -0.05958305152618627 -0.09478537069927163
0.0935226877671996 -0.05367074740180231 -0.09396348160986087
0.10676117682738283 -0.04775844327741836 -0.09314159252045011
0.11999966588756605 -0.04184613915303439 -0.09231970343103933
0.13323815494774927 -0.03593383502865043 -0.09149781434162857
0.14647664400793253 -0.030021530904266472 -0.0906759252522178
0.15971513306811574 -0.02410922677988251 -0.08985403616280703
-0.040568731526466686 0.07731996389933815 0.09725103796750394
-0.027330242466283457 0.08323226802372212 0.09807292705691471
-0.014091753406100227 0.08914457214810607 0.09889481614632548
-0.0008532643459170012 0.09505687627249004 0.09971670523573624
0.012385224714266231 0.100969180396874 0.100538594325147
0.025623713774449455 0.10688148452125797 0.10136048341455776
0.03886220283463268 0.11279378864564193 0.10218237250396853
0.052100691894815906 0.11870609277002589 0.1030042615933793
0.06533918095499915 0.12461839689440986 0.10382615068279007
0.07857767001518237 0.13053070101879383 0.10464803977220083
-0.040568731526466686 0.07731996389933815 0.09725103796750394
-0.0293181093770136 0.08619325136571597 0.09488953312517373
-0.018067487227560512 0.09506653883209377 0.09252802828284351
-0.00681686507810742 0.1039398262984716 0.09016652344051329
0.004433757071345664 0.1128131137648494 0.08780501859818307
0.015684379220798753 0.12168640123122722 0.08544351375585287
0.026935001370251843 0.13055968869760504 0.08308200891352265
0.038185623519704934 0.13943297616398284 0.08072050407119243
0.04943624566915801 0.14830626363036065 0.0783589992288622
0.060686867818611115 0.15717955109673848 0.07599749438653199
-0.040568731526466686 0.07731996389933815 0.09725103796750394
-0.03252515576902634 0.08819267632748674 0.09196204488562226
-0.024481580011586 0.09906538875563534 0.08667305180374058
-0.016438004254145662 0.10993810118378392 0.0813840587218589
-0.00839442849670531 0.12081081361193252 0.07609506563997721
-0.0003508527392649657 0.1316835260400811 0.07080607255809554
0.007692723018175364 0.14255623846822968 0.06551707947621385
0.01573629877561572 0.15342895089637829 0.06022808639433217
0.023779874533056064 0.1643016633245269 0.054939093312450483
0.03182345029049641 0.17517437575267547 0.04965010023056881
-0.040568731526466686 0.07731996389933815 0.09725103796750394
-0.036603848403295135 0.08901387419015176 0.08960770111367602
-0.03263896528012358 0.10070778448096537 0.0819643642598481
-0.028674082156952028 0.11240169477177897 0.07432102740602017
-0.024709199033780476 0.12409560506259258 0.06667769055219225
-0.020744315910608924 0.1357895153534062 0.05903435369836432
-0.01677943278743737 0.1474834256442198 0.0513910168445364
-0.012814549664265826 0.15917733593503341 0.043747679990708464
-0.008849666541094264 0.170871246225847 0.03610434313688055
-0.004884783417922726 0.1825651565166606 0.028461006283052613
-0.040568731526466686 0.07731996389933815 0.09725103796750394
-0.04111219764546 0.08856785542309355 0.08808163148843295
-0.041655663764453316 0.09981574694684894 0.07891222500936197
-0.04219912988344664 0.11106363847060434 0.06974281853029098
-0.04274259600243995 0.12231152999435972 0.060573412051219994
-0.043286062121433266 0.13355942151811512 0.051404005572149
-0.04382952824042658 0.14480731304187053 0.04223459909307801
-0.044372994359419896 0.1560552045656259 0.033065192614007026
-0.04491646047841322 0.1673030960893813 0.023895786134936044
-0.045459926597406525 0.1785509876131367 0.014726379655865046
-0.040568731526466686 0.07731996389933815 0.09725103796750394
-0.04556165390088625 0.0869029530804171 0.08754920933319817
-0.05055457627530582 0.09648594226149604 0.07784738069889238
-0.055547498649725385 0.10606893144257498 0.06814555206458661
-0.06054042102414495 0.11565192062365393 0.058443723430280835
-0.06553334339856451 0.12523490980473287 0.04874189479597506
-0.07052626577298408 0.1348178989858118 0.039040066161669294
-0.07551918814740365 0.14440088816689076 0.02933823752736351
-0.08051211052182321 0.1539838773479697 0.019636408893057726
-0.08550503289624277 0.16356686652904864 0.009934580258751954
-0.040568731526466686 0.07731996389933815 0.09725103796750394
-0.04947004954387116 0.08419958516457299 0.08806813084987228
-0.05837136756127564 0.09107920642980781 0.07888522373224062
-0.06727268557868012 0.09795882769504265 0.06970231661460896
-0.07617400359608459 0.10483844896027747 0.06051940949697729
-0.08507532161348907 0.1117180702255123 0.051336502379345623
-0.09397663963089353 0.11859769149074713 0.04215359526171397
-0.10287795764829802 0.12547731275598198 0.03297068814408231
-0.11177927566570249 0.1323569340212168 0.023787781026450634
-0.12068059368310698 0.13923655528645162 0.014604873908818974
-0.040568731526466686 0.07731996389933815 0.09725103796750394
-0.05241384926149045 0.08075070353631808 0.08958216284022671
-0.06425896699651422 0.08418144317329801 0.08191328771294948
-0.07610408473153797 0.08761218281027794 0.07424441258567224
-0.08794920246656174 0.09104292244725788 0.066575537458395
-0.0997943202015855 0.0944736620842378 0.058906662331117764
-0.11163943793660927 0.09790440172121774 0.05123778720384054
-0.12348455567163304 0.10133514135819767 0.043568912076563306
-0.1353296734066568 0.1047658809951776 0.03590003694928607
-0.14717479114168056 0.10819662063215753 0.028231161822008834
-0.040568731526466686 0.07731996389933815 0.09725103796750394
-0.054074046676581104 0.07693004803498611 0.09192723644547969
-0.06757936182669552 0.07654013217063406 0.08660343492345544
-0.08108467697680993 0.07615021630628202 0.0812796334014312
-0.09458999212692434 0.07576030044192998 0.07595583187940695
-0.10809530727703875 0.07537038457757794 0.07063203035738269
-0.12160062242715318 0.07498046871322589 0.06530822883535845
-0.1351059375772676 0.07459055284887384 0.0599844273133342
-0.14861125272738201 0.0742006369845218 0.05466062579130995
-0.16211656787749643 0.07381072112016976 0.0493368242692857
-0.040568731526466686 0.07731996389933815 0.09725103796750394
-0.05427073363860094 0.07315164596772468 0.09484922655293594
-0.06797273575073519 0.06898332803611122 0.09244741513836795
-0.08167473786286944 0.06481501010449775 0.09004560372379994
-0.0953767399750037 0.060646692172884285 0.08764379230923194
-0.10907874208713796 0.05647837424127082 0.08524198089466395
-0.12278074419927221 0.052310056309657356 0.08284016948009594
-0.13648274631140647 0.048141738378043884 0.08043835806552795
-0.1501847484235407 0.04397342044643042 0.07803654665095994
-0.16388675053567497 0.03980510251481695 0.07563473523639194
-0.040568731526466686 0.07731996389933815 0.09725103796750394
-0.05298259606330245 0.06982494582647031 0.09803149019510458
-0.06539646060013822 0.062329927753602465 0.09881194242270522
-0.07781032513697399 0.05483490968073462 0.09959239465030587
-0.09022418967380975 0.04733989160786678 0.1003728468779065
-0.10263805421064552 0.03984487353499893 0.10115329910550715
-0.11505191874748129 0.032349855462131094 0.10193375133310778
-0.12746578328431704 0.024854837389263244 0.10271420356070841
-0.1398796478211528 0.0173598193163954 0.10349465578830906
-0.15229351235798858 0.009864801243527553 0.1042751080159097
-0.040568731526466686 0.07731996389933815 0.09725103796750394
-0.05034922364448309 0.06731044719059907 0.10112917972844865
-0.060129715762499494 0.05730093048186 0.10500732148939336
-0.06991020788051591 0.047291413773120926 0.10888546325033806
-0.0796906999985323 0.037281897064381855 0.11276360501128277
-0.08947119211654872 0.027272380355642778 0.11664174677222747
-0.09925168423456512 0.0172628636469037 0.12051988853317218
-0.10903217635258154 0.007253346938164624 0.12439803029411688
-0.11881266847059793 -0.002756169770574439 0.1282761720550616
-0.12859316058861434 -0.01276568647931353 0.13215431381600629
-0.040568731526466686 0.07731996389933815 0.09725103796750394
-0.04665598314470508 0.06588063500377399 0.10380661242642483
-0.05274323476294347 0.05444130610820982 0.11036218688534571
-0.058830486381181865 0.04300197721264565 0.1169177613442666
-0.06491773799942026 0.031562648317081485 0.12347333580318748
-0.07100498961765865 0.020123319421517315 0.13002891026210836
-0.07709224123589704 0.008683990525953146 0.13658448472102924
-0.08317949285413544 -0.002755338369611017 0.14314005917995012
-0.08926674447237383 -0.01419466726517518 0.149695633638871
-0.09535399609061224 -0.02563399616073936 0.1562512080977919
-0.040568731526466686 0.07731996389933815 0.09725103796750394
-0.042303094478650195 0.06569045160225949 0.1057736469115586
-0.04403745743083371 0.05406093930518082 0.11429625585561326
-0.04577182038301722 0.04243142700810215 0.12281886479966793
-0.047506183335200736 0.03080191471102349 0.1313414737437226
-0.04924054628738425 0.01917240241394482 0.13986408268777725
-0.05097490923956775 0.007542890116866153 0.1483866916318319
-0.05270927219175127 -0.004086622180212509 0.15690930057588656
-0.054443635143934785 -0.01571613447729117 0.16543190951994124
-0.056177998096118294 -0.027345646774369847 0.1739545184639959
-0.040568731526466686 0.07731996389933815 0.09725103796750394
-0.03776226067531225 0.0667605063086092 0.10681712447570094
-0.03495578982415781 0.056201048717880266 0.11638321098389792
-0.03214931897300338 0.045641591127151326 0.1259492974920949
-0.029342848121848945 0.03508213353642238 0.13551538400029192
-0.026536377270694512 0.024522675945693434 0.1450814705084889
-0.023729906419540075 0.013963218354964503 0.1546475570166859
-0.020923435568385638 0.003403760764235557 0.16421364352488288
-0.018116964717231204 -0.00715569682649339 0.1737797300330799
-0.015310493866076766 -0.017715154417222337 0.18334581654127688
-0.040568731526466686 0.07731996389933815 0.09725103796750394
-0.03352555153557893 0.06897484209178066 0.10682396813355435
-0.02648237154469118 0.06062972028422317 0.11639689829960476
-0.019439191553803428 0.05228459847666568 0.12596982846565516
-0.012396011562915669 0.043939476669108184 0.13554275863170556
-0.005352831572027926 0.0355943548615507 0.14511568879775597
0.0016903484188598317 0.027249233053993203 0.1546886189638064
0.008733528409747589 0.01890411124643572 0.1642615491298568
0.015776708400635345 0.010558989438878218 0.1738344792959072
0.022819888391523088 0.0022138676313207275 0.18340740946195763
-0.040568731526466686 0.07731996389933815 0.09725103796750394
-0.03005208023405601 0.07209350131070741 0.10579343626860015
-0.01953542894164533 0.06686703872207668 0.11433583456969634
-0.009018777649234656 0.061640576133445944 0.12287823287079254
0.0014978736431760249 0.0564141135448152 0.13142063117188874
0.012014524935586699 0.05118765095618446 0.13996302947298495
0.02253117622799737 0.04596118836755373 0.14850542777408113
0.03304782752040804 0.04073472577892299 0.15704782607517734
0.04356447881281873 0.03550826319029225 0.16559022437627355
0.0540811301052294 0.030281800601661503 0.17413262267736973
-0.040568731526466686 0.07731996389933815 0.09725103796750394
-0.02771825128272388 0.07577852884803507 0.10383720299875553
-0.014867771038981068 0.074237093796732 0.1104233680300071
-0.0020172907952382673 0.07269565874542892 0.11700953306125869
0.010833189448504548 0.07115422369412584 0.12359569809251027
0.023683669692247347 0.06961278864282278 0.13018186312376184
0.03653414993599015 0.0680713535915197 0.13676802815501343
0.04938463017973296 0.06652991854021663 0.14335419318626502
0.06223511042347578 0.06498848348891355 0.1499403582175166
0.07508559066721858 0.06344704843761047 0.15652652324876817
-0.040568731526466686 0.07731996389933815 0.09725103796750394
-0.02677697126154672 0.07963059479100058 0.10116725655289484
-0.012985210996626749 0.08194122568266303 0.10508347513828573
0.0008065492682932193 0.08425185657432546 0.10899969372367661
0.014598309533213187 0.0865624874659879 0.11291591230906751
0.028390069798133147 0.08887311835765033 0.1168321308944584
0.04218183006305312 0.09118374924931276 0.12074834947984929
0.0559735903279731 0.0934943801409752 0.12466456806524019
0.06976535059289306 0.09580501103263764 0.12858078665063108
0.08355711085781303 0.09811564192430007 0.13249700523602198
-0.040568731526466686 0.07731996389933815 0.09725103796750394
-0.027330242466283454 0.0832322680237221 0.09807292705691471
-0.014091753406100223 0.08914457214810607 0.09889481614632548
-0.0008532643459170012 0.09505687627249003 0.09971670523573624
0.012385224714266238 0.100969180396874 0.10053859432514702
0.025623713774449455 0.10688148452125795 0.10136048341455778
0.03886220283463268 0.11279378864564192 0.10218237250396854
0.052100691894815906 0.11870609277002588 0.10300426159337932
0.06533918095499916 0.12461839689440983 0.10382615068279008
0.07857767001518239 0.1305307010187938 0.10464803977220086
