# .PCD v0.7 - Point Cloud Data file format
VERSION 0.7
FIELDS x y z
SIZE 4 4 4
TYPE F F F
COUNT 1 1 1
WIDTH 700
HEIGHT 1
VIEWPOINT 0 0 0 1 0 0 0
POINTS 700
DATA ascii
0.08107930309081737 0.06743271592724655 -0.037751904890263976
0.06856596802825181 0.0788236526709549 -0.04039518161635506
0.054262456472049636 0.08731121813798413 -0.04448109592558575
0.03883758472536759 0.09249854320034746 -0.04981859500602402
0.023012602647566882 0.09414307430342649 -0.05615810333287271
0.007527468812401121 0.09216791500060628 -0.06320319254262585
-0.006893749132487449 0.08666542154565483 -0.07062444209388963
-0.019576731064028366 0.07789288441694342 -0.07807484260577342
-0.029928434843224792 0.06626049770063586 -0.08520602163086698
-0.0374648263064539 0.052312178871117415 -0.09168453316369314
-0.04183351216499258 0.0367001358144135 -0.09720744920532538
-0.042830217523541186 0.020154370312315917 -0.10151652433993727
-0.04040833754729242 0.0034485439704052055 -0.1044102710034274
-0.03468111665220941 -0.012636197338763273 -0.10575338081797937
-0.025916353321997404 -0.027347748988478773 -0.10548305146142409
-0.01452387814864231 -0.039998215174315926 -0.10361192323402459
-0.00103639060942351 -0.04999607415740829 -0.10022748801208439
0.013915449368590887 -0.05687383716352861 -0.09548799822505186
0.02963251036580549 -0.06030990763859528 -0.08961506714780405
0.045379880078249175 -0.06014361874611219 -0.08288330651021904
0.060421229000112535 -0.056382745969875046 -0.07560748595789567
0.0740532403730678 -0.04920314354099085 -0.06812781477336687
0.08563849649620806 -0.03894052168947918 -0.06079403406816375
0.0946352836693026 -0.026074749207031806 -0.05394906327714981
0.10062292212334834 -0.011207415315648898 -0.047912965626874214
0.1033214365390162 0.00496629997576332 -0.04296798233482317
0.10260464738141295 0.021690131715971842 -0.03934533532377879
0.0985060709148942 0.03818209212000844 -0.03721441554169455
0.0912173520197938 0.05367103544887798 -0.03667486242923345
0.08107930309081739 0.06743271592724653 -0.037751904890263976
0.07435025822651115 0.0637146581785688 -0.021919044107902227
0.061836923163945574 0.07510559492227716 -0.024562320833993307
0.04753341160774341 0.08359316038930639 -0.028648235143224003
0.03210853986106135 0.08878048545166972 -0.033985734223662266
0.01628355778326065 0.09042501655474874 -0.04032524255051096
0.0007984239480948888 0.08844985725192854 -0.047370331760264096
-0.013622793996793682 0.08294736379697709 -0.05479158131152788
-0.026305775928334597 0.07417482666826568 -0.06224198182341167
-0.03665747970753103 0.06254243995195811 -0.06937316084850523
-0.04419387117076013 0.048594121122439674 -0.07585167238133139
-0.04856255702929881 0.032982078065735755 -0.08137458842296362
-0.04955926238784742 0.016436312563638172 -0.08568366355757552
-0.047137382411598656 -0.0002695137782725378 -0.08857741022106563
-0.041410161516515644 -0.016354255087441018 -0.08992052003561761
-0.03264539818630364 -0.031065806737156518 -0.08965019067906234
-0.02125292301294854 -0.04371627292299367 -0.08777906245166284
-0.007765435473729742 -0.05371413190608603 -0.08439462722972264
0.007186404504284654 -0.06059189491220635 -0.07965513744269011
0.02290346550149926 -0.06402796538727301 -0.0737822063654423
0.03865083521394295 -0.06386167649478992 -0.06705044572785727
0.0536921841358063 -0.06010080371855279 -0.05977462517553391
0.06732419550876158 -0.05292120128966859 -0.05229495399100511
0.07890945163190183 -0.04265857943815692 -0.044961173285802
0.08790623880499637 -0.02979280695570955 -0.03811620249478806
0.09389387725904211 -0.014925473064326641 -0.032080104844512465
0.09659239167470997 0.0012482422270855774 -0.027135121552461422
0.09587560251710672 0.017972073967294097 -0.02351247454141704
0.09177702605058798 0.0344640343713307 -0.021381554759332802
0.08448830715548757 0.04995297770020024 -0.0208420016468717
0.07435025822651116 0.06371465817856879 -0.021919044107902227
0.0676212133622049 0.05999660042989106 -0.0060861833255404785
0.05510787829963935 0.07138753717359941 -0.008729460051631558
0.040804366743437175 0.07987510264062865 -0.012815374360862254
0.025379494996755125 0.08506242770299198 -0.01815287344130052
0.00955451291895442 0.086706958806071 -0.02449238176814921
-0.0059306209162113405 0.0847317995032508 -0.03153747097790235
-0.02035183886109991 0.07922930604829935 -0.03895872052916613
-0.03303482079264083 0.07045676891958794 -0.04640912104104992
-0.043386524571837254 0.05882438220328037 -0.05354030006614348
-0.05092291603506636 0.04487606337376193 -0.06001881159896964
-0.05529160189360504 0.02926402031705801 -0.06554172764060187
-0.05628830725215365 0.012718254814960432 -0.06985080277521377
-0.053866427275904884 -0.00398757152695028 -0.07274454943870388
-0.04813920638082187 -0.02007231283611876 -0.07408765925325586
-0.039374443050609866 -0.03478386448583426 -0.07381732989670059
-0.027981967877254772 -0.04743433067167141 -0.07194620166930109
-0.014494480338035971 -0.05743218965476377 -0.0685617664473609
0.00045735963997842514 -0.06430995266088409 -0.06382227666032836
0.01617442063719303 -0.06774602313595075 -0.057949345583080555
0.031921790349636714 -0.06757973424346767 -0.05121758494549553
0.04696313927150007 -0.06381886146723052 -0.04394176439317216
0.06059515064445535 -0.05663925903834633 -0.03646209320864336
0.07218040676759559 -0.046376637186834664 -0.02912831250344025
0.08117719394069013 -0.03351086470438729 -0.02228334171242631
0.08716483239473587 -0.018643530813004384 -0.016247244062150716
0.08986334681040373 -0.002469815521592164 -0.011302260770099673
0.08914655765280048 0.014254016218616357 -0.007679613759055293
0.08504798118628173 0.030745976622652955 -0.005548693976971053
0.07775926229118132 0.0462349199515225 -0.005009140864509952
0.06762121336220492 0.059996600429891044 -0.0060861833255404785
0.060892168497898684 0.056278542681213316 0.009746677456821269
0.04837883343533312 0.06766947942492167 0.00710340073073019
0.03407532187913095 0.07615704489195091 0.0030174864214994935
0.018650450132448895 0.08134436995431424 -0.0023200126589387727
0.002825468054648191 0.08298890105739326 -0.008659520985787464
-0.01265966578051757 0.08101374175457306 -0.015704610195540602
-0.02708088372540614 0.07551124829962161 -0.023125859746804384
-0.039763865656947055 0.0667387111709102 -0.030576260258688173
-0.05011556943614348 0.05510632445460263 -0.03770743928378173
-0.057651960899372585 0.04115800562508419 -0.044185950816607894
-0.06202064675791127 0.02554596256838027 -0.04970886685824013
-0.06301735211645988 0.00900019706628269 -0.05401794199285202
-0.06059547214021111 -0.007705629275628022 -0.05691168865634214
-0.0548682512451281 -0.0237903705847965 -0.05825479847089412
-0.04610348791491609 -0.038501922234512 -0.05798446911433884
-0.034711012741561 -0.05115238842034915 -0.05611334088693934
-0.021223525202342202 -0.061150247403441514 -0.05272890566499915
-0.0062716852243278045 -0.06802801040956183 -0.04798941587796661
0.0094453757728868 -0.0714640808846285 -0.042116484800718806
0.025192745485330487 -0.0712977919921454 -0.035384724163133784
0.040234094407193846 -0.06753691921590826 -0.028108903610810414
0.05386610578014912 -0.06035731678702407 -0.02062923242628161
0.06545136190328936 -0.050094694935512406 -0.013295451721078504
0.0744481490763839 -0.037228922453065035 -0.0064504809300645624
0.08043578753042964 -0.022361588561682126 -0.00041438327978896825
0.0831343019460975 -0.006187873270269906 0.004530600012262075
0.08241751278849425 0.010535958469938616 0.008153247023306455
0.07831893632197551 0.027027918873975213 0.010284166805390694
0.0710302174268751 0.04251686220284476 0.010823719917851795
0.0608921684978987 0.0562785426812133 0.009746677456821269
0.05416312363359245 0.052560484932535574 0.02557953823918302
0.041649788571026886 0.06395142167624393 0.02293626151309194
0.02734627701482472 0.07243898714327317 0.018850347203861244
0.011921405268142666 0.0776263122056365 0.013512848123422976
-0.003903576809658039 0.07927084330871552 0.007173339796574286
-0.0193887106448238 0.07729568400589532 0.00012825058682114796
-0.03380992858971237 0.07179319055094387 -0.0072929989644426345
-0.04649291052125329 0.06302065342223245 -0.014743399476326425
-0.056844614300449715 0.05138826670592489 -0.02187457850141998
-0.06438100576367882 0.03743994787640645 -0.028353090034246145
-0.0687496916222175 0.021827904819702527 -0.03387600607587838
-0.06974639698076611 0.005282139317604948 -0.038185081210490274
-0.06732451700451735 -0.011423687024305764 -0.04107882787398039
-0.06159729610943433 -0.027508428333474243 -0.04242193768853237
-0.05283253277922233 -0.04221997998318974 -0.04215160833197709
-0.041440057605867234 -0.05487044616902689 -0.04028048010457759
-0.02795257006664843 -0.06486830515211925 -0.036896044882637404
-0.013000730088634034 -0.07174606815823957 -0.03215655509560486
0.0027163309085805696 -0.07518213863330624 -0.026283624018357057
0.01846370062102426 -0.07501584974082315 -0.019551863380772035
0.03350504954288761 -0.071254976964586 -0.012276042828448665
0.04713706091584289 -0.0640753745357018 -0.004796371643919862
0.05872231703898313 -0.05381275268419015 0.002537409061283246
0.06771910421207768 -0.040946980201742776 0.009382379852297186
0.07370674266612341 -0.026079646310359868 0.01541847750257278
0.07640525708179127 -0.009905931018947649 0.020363460794623825
0.07568846792418803 0.006817900721260873 0.023986107805668205
0.07158989145766928 0.02330986112529747 0.026117027587752445
0.06430117256256887 0.038798804454167016 0.026656580700213546
0.054163123633592464 0.05256048493253556 0.02557953823918302
0.04743407876928622 0.04884242718385783 0.04141239902154477
0.03492074370672066 0.06023336392756618 0.03876912229545369
0.020617232150518486 0.06872092939459541 0.03468320798622299
0.005192360403836435 0.07390825445695874 0.029345708905784727
-0.01063262167396427 0.07555278556003776 0.023006200578936035
-0.026117755509130033 0.07357762625721756 0.0159611113691829
-0.0405389734540186 0.06807513280226611 0.008539861817919117
-0.053221955385559516 0.059302595673554705 0.0010894613060353263
-0.06357365916475595 0.04767020895724715 -0.006041717719058231
-0.07111005062798505 0.03372189012772871 -0.012520229251884394
-0.07547873648652373 0.018109847071024785 -0.01804314529351663
-0.07647544184507234 0.0015640815689272054 -0.022352220428128525
-0.07405356186882357 -0.015141744772983506 -0.025245967091618644
-0.06832634097374056 -0.031226486082151984 -0.02658907690617062
-0.059561577643528554 -0.045938037731867484 -0.026318747549615343
-0.04816910247017346 -0.058588503917704635 -0.02444761932221584
-0.03468161493095466 -0.068586362900797 -0.02106318410027565
-0.019729774952940267 -0.07546412590691733 -0.01632369431324311
-0.004012713955725661 -0.07890019638198399 -0.010450763235995307
0.011734655756718027 -0.0787339074895009 -0.0037190025984102848
0.02677600467858138 -0.07497303471326376 0.003556817953913087
0.04040801605153666 -0.06779343228437956 0.01103648913844189
0.051993272174676905 -0.05753081043286789 0.018370269843644996
0.06099005934777145 -0.04466503795042052 0.025215240634658936
0.06697769780181718 -0.02979770405903761 0.03125133828493453
0.06967621221748505 -0.01362398876762539 0.036196321576985574
0.0689594230598818 0.00309984297258313 0.039818968588029954
0.06486084659336305 0.01959180337661973 0.041949888370114194
0.05757212769826264 0.035080746705489274 0.042489441482575295
0.047434078769286236 0.04884242718385782 0.04141239902154477
0.040705033904979995 0.04512436943518009 0.05724525980390651
0.02819169884241443 0.05651530617888844 0.05460198307781543
0.013888187286212262 0.06500287164591768 0.050516068768584735
-0.0015366844604697914 0.07019019670828101 0.045178569688146465
-0.017361666538270495 0.07183472781136004 0.03883906136129778
-0.032846800373436257 0.06985956850853983 0.03179397215154464
-0.04726801831832483 0.06435707505358838 0.024372722600280856
-0.059951000249865743 0.05558453792487696 0.016922322088397068
-0.07030270402906218 0.04395215120856941 0.009791143063303509
-0.07783909549229127 0.030003832379050965 0.0033126315304773447
-0.08220778135082996 0.014391789322347045 -0.0022102845111548904
-0.08320448670937856 -0.0021539761797505345 -0.0065193596457667835
-0.0807826067331298 -0.018859802521661247 -0.009413106309256904
-0.07505538583804679 -0.034944543830829726 -0.01075621612380888
-0.06629062250783478 -0.049656095480545226 -0.010485886767253602
-0.05489814733447969 -0.062306561666382376 -0.0086147585398541
-0.04141065979526089 -0.07230442064947473 -0.00523032331791391
-0.02645881981724649 -0.07918218365559505 -0.000490833530881371
-0.010741758820031887 -0.08261825413066172 0.005382097546366433
0.0050056108924118005 -0.08245196523817863 0.012113858183951455
0.020046959814275157 -0.07869109246194149 0.019389678736274826
0.033678971187230435 -0.07151149003305729 0.02686934992080363
0.04526422731037068 -0.06124886818154563 0.03420313062600674
0.05426101448346522 -0.04838309569909826 0.04104810141702068
0.06024865293751096 -0.03351576180771535 0.04708419906729627
0.06294716735317882 -0.017342046516303132 0.052029182359347316
0.06223037819557557 -0.0006182147760946099 0.055651829370391696
0.058131801729056826 0.015873745627941988 0.057782749152475936
0.050843082833956416 0.03136268895681153 0.05832230226493704
0.04070503390498001 0.04512436943518008 0.05724525980390651
0.03397598904067376 0.04140631168650235 0.07307812058626827
0.0214626539781082 0.0527972484302107 0.07043484386017718
0.00715914242190603 0.061284813897239936 0.06634892955094648
-0.008265729324776021 0.06647213895960327 0.06101143047050822
-0.024090711402576726 0.0681166700626823 0.054671922143659527
-0.03957584523774249 0.06614151075986209 0.04762683293390639
-0.05399706318263106 0.060639017304910635 0.04020558338264261
-0.06668004511417197 0.05186648017619922 0.03275518287075882
-0.0770317488933684 0.040234093459891665 0.02562400384566526
-0.0845681403565975 0.026285774630373224 0.019145492312839095
-0.08893682621513618 0.010673731573669302 0.01362257627120686
-0.08993353157368479 -0.005872033928428277 0.009313501136594966
-0.08751165159743603 -0.02257786027033899 0.006419754473104848
-0.08178443070235301 -0.03866260157950747 0.005076644658552871
-0.07301966737214101 -0.05337415322922297 0.005346974015108149
-0.06162719219878592 -0.06602461941506012 0.007218102242507651
-0.04813970465956712 -0.07602247839815247 0.01060253746444784
-0.03318786468155272 -0.0829002414042728 0.01534202725148038
-0.017470803684338117 -0.08633631187933946 0.021214958328728183
-0.00172343397189443 -0.08617002298685637 0.027946718966313205
0.013317914949968927 -0.08240915021061923 0.035222539518636575
0.026949926322924204 -0.07522954778173503 0.04270221070316538
0.038535182446064443 -0.06496692593022337 0.05003599140836849
0.04753196961915899 -0.052101153447776 0.05688096219938243
0.05351960807320472 -0.03723381955639309 0.06291705984965802
0.056218122488872584 -0.021060104264980874 0.06786204314170907
0.05550133333126934 -0.004336272524772353 0.07148469015275345
0.05140275686475059 0.012155687879264247 0.07361560993483769
0.04411403796965018 0.02764463120813379 0.07415516304729879
0.033975989040673775 0.041406311686502335 0.07307812058626827
0.02724694417636753 0.03768825393782461 0.08891098136863002
0.014733609113801968 0.04907919068153296 0.08626770464253894
0.0004300975575997985 0.057566756148562194 0.08218179033330823
-0.014994774189082254 0.06275408121092552 0.07684429125286997
-0.03081975626688296 0.06439861231400454 0.07050478292602128
-0.04630489010204872 0.06242345301118434 0.06345969371626814
-0.06072610804693729 0.05692095955623289 0.056038444165004364
-0.07340908997847821 0.04814842242752148 0.04858804365312057
-0.08376079375767463 0.03651603571121392 0.041456864628027015
-0.09129718522090374 0.022567716881695482 0.03497835309520085
-0.09566587107944242 0.0069556738249915585 0.029455437053568616
-0.09666257643799103 -0.00959009167710602 0.025146361918956722
-0.09424069646174227 -0.02629591801901673 0.022252615255466603
-0.08851347556665926 -0.04238065932818521 0.020909505440914626
-0.07974871223644725 -0.05709221097790071 0.021179834797469904
-0.06835623706309216 -0.06974267716373786 0.023050963024869406
-0.05486874952387335 -0.07974053614683023 0.026435398246809596
-0.039916909545858956 -0.08661829915295055 0.031174888033842135
-0.02419984854864435 -0.09005436962801722 0.03704781911108994
-0.008452478836200662 -0.08988808073553413 0.04377957974867496
0.006588870085662694 -0.08612720795929699 0.05105540030099833
0.02022088145861797 -0.07894760553041279 0.05853507148552713
0.031806137581758216 -0.06868498367890112 0.06586885219073024
0.04080292475485276 -0.05581921119645374 0.07271382298174418
0.046790563208898496 -0.040951877305070834 0.07874992063201977
0.049489077624566356 -0.024778162013658615 0.08369490392407082
0.04877228846696311 -0.008054330273450096 0.0873175509351152
0.044673712000444364 0.008437630130586503 0.08944847071719944
0.037384993105343954 0.02392657345945605 0.08998802382966054
0.027246944176367544 0.037688253937824594 0.08891098136863002
0.0205178993120613 0.033970196189146866 0.10474384215099176
0.008004564249495735 0.045361132932855215 0.10210056542490069
-0.006298947306706434 0.05384869839988445 0.09801465111567
-0.021723819053388486 0.05903602346224778 0.09267715203523172
-0.03754880113118919 0.060680554565326804 0.08633764370838304
-0.05303393496635495 0.0587053952625066 0.0792925544986299
-0.06745515291124352 0.05320290180755515 0.07187130494736611
-0.08013813484278444 0.04443036467884374 0.06442090443548232
-0.09048983862198086 0.03279797796253618 0.057289725410388764
-0.09802623008520997 0.018849659133017737 0.0508112138775626
-0.10239491594374865 0.0032376160763138155 0.045288297835930365
-0.10339162130229726 -0.013308149425783764 0.04097922270131847
-0.1009697413260485 -0.030013975767694476 0.03808547603782835
-0.09524252043096548 -0.04609871707686295 0.036742366223276375
-0.08647775710075348 -0.06081026872657845 0.03701269557983165
-0.07508528192739838 -0.0734607349124156 0.038883823807231155
-0.06159779438817958 -0.08345859389550797 0.04226825902917135
-0.04664595441016518 -0.09033635690162829 0.047007748816203884
-0.030928893412950582 -0.09377242737669496 0.05288067989345169
-0.015181523700506894 -0.09360613848421187 0.05961244053103671
-0.00014017477864353823 -0.08984526570797473 0.06688826108336009
0.013491836594311739 -0.08266566327909053 0.07436793226788889
0.025077092717451982 -0.07240304142757886 0.08170171297309199
0.03407387989054653 -0.059537268945131484 0.08854668376410593
0.04006151834459226 -0.044669935053748576 0.09458278141438153
0.04276003276026012 -0.02849621976233636 0.09952776470643257
0.04204324360265688 -0.01177238802212784 0.10315041171747695
0.03794466713613813 0.004719572381908761 0.10528133149956119
0.03065594824103772 0.020208515710778304 0.1058208846120223
0.020517899312061313 0.03397019618914685 0.10474384215099176
0.030280701889378037 0.01673125986904984 -0.07124787352062788
0.035924990911760185 0.022364754986627253 -0.06752609922836522
0.041569279934142334 0.02799825010420466 -0.06380432493610257
0.047213568956524475 0.03363174522178207 -0.06008255064383991
0.052857857978906624 0.039265240339359485 -0.056360776351577255
0.05850214700128877 0.0448987354569369 -0.0526390020593146
0.06414643602367091 0.0505322305745143 -0.04891722776705194
0.06979072504605306 0.05616572569209172 -0.04519545347478929
0.07543501406843521 0.061799220809669125 -0.04147367918252664
0.08107930309081737 0.06743271592724655 -0.037751904890263976
0.030280701889378037 0.01673125986904984 -0.07124787352062788
0.03371841745308491 0.024170153499018878 -0.06803993914543362
0.03715613301679178 0.03160904712898792 -0.06483200477023937
0.04059384858049865 0.03904794075895695 -0.061624070395045125
0.044031564144205525 0.04648683438892599 -0.05841613601985087
0.04746927970791239 0.05392572801889503 -0.05520820164465662
0.050906995271619265 0.06136462164886406 -0.05200026726946237
0.05434471083532614 0.06880351527883312 -0.04879233289426811
0.057782426399033006 0.07624240890880216 -0.045584398519073865
0.06122014196273989 0.0836813025387712 -0.04237646414387961
0.030280701889378037 0.01673125986904984 -0.07124787352062788
0.031139314171429042 0.025169432460275906 -0.06890140852828477
0.03199792645348005 0.03360760505150197 -0.06655494353594169
0.03285653873553105 0.04204577764272803 -0.06420847854359858
0.03371515101758205 0.0504839502339541 -0.061862013551255486
0.03457376329963306 0.05892212282518016 -0.05951554855891239
0.03543237558168406 0.06736029541640623 -0.0571690835665693
0.036290987863735066 0.07579846800763229 -0.0548226185742262
0.03714960014578607 0.08423664059885837 -0.0524761535818831
0.03800821242783708 0.09267481319008443 -0.050129688589540006
0.030280701889378037 0.01673125986904984 -0.07124787352062788
0.0284671669262707 0.02525430448953547 -0.07001715380221203
0.02665363196316337 0.033777349110021095 -0.06878643408379619
0.024840097000056034 0.04230039373050672 -0.06755571436538034
0.023026562036948698 0.05082343835099235 -0.0663249946469645
0.021213027073841362 0.05934648297147799 -0.06509427492854865
0.019399492110734034 0.06786952759196362 -0.0638635552101328
0.017585957147626695 0.07639257221244924 -0.06263283549171696
0.015772422184519363 0.08491561683293487 -0.061402115773301104
0.01395888722141203 0.09343866145342052 -0.06017139605488526
0.030280701889378037 0.01673125986904984 -0.07124787352062788
0.025991544334259348 0.024415572385502075 -0.07126626665421365
0.02170238677914066 0.03209988490195431 -0.07128465978779944
0.017413229224021973 0.03978419741840654 -0.07130305292138522
0.013124071668903284 0.04746850993485878 -0.07132144605497101
0.008834914113784596 0.055152822451311014 -0.07133983918855678
0.004545756558665914 0.06283713496776325 -0.07135823232214257
0.0002565990035472211 0.07052144748421549 -0.07137662545572836
-0.004032558551571468 0.07820576000066773 -0.07139501858931413
-0.00832171610669015 0.08589007251711996 -0.07141341172289992
0.030280701889378037 0.01673125986904984 -0.07124787352062788
0.02398071851648178 0.022744125785917245 -0.07251338632479239
0.017680735143585525 0.02875699170278465 -0.07377889912895691
0.01138075177068927 0.034769857619652046 -0.07504441193312143
0.005080768397793013 0.040782723536519454 -0.07630992473728594
-0.0012192149751032446 0.04679558945338686 -0.07757543754145046
-0.007519198347999495 0.052808455370254255 -0.07884095034561499
-0.01381918172089576 0.05882132128712167 -0.0801064631497795
-0.02011916509379201 0.06483418720398908 -0.08137197595394402
-0.026419148466688275 0.07084705312085648 -0.08263748875810854
0.030280701889378037 0.01673125986904984 -0.07124787352062788
0.022652593651471528 0.02042109186501218 -0.07362336804658554
0.01502448541356502 0.024110923860974517 -0.0759988625725432
0.007396377175658515 0.02780075585693685 -0.07837435709850084
-0.0002317310622479975 0.03149058785289919 -0.0807498516244585
-0.007859839300154506 0.03518041984886153 -0.08312534615041615
-0.015487947538061007 0.03887025184482386 -0.08550084067637381
-0.023116055775967516 0.0425600838407862 -0.08787633520233147
-0.03074416401387403 0.04624991583674854 -0.09025182972828913
-0.03837227225178054 0.04993974783271087 -0.09262732425424679
0.030280701889378037 0.01673125986904984 -0.07124787352062788
0.022151092676333046 0.017698207393702127 -0.0744759280768958
0.014021483463288058 0.018665154918354413 -0.07770398263316375
0.005891874250243071 0.0196321024430067 -0.08093203718943169
-0.0022377349628019197 0.020599049967658985 -0.08416009174569962
-0.010367344175846907 0.021565997492311268 -0.08738814630196756
-0.018496953388891894 0.022532945016963558 -0.0906162008582355
-0.026626562601936882 0.023499892541615847 -0.09384425541450343
-0.034756171814981876 0.02446684006626813 -0.09707230997077138
-0.04288578102802687 0.025433787590920413 -0.10030036452703932
0.030280701889378037 0.01673125986904984 -0.07124787352062788
0.022530561003311987 0.014870539154359265 -0.07497867830760722
0.014780420117245938 0.01300981843966869 -0.07870948309458659
0.007030279231179895 0.011149097724978114 -0.08244028788156595
-0.0007198616548861616 0.009288377010287539 -0.08617109266854531
-0.008470002540952204 0.007427656295596962 -0.08990189745552467
-0.016220143427018247 0.005566935580906387 -0.09363270224250402
-0.023970284313084303 0.0037062148662158063 -0.09736350702948338
-0.03172042519915036 0.001845494151525236 -0.10109431181646274
-0.0394705660852164 -1.5226563165341319e-05 -0.1048251166034421
0.030280701889378037 0.01673125986904984 -0.07124787352062788
0.02374987735112242 0.012244508876509809 -0.07507713795024862
0.017219052812866804 0.0077577578839697755 -0.07890640237986936
0.010688228274611185 0.0032710068914297437 -0.0827356668094901
0.004157403736355571 -0.0012157441011102885 -0.08656493123911084
-0.0023734208019000474 -0.005702495093650323 -0.09039419566873158
-0.008904245340155666 -0.010189246086190352 -0.09422346009835232
-0.015435069878411284 -0.01467599707873039 -0.09805272452797306
-0.021965894416666895 -0.019162748071270417 -0.1018819889575938
-0.028496718954922527 -0.023649499063810458 -0.10571125338721456
0.030280701889378037 0.01673125986904984 -0.07124787352062788
0.025676909873836588 0.010104687687816818 -0.074760637374781
0.02107311785829514 0.0034781155065837974 -0.07827340122893414
0.016469325842753686 -0.0031484566746492267 -0.08178616508308727
0.01186553382721224 -0.009775028855882245 -0.08529892893724039
0.007261741811670785 -0.016401601037115274 -0.08881169279139353
0.0026579497961293393 -0.023028173218348293 -0.09232445664554666
-0.00194584221941211 -0.029654745399581312 -0.09583722049969978
-0.006549634234953555 -0.036281317580814335 -0.09934998435385292
-0.011153426250495015 -0.04290788976204736 -0.10286274820800606
0.030280701889378037 0.01673125986904984 -0.07124787352062788
0.028102834696628016 0.008682958416821924 -0.07406347432956874
0.025924967503877995 0.0006346569645940057 -0.07687907513850961
0.023747100311127974 -0.007413644487633914 -0.07969467594745047
0.021569233118377953 -0.015461945939861828 -0.08251027675639135
0.019391365925627933 -0.02351024739208975 -0.08532587756533222
0.017213498732877912 -0.03155854884431767 -0.08814147837427308
0.015035631540127891 -0.039606850296545586 -0.09095707918321394
0.012857764347377874 -0.0476551517487735 -0.09377267999215481
0.01067989715462785 -0.05570345320100142 -0.09658828080109567
0.030280701889378037 0.01673125986904984 -0.07124787352062788
0.030764765222845224 0.00813338749044002 -0.07306119724815979
0.031248828556312412 -0.0004644848881697997 -0.07487452097569172
0.031732891889779596 -0.009062357266779616 -0.07668784470322365
0.03221695522324679 -0.01766022964538944 -0.07850116843075557
0.032701018556713965 -0.026258102023999256 -0.0803144921582875
0.03318508189018116 -0.034855974402609076 -0.08212781588581942
0.03366914522364834 -0.04345384678121889 -0.08394113961335134
0.03415320855711553 -0.05205171915982872 -0.08575446334088327
0.034637271890582716 -0.06064959153843854 -0.0875677870684152
0.030280701889378037 0.01673125986904984 -0.07124787352062788
0.03337423997586476 0.008515529446016128 -0.07186241840425613
0.036467778062351484 0.00029979902298241405 -0.07247696328788437
0.039561316148838205 -0.007915931400051299 -0.07309150817151262
0.042654854235324925 -0.016131661823085012 -0.07370605305514087
0.04574839232181166 -0.02434739224611873 -0.0743205979387691
0.04884193040829838 -0.03256312266915244 -0.07493514282239735
0.0519354684947851 -0.04077885309218616 -0.0755496877060256
0.05502900658127182 -0.04899458351521987 -0.07616423258965385
0.05812254466775855 -0.05721031393825359 -0.0767787774732821
0.030280701889378037 0.01673125986904984 -0.07124787352062788
0.03564848187602431 0.00978797327312019 -0.07059704408656496
0.04101626186267059 0.0028446866771905384 -0.06994621465250205
0.04638404184931687 -0.004098599918739111 -0.06929538521843914
0.05175182183596314 -0.011041886514668763 -0.06864455578437623
0.057119601822609424 -0.017985173110598416 -0.06799372635031332
0.0624873818092557 -0.024928459706528062 -0.06734289691625041
0.06785516179590198 -0.031871746302457725 -0.06669206748218749
0.07322294178254825 -0.03881503289838737 -0.06604123804812459
0.07859072176919454 -0.045758319494317024 -0.06539040861406167
0.030280701889378037 0.01673125986904984 -0.07124787352062788
0.037341041524942616 0.011812829939085211 -0.06940219723671369
0.044401381160507195 0.00689440000912058 -0.0675565209527995
0.05146172079607178 0.001975970079155951 -0.06571084466888533
0.05852206043163635 -0.002942459850808679 -0.06386516838497114
0.06558240006720094 -0.007860889780773303 -0.06201949210105696
0.07264273970276552 -0.012779319710737938 -0.060173815817142776
0.0797030793383301 -0.01769774964070257 -0.058328139533228594
0.08676341897389467 -0.022616179570667198 -0.056482463249314406
0.09382375860945927 -0.02753460950063182 -0.054636786965400225
0.030280701889378037 0.01673125986904984 -0.07124787352062788
0.03826850382189047 0.014370674805265507 -0.0684073580508428
0.0462563057544029 0.012010089741481173 -0.06556684258105773
0.05424410768691534 0.009649504677696848 -0.06272632711127267
0.06223190961942777 0.007288919613912506 -0.059885811641487596
0.07021971155194019 0.0049283345501281795 -0.05704529617170253
0.07820751348445264 0.0025677494863438548 -0.054204780701917456
0.08619531541696507 0.000207164422559514 -0.05136426523213239
0.0941831173494775 -0.0021534206412248268 -0.048523749762347315
0.10217091928198993 -0.004514005705009147 -0.04568323429256225
0.030280701889378037 0.01673125986904984 -0.07124787352062788
0.03833036383593327 0.01718432569135804 -0.06772033279126187
0.04638002578248851 0.017637391513666244 -0.06419279206189585
0.054429687729043746 0.018090457335974443 -0.06066525133252984
0.06247934967559898 0.018543523158282647 -0.05713771060316383
0.07052901162215422 0.01899658898059085 -0.053610169873797825
0.07857867356870946 0.01944965480289905 -0.05008262914443181
0.08662833551526469 0.019902720625207246 -0.0465550884150658
0.09467799746181993 0.020355786447515452 -0.043027547685699795
0.10272765940837517 0.02080885226982365 -0.03950000695633378
0.030280701889378037 0.01673125986904984 -0.07124787352062788
0.037519918074692474 0.01994887986556292 -0.06741557130514174
0.04475913426000691 0.023166499862075998 -0.06358326908965559
0.05199835044532135 0.026384119858589076 -0.059750966874169455
0.05923756663063579 0.029601739855102154 -0.05591866465868331
0.06647678281595024 0.032819359851615236 -0.05208636244319717
0.07371599900126466 0.03603697984812831 -0.04825406022771103
0.08095521518657911 0.03925459984464139 -0.044421758012224886
0.08819443137189355 0.04247221984115447 -0.04058945579673875
0.09543364755720798 0.04568983983766755 -0.03675715358125261
0.030280701889378037 0.01673125986904984 -0.07124787352062788
0.035924990911760185 0.02236475498662725 -0.06752609922836522
0.041569279934142334 0.027998250104204658 -0.06380432493610257
0.04721356895652448 0.03363174522178207 -0.06008255064383991
0.05285785797890663 0.03926524033935948 -0.056360776351577255
0.05850214700128878 0.04489873545693689 -0.0526390020593146
0.06414643602367093 0.050532230574514295 -0.04891722776705194
0.06979072504605308 0.0561657256920917 -0.04519545347478929
0.07543501406843522 0.06179922080966911 -0.04147367918252663
0.08107930309081739 0.06743271592724653 -0.037751904890263976
-0.030280701889378037 -0.01673125986904984 0.07124787352062788
-0.024636412866995888 -0.011097764751472429 0.07496964781289053
-0.01899212384461374 -0.005464269633895018 0.07869142210515319
-0.013347834822231595 0.00016922548368239173 0.08241319639741583
-0.007703545799849446 0.005802720601259804 0.08613497068967849
-0.0020592567774672978 0.011436215718837218 0.08985674498194114
0.0035850322449148472 0.017069710836414623 0.0935785192742038
0.009229321267296996 0.02270320595399204 0.09730029356646645
0.014873610289679144 0.028336701071569447 0.10102206785872911
0.0205178993120613 0.033970196189146866 0.10474384215099176
-0.030280701889378037 -0.01673125986904984 0.07124787352062788
-0.026842986325671166 -0.009292366239080802 0.07445580789582212
-0.023405270761964293 -0.0018534726091117624 0.07766374227101637
-0.019967555198257422 0.005585421020857272 0.08087167664621063
-0.01652983963455055 0.013024314650826315 0.08407961102140488
-0.013092124070843678 0.020463208280795352 0.08728754539659912
-0.009654408507136808 0.027902101910764383 0.09049547977179337
-0.006216692943429931 0.03534099554073344 0.09370341414698763
-0.002778977379723064 0.042779889170702474 0.09691134852218188
0.0006587381839838135 0.05021878280067151 0.10011928289737614
-0.030280701889378037 -0.01673125986904984 0.07124787352062788
-0.02942208960732703 -0.008293087277823775 0.07359433851297097
-0.02856347732527603 0.00014508531340229032 0.07594080350531407
-0.027704865043225023 0.008583257904628352 0.07828726849765716
-0.026846252761174017 0.01702143049585442 0.08063373349000026
-0.02598764047912301 0.025459603087080483 0.08298019848234335
-0.025129028197072013 0.03389777567830655 0.08532666347468645
-0.024270415915021007 0.04233594826953262 0.08767312846702954
-0.02341180363297 0.050774120860758686 0.09001959345937265
-0.022553191350918995 0.05921229345198475 0.09236605845171574
-0.030280701889378037 -0.01673125986904984 0.07124787352062788
-0.03209423685248537 -0.008208215248564212 0.07247859323904372
-0.03390777181559271 0.0003148293719214168 0.07370931295745957
-0.035721306778700036 0.008837873992407045 0.07494003267587541
-0.03753484174180737 0.017360918612892674 0.07617075239429126
-0.03934837670491471 0.02588396323337831 0.0774014721127071
-0.041161911668022036 0.034407007853863934 0.07863219183112295
-0.04297544663112938 0.04293005247434956 0.0798629115495388
-0.04478898159423671 0.05145309709483519 0.08109363126795464
-0.04660251655734404 0.059976141715320834 0.08232435098637049
-0.030280701889378037 -0.01673125986904984 0.07124787352062788
-0.034569859444496726 -0.009046947352597605 0.07122948038704209
-0.038859016999615414 -0.0013626348361453692 0.0712110872534563
-0.043148174554734096 0.0063216776803068616 0.07119269411987053
-0.047437332109852785 0.014005990196759101 0.07117430098628474
-0.051726489664971474 0.021690302713211335 0.07115590785269896
-0.056015647220090156 0.029374615229663562 0.07113751471911317
-0.06030480477520885 0.037058927746115806 0.0711191215855274
-0.06459396233032753 0.04474324026256805 0.07110072845194161
-0.06888311988544622 0.052427552779020274 0.07108233531835582
-0.030280701889378037 -0.01673125986904984 0.07124787352062788
-0.036580685262274294 -0.010718393952182437 0.06998236071646335
-0.042880668635170545 -0.004705528035315032 0.06871684791229883
-0.0491806520080668 0.0013073378815523684 0.06745133510813432
-0.05548063538096306 0.007320203798419776 0.0661858223039698
-0.06178061875385932 0.013333069715287183 0.06492030949980528
-0.06808060212675557 0.019345935632154577 0.06365479669564077
-0.07438058549965183 0.02535880154902199 0.062389283891476244
-0.08068056887254808 0.031371667465889395 0.06112377108731173
-0.08698055224544435 0.0373845333827568 0.059858258283147205
-0.030280701889378037 -0.01673125986904984 0.07124787352062788
-0.037908810127284545 -0.013041427873087503 0.06887237899467022
-0.045536918365191054 -0.009351595877125165 0.06649688446871256
-0.053165026603097555 -0.0056617638811628295 0.0641213899427549
-0.06079313484100407 -0.0019719318852004903 0.061745895416797245
-0.06842124307891058 0.0017179001107618494 0.059370400890839586
-0.07604935131681707 0.005407732106724181 0.05699490636488193
-0.08367745955472358 0.009097564102686521 0.05461941183892427
-0.0913055677926301 0.01278739609864886 0.05224391731296661
-0.09893367603053661 0.016477228094611194 0.049868422787008954
-0.030280701889378037 -0.01673125986904984 0.07124787352062788
-0.038410311102423024 -0.015764312344397555 0.06801981896435993
-0.04653992031546801 -0.014797364819745269 0.06479176440809199
-0.054669529528513 -0.013830417295092982 0.06156370985182406
-0.06279913874155799 -0.012863469770440696 0.05833565529555612
-0.07092874795460298 -0.011896522245788414 0.05510760073928818
-0.07905835716764796 -0.010929574721136124 0.05187954618302024
-0.08718796638069296 -0.009962627196483834 0.04865149162675231
-0.09531757559373795 -0.008995679671831552 0.045423437070484365
-0.10344718480678294 -0.008028732147179269 0.04219538251421643
-0.030280701889378037 -0.01673125986904984 0.07124787352062788
-0.038030842775444086 -0.018591980583740415 0.06751706873364852
-0.045780983661510136 -0.020452701298430992 0.06378626394666916
-0.05353112454757618 -0.022313422013121566 0.0600554591596898
-0.061281265433642235 -0.024174142727812143 0.05632465437271044
-0.06903140631970828 -0.026034863442502717 0.05259384958573108
-0.07678154720577432 -0.027895584157193294 0.048863044798751726
-0.08453168809184038 -0.029756304871883875 0.045132240011772365
-0.09228182897790643 -0.03161702558657444 0.04140143522479301
-0.10003196986397248 -0.03347774630126502 0.03767063043781365
-0.030280701889378037 -0.01673125986904984 0.07124787352062788
-0.036811526427633655 -0.02121801086158987 0.06741860909100714
-0.043342350965889266 -0.025704761854129905 0.0635893446613864
-0.049873175504144884 -0.030191512846669936 0.05976008023176565
-0.0564040000424005 -0.034678263839209966 0.05593081580214491
-0.06293482458065612 -0.03916501483175 0.05210155137252416
-0.06946564911891173 -0.043651765824290034 0.04827228694290342
-0.07599647365716736 -0.04813851681683007 0.04444302251328268
-0.08252729819542297 -0.052625267809370095 0.04061375808366194
-0.0890581227336786 -0.057112018801910136 0.03678449365404119
-0.030280701889378037 -0.01673125986904984 0.07124787352062788
-0.03488449390491948 -0.023357832050282863 0.06773510966647474
-0.039488285920460935 -0.029984404231515882 0.06422234581232161
-0.04409207793600239 -0.03661097641274891 0.06070958195816848
-0.04869586995154383 -0.04323754859398193 0.05719681810401535
-0.053299661967085285 -0.04986412077521495 0.053684054249862216
-0.05790345398262673 -0.05649069295644797 0.050171290395709084
-0.06250724599816818 -0.063117265137681 0.04665852654155596
-0.06711103801370963 -0.06974383731891401 0.043145762687402826
-0.07171483002925108 -0.07637040950014704 0.03963299883324969
-0.030280701889378037 -0.01673125986904984 0.07124787352062788
-0.032458569082128054 -0.024779561321277756 0.068432272711687
-0.03463643627487808 -0.032827862773505675 0.06561667190274614
-0.036814303467628096 -0.04087616422573359 0.06280107109380527
-0.03899217066037812 -0.04892446567796151 0.0599854702848644
-0.04117003785312814 -0.05697276713018943 0.057169869475923535
-0.04334790504587816 -0.06502106858241735 0.05435426866698267
-0.04552577223862818 -0.07306937003464527 0.0515386678580418
-0.047703639431378196 -0.08111767148687318 0.048723067049100934
-0.04988150662412822 -0.0891659729391011 0.045907466240160066
-0.030280701889378037 -0.01673125986904984 0.07124787352062788
-0.02979663855591085 -0.02532913224765966 0.06943454979309595
-0.02931257522244366 -0.03392700462626948 0.06762122606556402
-0.028828511888976473 -0.042524877004879294 0.0658079023380321
-0.028344448555509286 -0.05112274938348912 0.06399457861050017
-0.027860385222042105 -0.059720621762098934 0.06218125488296825
-0.02737632188857491 -0.06831849414070876 0.06036793115543632
-0.02689225855510773 -0.07691636651931857 0.0585546074279044
-0.026408195221640538 -0.0855142388979284 0.05674128370037248
-0.025924131888173357 -0.09411211127653822 0.05492795997284055
-0.030280701889378037 -0.01673125986904984 0.07124787352062788
-0.027187163802891313 -0.024946990292083554 0.07063332863699963
-0.02409362571640459 -0.033162720715117264 0.07001878375337138
-0.021000087629917865 -0.04137845113815098 0.06940423886974313
-0.017906549543431145 -0.04959418156118469 0.06878969398611488
-0.014813011456944416 -0.05780991198421841 0.06817514910248663
-0.011719473370457693 -0.06602564240725212 0.06756060421885839
-0.00862593528397097 -0.07424137283028584 0.06694605933523014
-0.005532397197484253 -0.08245710325331955 0.06633151445160189
-0.0024388591109975218 -0.09067283367635327 0.06571696956797364
-0.030280701889378037 -0.01673125986904984 0.07124787352062788
-0.02491292190273176 -0.02367454646497949 0.07189870295469078
-0.01954514191608548 -0.030617833060909143 0.0725495323887537
-0.014177361929439206 -0.03756111965683879 0.07320036182281661
-0.008809581942792927 -0.04450440625276844 0.07385119125687951
-0.0034418019561466492 -0.051447692848698094 0.07450202069094243
0.0019259780304996257 -0.05839097944462774 0.07515285012500535
0.007293758017145914 -0.0653342660405574 0.07580367955906825
0.012661538003792182 -0.07227755263648705 0.07645450899313116
0.01802931799043847 -0.0792208392324167 0.07710533842719408
-0.030280701889378037 -0.01673125986904984 0.07124787352062788
-0.023220362253813458 -0.02164968979901447 0.07309354980454205
-0.016160022618248875 -0.0265681197289791 0.07493922608845624
-0.009099682982684293 -0.03148654965894373 0.07678490237237043
-0.0020393433471197174 -0.03640497958890836 0.0786305786562846
0.005020996288444865 -0.041323409518872985 0.08047625494019879
0.012081335924009451 -0.04624183944883762 0.08232193122411298
0.019141675559574023 -0.05116026937880225 0.08416760750802715
0.026202015195138602 -0.056078699308766876 0.08601328379194134
0.033262354830703195 -0.0609971292387315 0.08785896007585552
-0.030280701889378037 -0.01673125986904984 0.07124787352062788
-0.022292899956865602 -0.019091844932834175 0.07408838899041294
-0.014305098024353171 -0.02145242999661851 0.07692890446019801
-0.006317296091840736 -0.023813015060402832 0.07976941992998308
0.0016705058406716949 -0.026173600124187173 0.08260993539976814
0.009658307773184126 -0.0285341851879715 0.08545045086955322
0.017646109705696564 -0.030894770251755826 0.08829096633933829
0.025633911638208995 -0.033255355315540164 0.09113148180912335
0.033621713570721426 -0.03561594037932451 0.09397199727890843
0.04160951550323386 -0.037976525443108824 0.0968125127486935
-0.030280701889378037 -0.01673125986904984 0.07124787352062788
-0.0222310399428228 -0.016278194046741638 0.07477541424999389
-0.014181377996267563 -0.015825128224433438 0.07830295497935989
-0.006131716049712327 -0.015372062402125236 0.0818304957087259
0.00191794589684291 -0.014918996579817035 0.08535803643809191
0.009967607843398146 -0.014465930757508832 0.08888557716745792
0.018017269789953383 -0.014012864935200632 0.09241311789682394
0.02606693173650862 -0.013559799112892436 0.09594065862618995
0.034116593683063856 -0.01310673329058423 0.09946819935555595
0.04216625562961909 -0.012653667468276033 0.10299574008492196
-0.030280701889378037 -0.01673125986904984 0.07124787352062788
-0.023041485704063596 -0.01351363987253676 0.07508017573611402
-0.01580226951874916 -0.010296019876023682 0.07891247795160015
-0.008563053333434722 -0.007078399879510605 0.0827447801670863
-0.001323837148120281 -0.0038607798829975253 0.08657708238257243
0.005915379037194163 -0.0006431598864844452 0.09040938459805857
0.013154595222508593 0.0025744601100286296 0.09424168681354471
0.020393811407823037 0.005792080106541715 0.09807398902903086
0.027633027593137474 0.00900970010305479 0.101906291244517
0.03487224377845191 0.012227320099567871 0.10573859346000314
-0.030280701889378037 -0.01673125986904984 0.07124787352062788
-0.024636412866995888 -0.01109776475147243 0.07496964781289053
-0.018992123844613736 -0.0054642696338950214 0.07869142210515319
-0.013347834822231591 0.00016922548368238826 0.08241319639741583
-0.007703545799849439 0.005802720601259797 0.08613497068967849
-0.002059256777467291 0.011436215718837212 0.08985674498194114
0.003585032244914854 0.017069710836414616 0.0935785192742038
0.009229321267297003 0.022703205953992025 0.09730029356646645
0.014873610289679158 0.028336701071569433 0.10102206785872911
0.020517899312061313 0.03397019618914685 0.10474384215099176
