# .PCD v0.7 - Point Cloud Data file format
VERSION 0.7
FIELDS x y z
SIZE 4 4 4
TYPE F F F
COUNT 1 1 1
WIDTH 700
HEIGHT 1
VIEWPOINT 0 0 0 1 0 0 0
POINTS 700
DATA ascii
0.17067406742862165 0.01670294084763316 -0.018796697905852967
0.16739249208148252 0.04082808767618772 -0.008646515437415406
0.15970679575983918 0.06520136071497167 -0.002112658702743995
0.1479763530816538 0.08868309280563881 0.0004993564191081954
0.13274966650910763 0.11017530425370028 -0.0009326049959103474
0.11473871898308632 0.12867304313872216 -0.0063415860235441525
0.09478568239217622 0.14331137574920094 -0.015474668722591695
0.07382353855116089 0.15340582992160878 -0.02790480029673786
0.052832454008296656 0.15848440019802393 -0.04305076160867458
0.03279394854689302 0.15830961827674667 -0.060204344340982645
0.014645000411126048 0.15288965676615976 -0.07856346602993719
-0.0007657657552829208 0.14247794704264372 -0.09726967455006093
-0.012717759654229027 0.12756132908108583 -0.11544828838141043
-0.020652119334684624 0.10883728735873854 -0.13224929574530986
-0.02419784295639904 0.08718133725626111 -0.14688710021040183
-0.023189136423609702 0.06360608693158545 -0.15867725430864985
-0.017673165732693022 0.03921388888788467 -0.16706846353823487
-0.007907851542595157 0.015145295195701224 -0.17166836428174082
0.00565019090852209 -0.007474273454238937 -0.17226187029282375
0.022367002624326345 -0.027587151171709522 -0.16882122989004
0.04146092406838843 -0.0442528821484997 -0.16150732359462663
0.06203914469535346 -0.056692195326764346 -0.15066214153613414
0.0831394497797541 -0.06432344224759141 -0.13679279237406347
0.10377521250714848 -0.06678979428648478 -0.12054779146055863
0.12298152754740665 -0.06397592756325922 -0.1026867369833134
0.13986032895553213 -0.05601341535850452 -0.08404479199854747
0.15362238273712134 -0.04327457589321832 -0.06549363313471479
0.16362419055277136 -0.026355063142594278 -0.047900691962156024
0.16939807898523343 -0.0060460147181637 -0.03208859485695017
0.17067406742862165 0.016702940847633133 -0.01879669790585298
0.1544063776990009 0.006450809454595107 0.0003113847511969998
0.15112480235186174 0.030575956283149668 0.01046156721963456
0.14343910603021842 0.054949229321933614 0.01699542395430597
0.13170866335203302 0.07843096141260077 0.01960743907615816
0.11648197677948686 0.09992317286066224 0.018175477661139618
0.09847102925346556 0.11842091174568412 0.012766496633505814
0.07851799266255545 0.13305924435616287 0.003633413934458271
0.057555848821540134 0.1431536985285707 -0.008796717639687894
0.036564764278675894 0.14823226880498586 -0.023942678951624614
0.016526258817272262 0.14805748688370862 -0.041096261683932676
-0.0016226893184947085 0.14263752537312172 -0.05945538337288722
-0.01703345548490368 0.13222581564960564 -0.07816159189301096
-0.028985449383849785 0.11730919768804779 -0.09634020572436046
-0.03691980906430538 0.0985851559657005 -0.11314121308825989
-0.040465532686019795 0.07692920586322305 -0.12777901755335186
-0.039456826153230456 0.053353955538547396 -0.13956917165159988
-0.033940855462313776 0.028961757494846616 -0.1479603808811849
-0.024175541272215915 0.004893163802663168 -0.15256028162469085
-0.010617498821098666 -0.017726404847276993 -0.15315378763577378
0.006099312894705587 -0.03783928256474758 -0.14971314723299003
0.025193234338767672 -0.05450501354153776 -0.14239924093757667
0.045771454965732705 -0.0669443267198024 -0.13155405887908417
0.06687176005013333 -0.07457557364062946 -0.1176847097170135
0.08750752277752773 -0.07704192567952282 -0.10143970880350867
0.1067138378177859 -0.07422805895629726 -0.08357865432626344
0.12359263922591136 -0.06626554675154257 -0.0649367093414975
0.13735469300750058 -0.05352670728625638 -0.04638555047766483
0.14735650082315058 -0.03660719453563233 -0.028792609305106055
0.15313038925561265 -0.016298146111201756 -0.012980512199900198
0.1544063776990009 0.0064508094545950795 0.0003113847511969859
0.13813868796938014 -0.0038013219384429426 0.019419467408246956
0.134857112622241 0.02032382489011162 0.029569649876684517
0.12717141630059767 0.04469709792889556 0.03610350661135593
0.11544097362241228 0.06817883001956271 0.03871552173320812
0.10021428704986612 0.08967104146762418 0.03728356031818958
0.08220333952384482 0.10816878035264606 0.031874579290555774
0.06225030293293471 0.12280711296312483 0.022741496591508228
0.04128815909191939 0.13290156713553267 0.010311365017362063
0.020297074549055147 0.1379801374119478 -0.004834596294574656
0.0002585690876515148 0.13780535549067058 -0.02198817902688272
-0.017890379048115457 0.13238539398008367 -0.04034730071583726
-0.03330114521452442 0.1219736842565676 -0.059053509235961
-0.04525313911347053 0.10705706629500973 -0.0772321230673105
-0.053187498793926126 0.08833302457266244 -0.09403313043120994
-0.05673322241564054 0.066677074470185 -0.1086709348963019
-0.055724515882851204 0.043101824145509345 -0.12046108899454991
-0.050208545191934524 0.01870962610180857 -0.12885229822413496
-0.04044323100183666 -0.005358967590374881 -0.13345219896764088
-0.026885188550719415 -0.02797853624031504 -0.13404570497872384
-0.010168376834915161 -0.04809141395778563 -0.1306050645759401
0.008925544609146924 -0.06475714493457581 -0.12329115828052671
0.029503765236111954 -0.07719645811284045 -0.1124459762220342
0.05060407032051259 -0.08482770503366752 -0.09857662705996355
0.07123983304790699 -0.08729405707256088 -0.08233162614645871
0.09044614808816515 -0.08448019034933532 -0.06447057166921348
0.10732494949629061 -0.07651767814458063 -0.045828626684447545
0.12108700327787983 -0.06377883867929443 -0.02727746782061487
0.13108881109352985 -0.046859325928670384 -0.009684526648056097
0.13686269952599192 -0.026550277504239803 0.006127570457149758
0.13813868796938014 -0.0038013219384429703 0.019419467408246942
0.1218709982397594 -0.014053453331480989 0.03852755006529691
0.11858942289262026 0.010071693497073573 0.04867773253373447
0.11090372657097693 0.03444496653585751 0.05521158926840588
0.09917328389279154 0.057926698626524664 0.05782360439025807
0.08394659732024537 0.07941891007458614 0.05639164297523953
0.06593564979422406 0.09791664895960801 0.05098266194760572
0.04598261320331396 0.11255498157008678 0.04184957924855818
0.025020469362298643 0.12264943574249462 0.029419447674412014
0.004029384819434403 0.12772800601890977 0.014273486362475296
-0.01600912064196923 0.1275532240976325 -0.0028800963698327664
-0.0341580687777362 0.12213326258704561 -0.021239218058787313
-0.04956883494414517 0.11172155286352956 -0.03994542657891105
-0.06152082884309128 0.09680493490197169 -0.058124040410260557
-0.06945518852354687 0.0780808931796244 -0.07492504777415998
-0.07300091214526129 0.056424943077146954 -0.08956285223925195
-0.07199220561247195 0.0328496927524713 -0.10135300633749995
-0.06647623492155527 0.008457494708770521 -0.109744215567085
-0.056710920731457407 -0.015611098983412928 -0.11434411631059092
-0.04315287828034016 -0.03823066763335309 -0.11493762232167387
-0.026436066564535905 -0.05834354535082367 -0.11149698191889013
-0.00734214512047382 -0.07500927632761385 -0.10418307562347676
0.01323607550649121 -0.0874485895058785 -0.09333789356498425
0.03433638059089184 -0.09507983642670556 -0.0794685444029136
0.05497214331828623 -0.09754618846559893 -0.06322354348940876
0.0741784583585444 -0.09473232174237337 -0.04536248901216353
0.09105725976666987 -0.08676980953761868 -0.026720544027397597
0.10481931354825909 -0.07403097007233247 -0.008169385163564918
0.1148211213639091 -0.05711145732170843 0.009423556008993856
0.12059500979637117 -0.03680240889727785 0.02523565311419971
0.1218709982397594 -0.014053453331481017 0.038527550065296894
0.10560330851013865 -0.024305584724519044 0.05763563272234687
0.1023217331629995 -0.0001804378959644812 0.06778581519078443
0.09463603684135617 0.02419283514281946 0.07431967192545584
0.08290559416317078 0.04767456723348661 0.07693168704730803
0.06767890759062462 0.06916677868154808 0.07549972563228949
0.04966796006460331 0.08766451756656995 0.07009074460465568
0.029714923473693207 0.10230285017704872 0.06095766190560814
0.008752779632677888 0.11239730434945656 0.048527530331461975
-0.012238304910186352 0.11747587462587171 0.033381569019525256
-0.032276810371589984 0.11730109270459446 0.016227986287217198
-0.050425758507356956 0.11188113119400755 -0.0021311354017373475
-0.06583652467376593 0.1014694214704915 -0.020837343921861085
-0.07778851857271203 0.08655280350893363 -0.039015957753210595
-0.08572287825316763 0.06782876178658634 -0.055816965117110026
-0.08926860187488204 0.0461728116841089 -0.070454769582202
-0.0882598953420927 0.022597561359433246 -0.08224492368045
-0.08274392465117603 -0.0017946366842675333 -0.09063613291003504
-0.07297861046107816 -0.025863230376450982 -0.09523603365354097
-0.059420568009960914 -0.04848279902639114 -0.09582953966462392
-0.04270375629415666 -0.06859567674386173 -0.09238889926184017
-0.023609834850094574 -0.08526140772065191 -0.0850749929664268
-0.0030316142231295454 -0.09770072089891656 -0.07422981090793429
0.018068690861271088 -0.10533196781974362 -0.06036046174586363
0.03870445358866548 -0.10779831985863698 -0.0441154608323588
0.05791076862892365 -0.10498445313541142 -0.026254406355113568
0.07478957003704911 -0.09702194093065673 -0.007612461370347632
0.08855162381863833 -0.08428310146537053 0.010938697493485045
0.09855343163428834 -0.06736358871474649 0.02853163866604382
0.10432732006675041 -0.0470545402903159 0.04434373577124967
0.10560330851013865 -0.02430558472451907 0.057635632722346855
0.08933561878051789 -0.0345577161175571 0.07674371537939684
0.08605404343337875 -0.010432569289002533 0.0868938978478344
0.07836834711173542 0.01394070374978141 0.09342775458250581
0.06663790443355003 0.037422435840448555 0.096039769704358
0.05141121786100387 0.05891464728851003 0.09460780828933946
0.03340027033498256 0.07741238617353191 0.08919882726170565
0.013447233744072452 0.09205071878401068 0.08006574456265811
-0.007514910096942866 0.10214517295641852 0.06763561298851194
-0.028505994639807106 0.10722374323283367 0.052489651676575225
-0.04854450010121074 0.10704896131155642 0.03533606894426716
-0.0666934482369777 0.10162899980096951 0.016976947255312614
-0.08210421440338668 0.09121729007745345 -0.0017292612648111237
-0.09405620830233279 0.07630067211589558 -0.01990787509616063
-0.10199056798278838 0.05757663039354829 -0.03670888246006006
-0.1055362916045028 0.035920680291070844 -0.05134668692515203
-0.10452758507171346 0.012345429966395195 -0.06313684102340003
-0.09901161438079678 -0.012046768077305585 -0.07152805025298507
-0.08924630019069892 -0.036115361769489034 -0.076127950996491
-0.07568825773958167 -0.0587349304194292 -0.07672145700757395
-0.058971446023777414 -0.07884780813689977 -0.0732808166047902
-0.03987752457971533 -0.09551353911368995 -0.06596691030937683
-0.0192993039527503 -0.1079528522919546 -0.05512172825088432
0.0018010011316503339 -0.11558409921278166 -0.041252379088813663
0.022436763859044726 -0.11805045125167503 -0.025007378175308837
0.041643078899302896 -0.11523658452844947 -0.0071463236980636065
0.05852188030742836 -0.10727407232369478 0.01149562128670233
0.07228393408901758 -0.09453523285840858 0.030046780150535007
0.08228574190466759 -0.07761572010778453 0.047639721323093784
0.08805963033712966 -0.05730667168335396 0.06345181842829964
0.08933561878051789 -0.034557716117557126 0.07674371537939682
0.07306792905089715 -0.04480984751059514 0.09585179803644678
0.069786353703758 -0.02068470068204058 0.10600198050488434
0.06210065738211468 0.003688572356743363 0.11253583723955575
0.050370214703929286 0.02717030444741051 0.11514785236140794
0.03514352813138313 0.048662515895471985 0.1137158909463894
0.017132580605361818 0.06716025478049387 0.10830690991875559
-0.002820455985548289 0.08179858739097264 0.09917382721970805
-0.023782599826563607 0.09189304156338048 0.08674369564556189
-0.04477368436942785 0.09697161183979562 0.07159773433362517
-0.06481218983083148 0.09679682991851837 0.05444415160131711
-0.08296113796659846 0.09137686840793147 0.036085029912362565
-0.09837190413300742 0.08096515868441541 0.017378821392238827
-0.11032389803195353 0.06604854072285754 -0.0007997924391106806
-0.11825825771240912 0.047324499000510244 -0.01760079980301011
-0.12180398133412354 0.0256685488980328 -0.03223860426810208
-0.1207952748013342 0.002093298573357148 -0.04402875836635008
-0.11527930411041752 -0.022298899470343633 -0.052419967595935126
-0.10551398992031966 -0.04636749316252708 -0.05701986833944105
-0.09195594746920241 -0.06898706181246723 -0.057613374350524
-0.07523913575339816 -0.08909993952993782 -0.054172733947740255
-0.05614521430933607 -0.105765670506728 -0.046858827652326886
-0.03556699368237104 -0.11820498368499265 -0.036013645593834374
-0.01446668859797041 -0.12583623060581972 -0.022144296431763716
0.006169074129423985 -0.1283025826447131 -0.005899295518258888
0.025375389169682155 -0.12548871592148753 0.011961758958986343
0.04225419057780762 -0.11752620371673282 0.03060370394375228
0.05601624435939684 -0.10478736425144662 0.04915486280758496
0.06601805217504685 -0.08786785150082257 0.06674780398014372
0.07179194060750892 -0.067558803076392 0.08255990108534958
0.07306792905089715 -0.04480984751059517 0.09585179803644676
0.05680023932127639 -0.055061978903633194 0.11495988069349675
0.053518663974137244 -0.030936832075078635 0.12511006316193432
0.045832967652493915 -0.006563559036294692 0.13164391989660573
0.034102524974308525 0.016918173054372456 0.13425593501845792
0.01887583840176237 0.038410384502433934 0.13282397360343937
0.0008648908757410595 0.05690812338745581 0.12741499257580557
-0.019088145715169046 0.07154645599793458 0.11828190987675802
-0.040050289556184365 0.08164091017034242 0.10585177830261186
-0.061041374099048605 0.08671948044675756 0.09070581699067513
-0.08107987956045223 0.08654469852548032 0.07355223425836707
-0.09922882769621921 0.08112473701489341 0.05519311256941253
-0.11463959386262818 0.07071302729137735 0.03648690404928879
-0.12659158776157428 0.05579640932981948 0.018308290217939286
-0.1345259474420299 0.03707236760747219 0.0015072828540398547
-0.1380716710637443 0.015416417504994747 -0.013130521611052114
-0.13706296453095496 -0.008158832819680906 -0.02492067570930012
-0.1315469938400383 -0.03255103086338169 -0.033311884938885164
-0.12178167964994041 -0.056619624555565136 -0.03791178568239109
-0.10822363719882316 -0.07923919320550529 -0.03850529169347404
-0.09150682548301892 -0.09935207092297588 -0.035064651290690294
-0.07241290403895682 -0.11601780189976606 -0.02775074499527692
-0.0518346834119918 -0.1284571150780307 -0.01690556293678441
-0.030734378327591166 -0.13608836199885777 -0.003036213774713751
-0.010098615600196773 -0.13855471403775113 0.013208787138791079
0.009107699440061397 -0.13574084731452557 0.03106984161603631
0.02598650084818686 -0.12777833510977088 0.04971178660080224
0.03974855462977608 -0.11503949564448468 0.06826294546463492
0.049750362445426084 -0.09811998289386063 0.08585588663719369
0.055524250877888155 -0.07781093446943006 0.10166798374239955
0.05680023932127639 -0.05506197890363322 0.11495988069349673
0.04053254959165564 -0.06531411029667125 0.13406796335054671
0.037250974244516497 -0.041188963468116686 0.14421814581898426
0.02956527792287317 -0.01681569042933274 0.15075200255365567
0.01783483524468778 0.0066660416613344075 0.15336401767550786
0.00260814867214162 0.028158253109395882 0.15193205626048933
-0.01540279885387969 0.04665599199441776 0.14652307523285552
-0.0353558354447898 0.061294324604896526 0.137389992533808
-0.05631797928580511 0.07138877877730436 0.12495986095966181
-0.07730906382866935 0.0764673490537195 0.10981389964772509
-0.09734756929007299 0.07629256713244226 0.09266031691541703
-0.11549651742583995 0.07087260562185535 0.07430119522646249
-0.13090728359224893 0.0604608958983393 0.05559498670633875
-0.14285927749119504 0.04554427793678143 0.037416372874989244
-0.15079363717165062 0.02682023621443414 0.020615365511089813
-0.15433936079336505 0.005164286111956697 0.005977561045997842
-0.1533306542605757 -0.018410964212718955 -0.005812593052250162
-0.14781468356965902 -0.04280316225641974 -0.014203802281835204
-0.13804936937956117 -0.06687175594860319 -0.01880370302534113
-0.12449132692844392 -0.08949132459854335 -0.019397209036424078
-0.10777451521263966 -0.10960420231601394 -0.015956568633640332
-0.08868059376857758 -0.12626993329280412 -0.008642662338226964
-0.06810237314161255 -0.13870924647106875 0.0022025197202655473
-0.04700206805721192 -0.1463404933918958 0.016071868882336207
-0.02636630532981752 -0.14880684543078918 0.03231686979584104
-0.007159990289559351 -0.14599297870756361 0.05017792427308627
0.00971881111856611 -0.13803046650280892 0.0688198692578522
0.023480864900155333 -0.12529162703752272 0.08737102812168487
0.03348267271580534 -0.10837211428689869 0.10496396929424365
0.03925656114826741 -0.0880630658624681 0.1207760663994495
0.04053254959165564 -0.06531411029667128 0.1340679633505467
0.024264859862034888 -0.0755662416897093 0.15317604600759668
0.020983284514895742 -0.05144109486115474 0.16332622847603423
0.013297588193252413 -0.027067821822370795 0.16986008521070564
0.0015671455150670223 -0.003586089731703647 0.17247210033255783
-0.013659541057479137 0.017906121716357828 0.1710401389175393
-0.031670488583500446 0.0364038606013797 0.16563115788990548
-0.05162352517441055 0.05104219321185847 0.15649807519085795
-0.07258566901542587 0.06113664738426631 0.14406794361671177
-0.09357675355829011 0.06621521766068146 0.12892198230477506
-0.11361525901969374 0.06604043573940421 0.111768399572467
-0.13176420715546072 0.0606204742288173 0.09340927788351246
-0.14717497332186968 0.05020876450530124 0.07470306936338872
-0.1591269672208158 0.03529214654374337 0.05652445553203921
-0.1670613269012714 0.016568104821396087 0.03972344816813978
-0.1706070505229858 -0.0050878452810813575 0.02508564370304781
-0.16959834399019647 -0.02866309560575701 0.013295489604799805
-0.1640823732992798 -0.05305529364945779 0.0049042803752147625
-0.15431705910918192 -0.07712388734164125 0.00030437963170883506
-0.14075901665806467 -0.0997434559915814 -0.0002891263793741126
-0.12404220494226043 -0.11985633370905198 0.003151514023409633
-0.10494828349819833 -0.13652206468584216 0.010465420318823002
-0.0843700628712333 -0.14896137786410682 0.021310602377315514
-0.06326975778683268 -0.15659262478493388 0.035179951539386176
-0.04263399505943828 -0.15905897682382725 0.051424952452891005
-0.023427680019180108 -0.1562451101006017 0.06928600693013623
-0.006548878611054645 -0.148282597895847 0.08792795191490217
0.007213175170534575 -0.1355437584305608 0.10647911077873484
0.017214982986184582 -0.11862424567993674 0.12407205195129362
0.022988871418646653 -0.09831519725550616 0.13988414905649948
0.024264859862034888 -0.07556624168970932 0.15317604600759666
0.07320460378329338 0.046134591268671234 -0.08598637195672482
0.08403454418832985 0.04286440788855589 -0.07852085261773906
0.09486448459336633 0.03959422450844055 -0.0710553332787533
0.1056944249984028 0.03632404112832521 -0.06358981393976754
0.11652436540343929 0.03305385774820987 -0.05612429460078178
0.12735430580847576 0.029783674368094527 -0.048658775261796024
0.13818424621351222 0.02651349098797919 -0.041193255922810264
0.1490141866185487 0.023243307607863847 -0.033727736583824504
0.1598441270235852 0.019973124227748502 -0.026262217244838734
0.17067406742862165 0.01670294084763316 -0.018796697905852967
0.07320460378329338 0.046134591268671234 -0.08598637195672482
0.08327945291267273 0.046974951778134356 -0.07695825494644114
0.09335430204205208 0.047815312287597486 -0.06793013793615746
0.10342915117143142 0.048655672797060616 -0.05890202092587377
0.11350400030081077 0.049496033306523746 -0.049873903915590094
0.12357884943019012 0.05033639381598687 -0.0408457869053064
0.13365369855956946 0.05117675432545 -0.03181766989502273
0.14372854768894883 0.05201711483491312 -0.022789552884739026
0.15380339681832816 0.05285747534437626 -0.013761435874455361
0.16387824594770753 0.05369783585383938 -0.0047333188641716685
0.07320460378329338 0.046134591268671234 -0.08598637195672482
0.08143259540645614 0.05099442956697568 -0.07637399383887639
0.0896605870296189 0.05585426786528014 -0.06676161572102796
0.09788857865278165 0.06071410616358459 -0.05714923760317954
0.10611657027594441 0.06557394446188904 -0.0475368594853311
0.11434456189910719 0.07043378276019349 -0.03792448136748267
0.12257255352226992 0.07529362105849795 -0.028312103249634252
0.13080054514543268 0.08015345935680239 -0.018699725131785822
0.13902853676859545 0.08501329765510685 -0.009087347013937378
0.14725652839175823 0.0898731359534113 0.0005250311039110381
0.07320460378329338 0.046134591268671234 -0.08598637195672482
0.07869410733742549 0.05448726846803495 -0.07683138305179463
0.0841836108915576 0.06283994566739866 -0.06767639414686442
0.08967311444568972 0.07119262286676238 -0.058521405241934235
0.09516261799982183 0.07954530006612609 -0.04936641633700404
0.10065212155395394 0.08789797726548981 -0.04021142743207384
0.10614162510808604 0.09625065446485354 -0.03105643852714365
0.11163112866221817 0.10460333166421726 -0.021901449622213454
0.11712063221635027 0.11295600886358095 -0.012746460717283251
0.12261013577048238 0.12130868606294468 -0.003591471812353062
0.07320460378329338 0.046134591268671234 -0.08598637195672482
0.07536074637988074 0.05707496518940273 -0.07828085736685127
0.0775168889764681 0.06801533911013422 -0.07057534277697772
0.07967303157305548 0.07895571303086571 -0.06286982818710417
0.08182917416964285 0.0898960869515972 -0.05516431359723061
0.08398531676623021 0.10083646087232871 -0.04745879900735706
0.08614145936281757 0.11177683479306019 -0.03975328441748351
0.08829760195940493 0.12271720871379169 -0.03204776982760996
0.09045374455599231 0.13365758263452318 -0.024342255237736397
0.09260988715257967 0.14459795655525468 -0.016636740647862847
0.07320460378329338 0.046134591268671234 -0.08598637195672482
0.07179373391599629 0.058477102639067156 -0.08056534375109861
0.07038286404869919 0.07081961400946309 -0.0751443155454724
0.0689719941814021 0.08316212537985901 -0.0697232873398462
0.06756112431410499 0.09550463675025493 -0.06430225913422
0.0661502544468079 0.10784714812065085 -0.058881230928593785
0.0647393845795108 0.12018965949104678 -0.05346020272296759
0.06332851471221371 0.1325321708614427 -0.048039174517341375
0.06191764484491661 0.14487468223183864 -0.04261814631171517
0.06050677497761951 0.15721719360223455 -0.037197118106088965
0.07320460378329338 0.046134591268671234 -0.08598637195672482
0.06837961109413505 0.05854173746795292 -0.08343728265734493
0.06355461840497673 0.07094888366723462 -0.08088819335796504
0.058729625715818405 0.0833560298665163 -0.07833910405858516
0.05390463302666008 0.09576317606579801 -0.07579001475920527
0.049079640337501756 0.10817032226507971 -0.07324092545982537
0.04425464764834343 0.12057746846436138 -0.0706918361604455
0.0394296549591851 0.13298461466364309 -0.06814274686106561
0.03460466227002677 0.1453917608629248 -0.06559365756168571
0.029779669580868452 0.15779890706220648 -0.06304456826230583
0.07320460378329338 0.046134591268671234 -0.08598637195672482
0.06548835109761957 0.057261865489437555 -0.08658545494237485
0.057772098411945756 0.06838913971020388 -0.08718453792802487
0.05005584572627194 0.0795164139309702 -0.0877836209136749
0.042339593040598124 0.09064368815173654 -0.08838270389932493
0.03462334035492431 0.10177096237250285 -0.08898178688497496
0.02690708766925049 0.11289823659326917 -0.089580869870625
0.019190834983576682 0.1240255108140355 -0.09017995285627502
0.011474582297902866 0.13515278503480185 -0.09077903584192504
0.0037583296122290504 0.14628005925556817 -0.09137811882757507
0.07320460378329338 0.046134591268671234 -0.08598637195672482
0.06343326680959346 0.054776180691653104 -0.08966870729017928
0.053661929835893546 0.06341777011463498 -0.09335104262363376
0.04389059286219363 0.07205935953761684 -0.09703337795708823
0.0341192558884937 0.08070094896059872 -0.1007157132905427
0.024347918914793786 0.0893425383835806 -0.10439804862399717
0.014576581941093875 0.09798412780656246 -0.10808038395745165
0.004805244967393943 0.10662571722954435 -0.11176271929090612
-0.004966092006305975 0.11526730665252621 -0.11544505462436058
-0.014737428980005893 0.12390889607550809 -0.11912738995781505
0.07320460378329338 0.046134591268671234 -0.08598637195672482
0.06243705850058263 0.0513540455918131 -0.09235292146728417
0.051669513217871874 0.056573499914954965 -0.09871947097784355
0.040901967935161126 0.06179295423809683 -0.1050860204884029
0.030134422652450366 0.06701240856123869 -0.11145256999896226
0.01936687736973961 0.07223186288438056 -0.11781911950952162
0.008599332087028871 0.07745131720752242 -0.12418566902008098
-0.002168213195681903 0.0826707715306643 -0.13055221853064033
-0.01293575847839265 0.08789022585380615 -0.1369187680411997
-0.02370330376110341 0.09310968017694803 -0.14328531755175908
0.07320460378329338 0.046134591268671234 -0.08598637195672482
0.06260768079863296 0.04736630162788234 -0.09434722121772592
0.052010757813972554 0.04859801198709346 -0.102708070478727
0.04141383482931215 0.04982972234630457 -0.11106891973972809
0.030816911844651726 0.05106143270551568 -0.11942976900072917
0.02021998885999131 0.052293143064726794 -0.12779061826173027
0.009623065875330919 0.0535248534239379 -0.13615146752273136
-0.0009738571093294981 0.05475656378314901 -0.14451231678373244
-0.01157078009398993 0.05598827414236013 -0.15287316604473353
-0.022167703078650333 0.057219984501571244 -0.1612340153057346
0.07320460378329338 0.046134591268671234 -0.08598637195672482
0.063926644130273 0.04324508273457567 -0.09543549321879514
0.05464868447725262 0.0403555742004801 -0.10488461448086546
0.04537072482423223 0.037466065666384545 -0.11433373574293577
0.036092765171211856 0.03457655713228898 -0.12378285700500609
0.026814805518191473 0.031687048598193414 -0.13323197826707642
0.017536845865171083 0.028797540064097852 -0.14268109952914673
0.008258886212150707 0.02590803153000229 -0.15213022079121705
-0.001019073440869669 0.023018522995906725 -0.16157934205328736
-0.01029703309389006 0.020129014461811166 -0.17102846331535768
0.07320460378329338 0.046134591268671234 -0.08598637195672482
0.06625101835269476 0.039436986926282704 -0.09549980631289608
0.05929743292209613 0.03273938258389418 -0.10501324066906732
0.052343847491497515 0.026041778241505654 -0.11452667502523857
0.04539026206089889 0.019344173899117124 -0.12404010938140982
0.038436676630300266 0.01264656955672861 -0.13355354373758108
0.03148309119970165 0.005948965214340078 -0.14306697809375232
0.024529505769103024 -0.0007486391280484447 -0.15258041244992357
0.017575920338504393 -0.007446243470436982 -0.16209384680609482
0.010622334907905776 -0.014143847812825497 -0.17160728116226606
0.07320460378329338 0.046134591268671234 -0.08598637195672482
0.06932892145251675 0.036354680472526574 -0.0945331911783624
0.06545323912174011 0.02657476967638191 -0.10308001039999996
0.06157755679096348 0.016794858880237254 -0.11162682962163753
0.05770187446018685 0.007014948084092591 -0.1201736488432751
0.053826192129410214 -0.0027649627120520754 -0.12872046806491266
0.04995050979863358 -0.01254487350819672 -0.13726728728655024
0.046074827467856946 -0.022324784304341396 -0.14581410650818782
0.04219914513708031 -0.032104695100486046 -0.15436092572982538
0.03832346280630368 -0.04188460589663071 -0.16290774495146296
0.07320460378329338 0.046134591268671234 -0.08598637195672482
0.07282681487028592 0.034332179104484155 -0.0926403955636
0.07244902595727845 0.02252976694029708 -0.09929441917047517
0.072071237044271 0.01072735477611001 -0.10594844277735034
0.07169344813126353 -0.0010750573880770704 -0.11260246638422552
0.07131565921825607 -0.012877469552264141 -0.1192564899911007
0.0709378703052486 -0.024679881716451215 -0.12591051359797586
0.07056008139224115 -0.03648229388063829 -0.13256453720485106
0.07018229247923369 -0.04828470604482537 -0.13921856081172623
0.06980450356622622 -0.06008711820901245 -0.1458725844186014
0.07320460378329338 0.046134591268671234 -0.08598637195672482
0.07636564757877842 0.033588652227725016 -0.09002653324321842
0.07952669137426345 0.021042713186778802 -0.09406669452971203
0.08268773516974849 0.008496774145832586 -0.09810685581620562
0.08584877896523353 -0.004049164895113626 -0.10214701710269923
0.08900982276071856 -0.016595103936059837 -0.10618717838919284
0.0921708665562036 -0.029141042977006062 -0.11022733967568643
0.09533191035168863 -0.04168698201795227 -0.11426750096218004
0.09849295414717367 -0.05423292105889848 -0.11830766224867365
0.10165399794265871 -0.06677886009984471 -0.12234782353516725
0.07320460378329338 0.046134591268671234 -0.08598637195672482
0.07956193214338196 0.034204672516354194 -0.08697485675788377
0.08591926050347055 0.022274753764037158 -0.08796334155904274
0.09227658886355915 0.010344835011720134 -0.0889518263602017
0.09863391722364773 -0.0015850837405969138 -0.08994031116136066
0.10499124558373632 -0.013515002492913946 -0.09092879596251961
0.1113485739438249 -0.025444921245230966 -0.09191728076367857
0.11770590230391348 -0.037374839997548 -0.09290576556483753
0.12406323066400207 -0.049304758749865056 -0.0938942503659965
0.13042055902409067 -0.06123467750218208 -0.09488273516715545
0.07320460378329338 0.046134591268671234 -0.08598637195672482
0.08206930153605675 0.0361134846135591 -0.08381606260642155
0.09093399928882014 0.026092377958446964 -0.08164575325611828
0.0997986970415835 0.01607127130333483 -0.07947544390581501
0.10866339479434689 0.006050164648222699 -0.07730513455551175
0.11752809254711025 -0.003970942006889434 -0.07513482520520848
0.12639279029987363 -0.013992048662001566 -0.07296451585490521
0.13525748805263701 -0.0240131553171137 -0.07079420650460193
0.1441221858054004 -0.03403426197222583 -0.06862389715429866
0.15298688355816376 -0.04405536862733798 -0.06645358780399539
0.07320460378329338 0.046134591268671234 -0.08598637195672482
0.08361604337726174 0.0391082391103362 -0.08089245514888399
0.09402748297123009 0.03208188695200117 -0.07579853834104316
0.10443892256519845 0.02505553479366614 -0.07070462153320234
0.1148503621591668 0.018029182635331112 -0.06561070472536151
0.12526180175313517 0.011002830476996078 -0.06051678791752067
0.1356732413471035 0.003976478318661052 -0.055422871109679854
0.14608468094107188 -0.0030498738396739734 -0.050328954301839014
0.15649612053504022 -0.010076225998009005 -0.045235037493998195
0.1669075601290086 -0.01710257815634404 -0.04014112068615737
0.07320460378329338 0.046134591268671234 -0.08598637195672482
0.08403454418832985 0.04286440788855589 -0.07852085261773906
0.09486448459336633 0.039594224508440544 -0.0710553332787533
0.1056944249984028 0.0363240411283252 -0.06358981393976755
0.11652436540343929 0.033053857748209854 -0.056124294600781784
0.12735430580847576 0.029783674368094513 -0.04865877526179603
0.13818424621351222 0.02651349098797917 -0.04119325592281027
0.1490141866185487 0.023243307607863826 -0.03372773658382451
0.1598441270235852 0.019973124227748478 -0.026262217244838747
0.17067406742862165 0.016702940847633133 -0.01879669790585298
-0.07320460378329338 -0.046134591268671234 0.08598637195672482
-0.06237466337825691 -0.04940477464878657 0.09345189129571058
-0.051544722973220436 -0.052674958028901916 0.10091741063469634
-0.04071478256818396 -0.055945141409017254 0.1083829299736821
-0.029884842163147483 -0.05921532478913259 0.11584844931266787
-0.019054901758111017 -0.06248550816924794 0.12331396865165362
-0.008224961353074545 -0.06575569154936327 0.13077948799063938
0.0026049790519619277 -0.06902587492947862 0.13824500732962514
0.013434919456998415 -0.07229605830959396 0.1457105266686109
0.024264859862034888 -0.0755662416897093 0.15317604600759668
-0.07320460378329338 -0.046134591268671234 0.08598637195672482
-0.06312975465391403 -0.045294230759208104 0.09501448896700851
-0.053054905524534686 -0.044453870249744974 0.10404260597729219
-0.04298005639515534 -0.04361350974028185 0.11307072298757587
-0.03290520726577599 -0.04277314923081872 0.12209883999785955
-0.02283035813639664 -0.04193278872135559 0.13112695700814325
-0.012755509007017302 -0.04109242821189247 0.14015507401842692
-0.0026806598776379508 -0.04025206770242934 0.1491831910287106
0.007394189251741401 -0.03941170719296621 0.15821130803899427
0.017469038381120752 -0.03857134668350309 0.16723942504927797
-0.07320460378329338 -0.046134591268671234 0.08598637195672482
-0.06497661216013062 -0.04127475297036678 0.09559875007457325
-0.056748620536967866 -0.03641491467206233 0.10521112819242168
-0.04852062891380511 -0.03155507637375787 0.11482350631027011
-0.04029263729064235 -0.02669523807545342 0.12443588442811854
-0.03206464566747958 -0.021835399777148972 0.13404826254596697
-0.02383665404431684 -0.016975561478844516 0.1436606406638154
-0.015608662421154072 -0.012115723180540069 0.15327301878166383
-0.007380670797991318 -0.0072558848822356125 0.16288539689951226
0.0008473208251714572 -0.0023960465839311636 0.1724977750173607
-0.07320460378329338 -0.046134591268671234 0.08598637195672482
-0.06771510022916127 -0.03778191406930752 0.09514136086165502
-0.06222559667502916 -0.0294292368699438 0.10429634976658521
-0.05673609312089705 -0.02107655967058008 0.11345133867151541
-0.05124658956676494 -0.012723882471216369 0.1226063275764456
-0.04575708601263283 -0.004371205271852645 0.1317613164813758
-0.04026758245850072 0.003981471927511071 0.14091630538630598
-0.034778078904368605 0.012334149126874793 0.1500712942912362
-0.029288575350236497 0.020686826326238496 0.15922628319616638
-0.02379907179610439 0.02903950352560222 0.16838127210109657
-0.07320460378329338 -0.046134591268671234 0.08598637195672482
-0.07104846118670602 -0.03519421734793974 0.09369188654659838
-0.06889231859011866 -0.02425384342720824 0.10139740113647193
-0.06673617599353128 -0.013313469506476749 0.10910291572634548
-0.06458003339694392 -0.002373095585745254 0.11680843031621903
-0.062423890800356555 0.008567278334986246 0.12451394490609258
-0.06026774820376919 0.019507652255717736 0.13221945949596614
-0.05811160560718182 0.03044802617644923 0.13992497408583968
-0.05595546301059446 0.04138840009718072 0.14763048867571324
-0.05379932041400709 0.052328774017912215 0.1553360032655868
-0.07320460378329338 -0.046134591268671234 0.08598637195672482
-0.07461547365059047 -0.033792079898275304 0.09140740016235102
-0.07602634351788758 -0.02144956852787938 0.09682842836797724
-0.07743721338518467 -0.009107057157483457 0.10224945657360344
-0.07884808325248177 0.0032354542129124668 0.10767048477922965
-0.08025895311977886 0.015577965583308396 0.11309151298485585
-0.08166982298707597 0.02792047695370432 0.11851254119048206
-0.08308069285437306 0.04026298832410024 0.12393356939610826
-0.08449156272167016 0.05260549969449616 0.12935459760173448
-0.08590243258896725 0.06494801106489209 0.1347756258073607
-0.07320460378329338 -0.046134591268671234 0.08598637195672482
-0.07802959647245171 -0.03372744506938954 0.0885354612561047
-0.08285458916161004 -0.02132029887010784 0.0910845505554846
-0.08767958185076836 -0.008913152670826157 0.09363363985486449
-0.09250457453992669 0.0034939935284555466 0.09618272915424438
-0.097329567229085 0.015901139727737244 0.09873181845362426
-0.10215455991824333 0.02830828592701892 0.10128090775300415
-0.10697955260740166 0.040715432126300626 0.10382999705238403
-0.11180454529655999 0.05312257832558232 0.10637908635176394
-0.11662953798571832 0.06552972452486402 0.10892817565114382
-0.07320460378329338 -0.046134591268671234 0.08598637195672482
-0.0809208564689672 -0.035007317047904905 0.0853872889710748
-0.08863710915464101 -0.023880042827138577 0.08478820598542476
-0.09635336184031483 -0.01275276860637226 0.08418912299977474
-0.10406961452598865 -0.0016254943856059247 0.08359004001412472
-0.11178586721166246 0.009501779835160396 0.08299095702847469
-0.11950211989733628 0.020629054055926712 0.08239187404282465
-0.12721837258301008 0.03175632827669304 0.08179279105717463
-0.1349346252686839 0.04288360249745938 0.08119370807152461
-0.1426508779543577 0.054010876718225694 0.08059462508587457
-0.07320460378329338 -0.046134591268671234 0.08598637195672482
-0.0829759407569933 -0.03749300184568936 0.08230403662327035
-0.09274727773069322 -0.028851412422707483 0.07862170128981588
-0.10251861470439314 -0.020209822999725614 0.07493936595636141
-0.11228995167809307 -0.011568233576743739 0.07125703062290693
-0.12206128865179298 -0.002926644153761861 0.06757469528945247
-0.1318326256254929 0.005714945269220002 0.063892359955998
-0.14160396259919283 0.014356534692201892 0.060210024622543525
-0.15137529957289275 0.022998124115183757 0.05652768928908906
-0.16114663654659267 0.03163971353816563 0.05284535395563459
-0.07320460378329338 -0.046134591268671234 0.08598637195672482
-0.08397214906600414 -0.04091513694552937 0.07961982244616546
-0.09473969434871489 -0.0356956826223875 0.0732532729356061
-0.10550723963142564 -0.030476228299245633 0.06688672342504674
-0.1162747849141364 -0.025256773976103767 0.060520173914487385
-0.12704233019684716 -0.0200373196529619 0.05415362440392803
-0.1378098754795579 -0.014817865329820037 0.04778707489336867
-0.14857742076226868 -0.009598411006678171 0.041420525382809305
-0.1593449660449794 -0.004378956683536305 0.03505397587224995
-0.17011251132769017 0.000840497639605568 0.028687426361690572
-0.07320460378329338 -0.046134591268671234 0.08598637195672482
-0.0838015267679538 -0.04490288090946012 0.07762552269572373
-0.09439844975261422 -0.04367117055024901 0.06926467343472265
-0.10499537273727462 -0.0424394601910379 0.06090382417372156
-0.11559229572193504 -0.04120774983182678 0.05254297491272047
-0.12618921870659547 -0.03997603947261567 0.04418212565171937
-0.13678614169125586 -0.03874432911340456 0.0358212763907183
-0.14738306467591628 -0.03751261875419345 0.027460427129717208
-0.1579799876605767 -0.03628090839498233 0.01909957786871611
-0.1685769106452371 -0.03504919803577122 0.010738728607715024
-0.07320460378329338 -0.046134591268671234 0.08598637195672482
-0.08248256343631376 -0.04902409980276679 0.0765372506946545
-0.09176052308933415 -0.05191360833686236 0.06708812943258419
-0.10103848274235454 -0.05480311687095792 0.057639008170513865
-0.11031644239537491 -0.05769262540505348 0.04818988690844355
-0.11959440204839529 -0.06058213393914905 0.03874076564637323
-0.1288723617014157 -0.0634716424732446 0.029291644384302904
-0.13815032135443606 -0.06636115100734018 0.01984252312223259
-0.14742828100745645 -0.06925065954143574 0.010393401860162275
-0.15670624066047684 -0.0721401680755313 0.0009442805980919602
-0.07320460378329338 -0.046134591268671234 0.08598637195672482
-0.080158189213892 -0.05283219561105976 0.07647293760055357
-0.08711177464449063 -0.05952979995344829 0.06695950324438232
-0.09406536007508925 -0.0662274042958368 0.05744606888821108
-0.10101894550568788 -0.07292500863822533 0.047932634532039824
-0.1079725309362865 -0.07962261298061385 0.03841920017586858
-0.11492611636688511 -0.08632021732300238 0.028905765819697327
-0.12187970179748374 -0.09301782166539091 0.01939233146352608
-0.12883328722808238 -0.09971542600777944 0.00987889710735482
-0.135786872658681 -0.10641303035016796 0.00036546275118357416
-0.07320460378329338 -0.046134591268671234 0.08598637195672482
-0.07708028611407002 -0.055914502064815894 0.07743955273508725
-0.08095596844484665 -0.06569441286096055 0.06889273351344968
-0.08483165077562328 -0.07547432365710521 0.06034591429181211
-0.08870733310639992 -0.08525423445324987 0.05179909507017454
-0.09258301543717655 -0.09503414524939453 0.04325227584853697
-0.09645869776795318 -0.10481405604553919 0.034705456626899396
-0.10033438009872982 -0.11459396684168385 0.026158637405261826
-0.10421006242950645 -0.1243738776378285 0.01761181818362426
-0.10808574476028308 -0.1341537884339732 0.009064998961986679
-0.07320460378329338 -0.046134591268671234 0.08598637195672482
-0.07358239269630085 -0.057937003432858306 0.07933234834984965
-0.07396018160930831 -0.06973941559704538 0.07267832474297448
-0.07433797052231576 -0.08154182776123245 0.06602430113609929
-0.07471575943532323 -0.09334423992541953 0.05937027752922412
-0.0750935483483307 -0.10514665208960661 0.052716253922348945
-0.07547133726133816 -0.11694906425379367 0.046062230315473775
-0.07584912617434561 -0.12875147641798076 0.03940820670859859
-0.07622691508735308 -0.14055388858216783 0.03275418310172342
-0.07660470400036054 -0.15235630074635492 0.02610015949484824
-0.07320460378329338 -0.046134591268671234 0.08598637195672482
-0.07004355998780834 -0.058680530309617444 0.08194621067023122
-0.06688251619232331 -0.07122646935056366 0.07790604938373762
-0.06372147239683827 -0.08377240839150987 0.07386588809724401
-0.06056042860135324 -0.09631834743245608 0.06982572681075042
-0.0573993848058682 -0.1088642864734023 0.06578556552425681
-0.05423834101038317 -0.12141022551434852 0.06174540423776321
-0.051077297214898135 -0.13395616455529474 0.0577052429512696
-0.04791625341941309 -0.14650210359624094 0.053665081664776
-0.04475520962392806 -0.15904804263718716 0.049624920378282394
-0.07320460378329338 -0.046134591268671234 0.08598637195672482
-0.0668472754232048 -0.058064510020988266 0.08499788715556586
-0.06048994706311621 -0.0699944287733053 0.0840094023544069
-0.05413261870302762 -0.08192434752562233 0.08302091755324795
-0.04777529034293904 -0.09385426627793937 0.08203243275208899
-0.04141796198285045 -0.10578418503025641 0.08104394795093002
-0.035060633622761864 -0.11771410378257342 0.08005546314977108
-0.028703305262673284 -0.12964402253489046 0.07906697834861211
-0.022345976902584698 -0.14157394128720752 0.07807849354745315
-0.015988648542496105 -0.15350386003952454 0.0770900087462942
-0.07320460378329338 -0.046134591268671234 0.08598637195672482
-0.06433990603053001 -0.05615569792378337 0.08815668130702808
-0.055475208277766634 -0.06617680457889549 0.09032699065733137
-0.046610510525003264 -0.07619791123400763 0.09249730000763462
-0.03774581277223988 -0.08621901788911976 0.0946676093579379
-0.028881115019476516 -0.09624012454423189 0.09683791870824117
-0.020016417266713146 -0.10626123119934403 0.09900822805854444
-0.011151719513949755 -0.11628233785445616 0.1011785374088477
-0.0022870217611863784 -0.1263034445095683 0.10334884675915097
0.006577675991576978 -0.13632455116468045 0.10551915610945424
-0.07320460378329338 -0.046134591268671234 0.08598637195672482
-0.06279316418932503 -0.05316094342700626 0.09108028876456564
-0.05238172459535667 -0.06018729558534129 0.09617420557240648
-0.04197028500138832 -0.06721364774367632 0.10126812238024731
-0.03155884540741996 -0.07423999990201136 0.10636203918808813
-0.021147405813451606 -0.08126635206034638 0.11145595599592897
-0.010735966219483264 -0.0882927042186814 0.11654987280376979
-0.00032452662551489574 -0.09531905637701643 0.12164378961161063
0.01008691296845346 -0.10234540853535147 0.12673770641945145
0.020498352562421815 -0.1093717606936865 0.13183162322729228
-0.07320460378329338 -0.046134591268671234 0.08598637195672482
-0.06237466337825691 -0.04940477464878658 0.09345189129571058
-0.051544722973220436 -0.052674958028901916 0.10091741063469634
-0.04071478256818396 -0.05594514140901726 0.1083829299736821
-0.029884842163147483 -0.059215324789132606 0.11584844931266786
-0.019054901758111017 -0.06248550816924795 0.12331396865165362
-0.008224961353074545 -0.0657556915493633 0.13077948799063938
0.0026049790519619277 -0.06902587492947863 0.13824500732962514
0.013434919456998415 -0.07229605830959399 0.1457105266686109
0.024264859862034888 -0.07556624168970932 0.15317604600759666
