# .PCD v0.7 - Point Cloud Data file format
VERSION 0.7
FIELDS x y z
SIZE 4 4 4
TYPE F F F
COUNT 1 1 1
WIDTH 700
HEIGHT 1
VIEWPOINT 0 0 0 1 0 0 0
POINTS 700
DATA ascii
0.014890600543500603 0.010735848290349516 -0.12431064969146063
0.02472887720492778 0.026736140391779763 -0.12026548748043715
0.03140366953707531 0.043488327400526036 -0.11363406605980164
0.034602871668990814 0.06020909567077795 -0.10472646332488748
0.03417689246464371 0.07611660066201768 -0.09395918887948985
0.030145650238187396 0.09046702512077684 -0.08183570850970953
0.022697641395727025 0.10258935914871509 -0.0689229026833568
0.012181126552868779 0.11191677587969256 -0.055824559849319014
-0.0009121537446020532 0.11801313567404798 -0.04315314396075331
-0.01596997226211161 0.12059337952341444 -0.03150115634134178
-0.032288242141344355 0.11953685809313068 -0.02141343098191402
-0.04910393921920175 0.11489297315103754 -0.013361658708575391
-0.06563078018962816 0.10687886759571989 -0.007722331443925062
-0.08109598833711086 0.09586927209590576 -0.004759137863196018
-0.09477642771701789 0.08237898310088 -0.004610633604870018
-0.1060324161886611 0.06703879153067059 -0.007283762563015758
-0.11433763624123916 0.050565987693702186 -0.012653532198519786
-0.11930374501568257 0.033730821589184924 -0.020468858051296245
-0.12069853278513186 0.01732048687322284 -0.030364304170580114
-0.11845678082368284 0.0021023125583572396 -0.0418771704938321
-0.11268331096152451 -0.011212116438234712 -0.05446912818740887
-0.10364808423266053 -0.022000232214597352 -0.06755139130451455
-0.0917735777969993 -0.029757594467157453 -0.08051224776168443
-0.07761503037790635 -0.034121477558674236 -0.09274566231593857
-0.06183447991660324 -0.034887831165896034 -0.10367961409918376
-0.04516980741383838 -0.032020821445890045 -0.11280284367825007
-0.02840023443438785 -0.025654506586711288 -0.11968875897776173
-0.012309887572729102 -0.016086568395524265 -0.12401538225145875
0.0023488664350229246 -0.0037643930281492633 -0.12558040540375948
0.014890600543500589 0.010735848290349495 -0.12431064969146063
0.02442979465331761 0.0012210934953834224 -0.10987621612180361
0.03426807131474479 0.017221385596813667 -0.10583105391078013
0.04094286364689232 0.03397357260555994 -0.09919963249014462
0.044142065778807825 0.05069434087581186 -0.09029202975523046
0.04371608657446072 0.06660184586705159 -0.07952475530983283
0.03968484434800441 0.08095227032581075 -0.0674012749400525
0.032236835505544036 0.093074604353749 -0.05448846911369976
0.021720320662685786 0.10240202108472647 -0.04139012627966199
0.008627040365214956 0.10849838087908188 -0.028718710391096275
-0.006430778152294601 0.11107862472844834 -0.017066722771684743
-0.022749048031527348 0.11002210329816459 -0.006978997412256987
-0.03956474510938474 0.10537821835607145 0.001072774861081641
-0.056091586079811157 0.0973641128007538 0.00671210212573197
-0.07155679422729386 0.08635451730093967 0.009675295706461013
-0.08523723360720087 0.07286422830591391 0.009823799964787014
-0.0964932220788441 0.0575240367357045 0.007150671006641274
-0.10479844213142216 0.04105123289873609 0.0017809013711372463
-0.10976455090586557 0.02421606679421883 -0.006034424481639212
-0.11115933867531486 0.007805732078256745 -0.01592987060092308
-0.10891758671386584 -0.007412442236608855 -0.02744273692417507
-0.1031441168517075 -0.020726871233200807 -0.04003469461775184
-0.09410889012284353 -0.03151498700956345 -0.05311695773485752
-0.08223438368718229 -0.03927234926212355 -0.06607781419202739
-0.06807583626808934 -0.04363623235364033 -0.07831122874628153
-0.05229528580678623 -0.04440258596086213 -0.08924518052952674
-0.03563061330402137 -0.04153557624085614 -0.09836841010859304
-0.01886104032457084 -0.035169261381677384 -0.1052543254081047
-0.002770693462912094 -0.025601323190490362 -0.10958094868180172
0.011888060544839934 -0.013279147823115357 -0.11114597183410246
0.024429794653317596 0.0012210934953834015 -0.10987621612180361
0.03396898876313461 -0.008293661299582665 -0.09544178255214658
0.043807265424561787 0.00770663080184758 -0.0913966203411231
0.05048205775670932 0.024458817810593853 -0.08476519892048759
0.05368125988862482 0.04117958608084577 -0.07585759618557343
0.05325528068427772 0.0570870910720855 -0.0650903217401758
0.049224038457821404 0.07143751553084465 -0.052966841370395486
0.04177602961536103 0.0835598495587829 -0.04005403554404274
0.031259514772502786 0.09288726628976038 -0.026955692710004964
0.018166234475031958 0.09898362608411579 -0.014284276821439254
0.0031084159575224014 0.10156386993348225 -0.0026322892020277226
-0.013209853921710344 0.1005073485031985 0.007455436157400035
-0.030025550999567743 0.09586346356110535 0.015507208430738663
-0.04655239196999415 0.0878493580057877 0.02114653569538899
-0.062017600117476854 0.07683976250597357 0.024109729276118035
-0.07569803949738386 0.06334947351094782 0.024258233534444035
-0.0869540279690271 0.048009281940738405 0.021585104576298295
-0.09525924802160515 0.031536478103770006 0.016215334940794267
-0.10022535679604856 0.014701311999252745 0.00840000908801781
-0.10162014456549785 -0.0017090227167093424 -0.0014954370312660601
-0.09937839260404883 -0.016927197031574942 -0.013008303354518047
-0.0936049227418905 -0.030241626028166893 -0.025600261048094815
-0.08456969601302652 -0.041029741804529535 -0.0386825241652005
-0.07269518957736529 -0.048787104057089636 -0.05164338062237038
-0.05853664215827234 -0.053150987148606416 -0.06387679517662452
-0.042756091696969235 -0.053917340755828214 -0.07481074695986971
-0.02609141919420437 -0.051050331035822225 -0.08393397653893601
-0.009321846214753838 -0.04468401617664347 -0.09081989183844767
0.006768500646904908 -0.03511607798545645 -0.0951465151121447
0.021427254654656936 -0.022793902618081445 -0.09671153826444544
0.033968988763134596 -0.008293661299582686 -0.09544178255214658
0.04350818287295161 -0.01780841609454875 -0.08100734898248955
0.05334645953437879 -0.0018081239931185074 -0.07696218677146609
0.06002125186652632 0.014944063015627765 -0.07033076535083058
0.06322045399844183 0.031664831285879685 -0.061423162615916405
0.06279447479409472 0.04757233627711941 -0.05065588817051878
0.05876323256763841 0.06192276073587857 -0.03853240780073846
0.051315223725178036 0.07404509476381681 -0.02561960197438572
0.04079870888231979 0.08337251149479429 -0.012521259140347941
0.02770542858484896 0.0894688712891497 0.00015015674821776772
0.012647610067339403 0.09204911513851616 0.011802144367629299
-0.0036706598118933418 0.0909925937082324 0.021889869727057056
-0.02048635688975074 0.08634870876613926 0.029941642000395684
-0.03701319786017715 0.07833460321082161 0.03558096926504602
-0.05247840600765985 0.0673250077110075 0.03854416284577506
-0.06615884538756686 0.05383471871598173 0.03869266710410106
-0.0774148338592101 0.03849452714577232 0.03601953814595532
-0.08572005391178815 0.02202172330880392 0.03064976851045129
-0.09068616268623156 0.005186557204286657 0.02283444265767483
-0.09208095045568085 -0.01122377751167543 0.012938996538390962
-0.08983919849423183 -0.02644195182654103 0.001426130215138974
-0.0840657286320735 -0.03975638082313298 -0.011165827478437794
-0.07503050190320952 -0.05054449659949562 -0.02424809059554348
-0.06315599546754828 -0.05830185885205572 -0.037208947052713354
-0.048997448048455336 -0.06266574194357251 -0.049442361606967494
-0.03321689758715223 -0.0634320955507943 -0.06037631339021269
-0.016552225084387365 -0.06056508583078831 -0.069499542969279
0.00021734789506316432 -0.05419877097160956 -0.07638545826879066
0.016307694756721912 -0.044630832780422534 -0.08071208154248768
0.03096644876447394 -0.03230865741304753 -0.08227710469478841
0.0435081828729516 -0.017808416094548772 -0.08100734898248955
0.053047376982768624 -0.027323170889514845 -0.06657291541283253
0.0628856536441958 -0.0113228787880846 -0.06252775320180906
0.06956044597634332 0.005429308220661673 -0.05589633178117354
0.07275964810825883 0.022150076490913592 -0.04698872904625938
0.07233366890391173 0.03805758148215332 -0.036221454600861756
0.06830242667745541 0.052408005940912473 -0.024097974231081433
0.060854417834995046 0.06453033996885071 -0.011185168404728692
0.0503379029921368 0.07385775669982819 0.0019131744293090882
0.03724462269466597 0.0799541164941836 0.014584590317874797
0.022186804177156412 0.08253436034355006 0.02623657793728633
0.005868534297923666 0.0814778389132663 0.036324303296714086
-0.010947162779933734 0.07683395397117317 0.044376075570052714
-0.027474003750360142 0.06881984841585552 0.05001540283470304
-0.04293921189784284 0.0578102529160414 0.05297859641543209
-0.05661965127774986 0.044319963921015636 0.05312710067375809
-0.06787563974939309 0.02897977235080623 0.05045397171561235
-0.07618085980197115 0.012506968513837825 0.04508420208010832
-0.08114696857641455 -0.004328197590679436 0.03726887622733186
-0.08254175634586385 -0.02073853230664152 0.02737343010804799
-0.08030000438441483 -0.03595670662150712 0.015860563784796004
-0.0745265345222565 -0.04927113561809907 0.003268606091219235
-0.06549130779339252 -0.060059251394461714 -0.00981365702588645
-0.053616801357731274 -0.06781661364702182 -0.022774513483056327
-0.039458253938638325 -0.0721804967385386 -0.03500792803731047
-0.02367770347733522 -0.0729468503457604 -0.04594187982055566
-0.007013030974570359 -0.07007984062575441 -0.05506510939962197
0.009756542004880171 -0.06371352576657566 -0.061951024699133626
0.02584688886653892 -0.05414558757538863 -0.06627764797283066
0.04050564287429095 -0.041823412208013624 -0.06784267112513138
0.05304737698276861 -0.027323170889514865 -0.06657291541283253
0.06258657109258563 -0.03683792568448094 -0.0521384818431755
0.07242484775401281 -0.020837633583050692 -0.04809331963215203
0.07909964008616034 -0.004085446574304419 -0.04146189821151652
0.08229884221807585 0.0126353216959475 -0.03255429547660235
0.08187286301372874 0.028542826687187224 -0.02178702103120473
0.07784162078727243 0.04289325114594638 -0.009663540661424407
0.07039361194481206 0.05501558517388463 0.0032492651649283348
0.059877097101953804 0.06434300190486211 0.016347607998966115
0.04678381680448297 0.07043936169921752 0.029019023887531824
0.031725998286973416 0.07301960554858399 0.040671011506943355
0.015407728407740672 0.07196308411830023 0.05075873686637111
-0.0014079686701167274 0.06731919917620709 0.05881050913970974
-0.01793480964054314 0.05930509362088943 0.06444983640436007
-0.033400017788025836 0.04829549812107531 0.06741302998508912
-0.047080457167932854 0.03480520912604954 0.06756153424341511
-0.05833644563957608 0.019465017555840135 0.06488840528526937
-0.06664166569215413 0.002992213718871735 0.059518635649765346
-0.07160777446659754 -0.013842952385645526 0.05170330979698889
-0.07300256223604683 -0.030253287101607615 0.04180786367770502
-0.07076081027459781 -0.045471461416473215 0.03029499735445303
-0.06498734041243948 -0.058785890413065166 0.017703039660876264
-0.055952113683575506 -0.0695740061894278 0.004620776543770577
-0.04407760724791427 -0.0773313684419879 -0.0083400799133993
-0.029919059828821322 -0.08169525153350468 -0.020573494467653438
-0.014138509367518216 -0.08246160514072648 -0.03150744625089864
0.002526163135246646 -0.07959459542072049 -0.04063067582996494
0.019295736114697176 -0.07322828056154174 -0.0475165911294766
0.035386082976355926 -0.06366034237035471 -0.051843214403173625
0.05004483698410795 -0.05133816700297972 -0.05340823755547436
0.06258657109258561 -0.03683792568448096 -0.0521384818431755
0.07212576520240263 -0.046352680479447024 -0.03770404827351848
0.0819640418638298 -0.03035238837801678 -0.03365888606249501
0.08863883419597733 -0.013600201369270504 -0.027027464641859497
0.09183803632789284 0.003120566900981414 -0.018119861906945332
0.09141205712354573 0.019028071892221138 -0.0073525874615477105
0.08738081489708942 0.033378496350980294 0.004770892908232613
0.07993280605462905 0.04550083037891854 0.017683698734585356
0.0694162912117708 0.05482824710989602 0.030782041568623134
0.056323010914299976 0.06092460690425143 0.04345345745718884
0.04126519239679042 0.06350485075361789 0.055105445076600375
0.02494692251755767 0.062448329323334134 0.06519317043602814
0.008131225439700273 0.057804444381240994 0.07324494270936677
-0.008395615530726137 0.04979033882592335 0.0788842699740171
-0.023860823678208836 0.03878074332610922 0.08184746355474613
-0.03754126305811585 0.025290454331083456 0.08199596781307214
-0.04879725152975908 0.009950262760874051 0.0793228388549264
-0.05710247158233713 -0.006522541076094351 0.07395306921942237
-0.06206858035678054 -0.023357707180611614 0.0661377433666459
-0.06346336812622984 -0.0397680418965737 0.05624229724736204
-0.061221616164780814 -0.0549862162114393 0.04472943092411005
-0.05544814630262248 -0.06830064520803125 0.03213747323053328
-0.0464129195737585 -0.0790887609843939 0.019055210113427597
-0.03453841313809727 -0.086846123236954 0.00609435365625772
-0.020379865719004322 -0.09121000632847077 -0.0061390608979964185
-0.004599315257701216 -0.09197635993569257 -0.017073012681241617
0.012065357245063647 -0.08910935021568658 -0.026196242260307923
0.028834930224514176 -0.08274303535650783 -0.03308215755981958
0.04492527708617292 -0.07317509716532081 -0.037408780833516606
0.059584031093924954 -0.060852921797945804 -0.03897380398581734
0.07212576520240262 -0.046352680479447045 -0.03770404827351848
0.08166495931221963 -0.05586743527441311 -0.023269614703861456
0.09150323597364682 -0.039867143172982865 -0.019224452492837982
0.09817802830579435 -0.023114956164236596 -0.01259303107220247
0.10137723043770985 -0.006394187893984677 -0.0036854283372883055
0.10095125123336275 0.009513317097255048 0.007081846108109317
0.09692000900690644 0.023863741556014204 0.01920532647788964
0.08947200016444606 0.035986075583952455 0.03211813230424238
0.07895548532158782 0.04531349231492993 0.045216475138280164
0.06586220502411698 0.051409852109285344 0.05788789102684587
0.05080438650660742 0.053990095958651806 0.06953987864625741
0.03448611662737468 0.05293357452836805 0.07962760400568517
0.01767041954951728 0.04828968958627491 0.0876793762790238
0.0011435785790908685 0.04027558403095726 0.09331870354367412
-0.014321629568391829 0.029265988531143133 0.09628189712440316
-0.028002068948298847 0.015775699536117366 0.09643040138272917
-0.03925805741994207 0.00043550796590795954 0.09375727242458343
-0.04756327747252013 -0.016037295871060443 0.08838750278907939
-0.05252938624696354 -0.0328724619755777 0.08057217693630293
-0.05392417401641283 -0.04928279669153979 0.07067673081701907
-0.05168242205496381 -0.0645009710064054 0.05916386449376708
-0.045908952192805476 -0.07781540000299735 0.046571906800190306
-0.0368737254639415 -0.08860351577935999 0.03348964368308462
-0.024999219028280263 -0.09636087803192009 0.02052878722591475
-0.010840671609187315 -0.10072476112343687 0.008295372671660608
0.004939878852115789 -0.10149111473065867 -0.0026385791115845904
0.021604551354880652 -0.09862410501065268 -0.011761808690650896
0.03837412433433118 -0.09225779015147392 -0.018647723990162554
0.05446447119598993 -0.0826898519602869 -0.02297434726385958
0.06912322520374196 -0.07036767659291189 -0.024539370416160312
0.08166495931221962 -0.05586743527441313 -0.023269614703861456
0.09120415342203664 -0.0653821900693792 -0.008835181134204428
0.10104243008346382 -0.04938189796794896 -0.0047900189231809545
0.10771722241561135 -0.03262971095920269 0.0018414024974545567
0.11091642454752686 -0.015908942688950767 0.010749005232368722
0.11049044534317976 -1.4376977110428735e-06 0.021516279677766342
0.10645920311672344 0.014348986761048113 0.033639760047546666
0.09901119427426307 0.026471320788986362 0.04655256587389941
0.08849467943140482 0.03579873751996384 0.05965090870793719
0.07540139913393398 0.04189509731431925 0.0723223245965029
0.060343580616424426 0.04447534116368571 0.08397431221591443
0.04402531073719168 0.043418819733401955 0.09406203757534219
0.027209613659334286 0.038774934791308814 0.10211380984868082
0.010682772688907874 0.030760829235991168 0.10775313711333115
-0.004782435458574823 0.019751233736177043 0.11071633069406019
-0.01846287483848184 0.006260944741151276 0.1108648349523862
-0.029718863310125066 -0.009079246829058132 0.10819170599424045
-0.038024083362703125 -0.025552050666026532 0.10282193635873642
-0.042990192137146534 -0.042387216770543794 0.09500661050595996
-0.044384979906595824 -0.05879755148650588 0.0851111643866761
-0.042143227945146806 -0.07401572580137149 0.0735982980634241
-0.03636975808298847 -0.08733015479796344 0.06100634036984733
-0.027334531354124492 -0.09811827057432608 0.04792407725274165
-0.015460024918463258 -0.10587563282688618 0.03496322079557177
-0.001301477499370309 -0.11023951591840296 0.022729806241317634
0.014479072961932795 -0.11100586952562476 0.011795854458072437
0.03114374546469766 -0.10813885980561877 0.002672624879006131
0.04791331844414819 -0.10177254494644002 -0.004213290420505527
0.06400366530580694 -0.092204606755253 -0.008539913694202551
0.07866241931355897 -0.07988243138787798 -0.010104936846503284
0.09120415342203662 -0.06538219006937923 -0.008835181134204428
0.10074334753185366 -0.0748969448643453 0.0055992524354526035
0.11058162419328083 -0.05889665276291505 0.009644414646476078
0.11725641652542836 -0.04214446575416878 0.01627583606711159
0.12045561865734386 -0.025423697483916863 0.025183438802025754
0.12002963945299676 -0.009516192492677137 0.035950713247423376
0.11599839722654044 0.004834231966082019 0.0480741936172037
0.10855038838408007 0.016956565994020265 0.06098699944355644
0.09803387354122182 0.026283982724997743 0.07408534227759422
0.084940593243751 0.03238034251935316 0.08675675816615992
0.06988277472624144 0.03496058636871962 0.09840874578557146
0.05356450484700869 0.03390406493843586 0.10849647114499922
0.03674880776915129 0.029260179996342717 0.11654824341833785
0.020221966798724882 0.02124607444102507 0.12218757068298818
0.004756758651242186 0.010236478941210948 0.1251507642637172
-0.008923680728664833 -0.0032538100538148187 0.1252992685220432
-0.02017966920030806 -0.018594001624024227 0.12262613956389748
-0.028484889252886114 -0.035066805460992626 0.11725636992839344
-0.03345099802732952 -0.05190197156550989 0.10944104407561699
-0.034845785796778814 -0.06831230628147197 0.09954559795633312
-0.032604033835329796 -0.08353048059633758 0.08803273163308113
-0.026830563973171462 -0.09684490959292953 0.07544077393950437
-0.017795337244307485 -0.10763302536929217 0.06235851082239868
-0.005920830808646248 -0.11539038762185228 0.049397654365228805
0.0082377166104467 -0.11975427071336905 0.037164239810974664
0.024018267071749803 -0.12052062432059085 0.02623028802772947
0.040682939574514666 -0.11765361460058486 0.017107058448663164
0.0574525125539652 -0.11128729974140611 0.010221143149151506
0.07354285941562394 -0.10171936155021909 0.005894519875454481
0.08820161342337597 -0.08939718618284408 0.004329496723153747
0.10074334753185364 -0.07489694486434532 0.0055992524354526035
-0.04292637349417652 0.042816396577347406 -0.06495495106345661
-0.03650226526776795 0.03925189121212542 -0.0715500286887904
-0.030078157041359386 0.03568738584690343 -0.07814510631412418
-0.023654048814950816 0.032122880481681444 -0.08474018393945795
-0.01722994058854225 0.028558375116459457 -0.09133526156479173
-0.010805832362133679 0.02499386975123747 -0.0979303391901255
-0.004381724135725109 0.021429364386015483 -0.1045254168154593
0.002042384090683454 0.017864859020793496 -0.11112049444079307
0.008466492317092025 0.014300353655571507 -0.11771557206612684
0.014890600543500603 0.010735848290349516 -0.12431064969146063
-0.04292637349417652 0.042816396577347406 -0.06495495106345661
-0.03497236265805042 0.04200442356919869 -0.070746697375262
-0.027018351821924316 0.04119245056104996 -0.07653844368706739
-0.019064340985798213 0.04038047755290124 -0.08233018999887276
-0.01111033014967211 0.03956850454475251 -0.08812193631067815
-0.0031563193135460002 0.038756531536603786 -0.09391368262248352
0.004797691522580096 0.03794455852845507 -0.0997054289342889
0.012751702358706207 0.037132585520306335 -0.10549717524609428
0.020705713194832304 0.03632061251215762 -0.11128892155789967
0.028659724030958414 0.03550863950400889 -0.11708066786970506
-0.04292637349417652 0.042816396577347406 -0.06495495106345661
-0.03430440054162159 0.04484494580076421 -0.06931574048064602
-0.025682427589066654 0.04687349502418101 -0.07367652989783542
-0.017060454636511724 0.048902044247597816 -0.07803731931502482
-0.008438481683956785 0.05093059347101461 -0.08239810873221422
0.00018349126859815092 0.052959142694431416 -0.08675889814940363
0.008805464221153074 0.05498769191784822 -0.09111968756659301
0.01742743717370801 0.057016241141265016 -0.09548047698378243
0.026049410126262953 0.05904479036468182 -0.09984126640097182
0.03467138307881787 0.061073339588098616 -0.10420205581816122
-0.04292637349417652 0.042816396577347406 -0.06495495106345661
-0.03457076297829666 0.047465643247788215 -0.06741222438805804
-0.026215152462416794 0.052114889918229025 -0.06986949771265945
-0.01785954194653693 0.05676413658866984 -0.07232677103726086
-0.009503931430657066 0.061413383259110645 -0.07478404436186228
-0.0011483209147772004 0.06606262992955146 -0.0772413176864637
0.0072072896011026654 0.07071187659999227 -0.0796985910110651
0.015562900116982525 0.0753611232704331 -0.08215586433566652
0.02391851063286239 0.08001036994087389 -0.08461313766026794
0.03227412114874226 0.08465961661131471 -0.08707041098486935
-0.04292637349417652 0.042816396577347406 -0.06495495106345661
-0.03574258546502284 0.04958252267757498 -0.06524242460222533
-0.02855879743586915 0.05634864877780255 -0.06552989814099405
-0.021375009406715464 0.06311477487803013 -0.06581737167976276
-0.014191221377561777 0.0698809009782577 -0.06610484521853148
-0.007007433348408088 0.07664702707848528 -0.06639231875730019
0.00017635468074559475 0.08341315317871285 -0.06667979229606891
0.007360142709899284 0.09017927927894041 -0.06696726583483763
0.014543930739052968 0.096945405379168 -0.06725473937360633
0.021727718768206658 0.10371153147939557 -0.06754221291237505
-0.04292637349417652 0.042816396577347406 -0.06495495106345661
-0.03769288285266403 0.050966187357138426 -0.0630414725978555
-0.03245939221115154 0.059115978136929447 -0.06112799413225437
-0.027225901569639045 0.06726576891672047 -0.05921451566665325
-0.02199241092812655 0.0754155596965115 -0.057301037201052125
-0.016758920286614055 0.08356535047630251 -0.05538755873545101
-0.011525429645101566 0.09171514125609354 -0.053474080269849886
-0.006291939003589071 0.09986493203588456 -0.05156060180424876
-0.0010584483620765743 0.10801472281567558 -0.04964712333864764
0.004175042279435915 0.1161645135954666 -0.047733644873046516
-0.04292637349417652 0.042816396577347406 -0.06495495106345661
-0.04021031015728734 0.05146669574867825 -0.06104787567591107
-0.03749424682039817 0.0601169949200091 -0.057140800288365524
-0.034778183483508994 0.06876729409133994 -0.053233724900819984
-0.032062120146619806 0.07741759326267078 -0.04932664951327443
-0.029346056809730632 0.08606789243400163 -0.04541957412572888
-0.026629993472841458 0.09471819160533247 -0.04151249873818334
-0.023913930135952284 0.10336849077666331 -0.037605423350637796
-0.021197866799063093 0.11201878994799416 -0.03369834796309225
-0.01848180346217392 0.120669089119325 -0.0297912725755467
-0.04292637349417652 0.042816396577347406 -0.06495495106345661
-0.04302206506852753 0.051029810001783235 -0.0594776709967282
-0.043117756642878535 0.05924322342621906 -0.054000390929999795
-0.04321344821722954 0.06745663685065488 -0.048523110863271386
-0.04330913979158055 0.07567005027509072 -0.04304583079654297
-0.043404831365931554 0.08388346369952655 -0.037568550729814555
-0.04350052294028256 0.09209687712396236 -0.032091270663086154
-0.04359621451463357 0.1003102905483982 -0.026613990596357738
-0.04369190608898457 0.10852370397283402 -0.021136710529629323
-0.04378759766333558 0.11673711739726984 -0.015659430462900907
-0.04292637349417652 0.042816396577347406 -0.06495495106345661
-0.04582345031287902 0.04970287346611028 -0.05850101460153229
-0.04872052713158152 0.056589350354873155 -0.05204707813960797
-0.05161760395028402 0.06347582724363603 -0.04559314167768364
-0.05451468076898652 0.0703623041323989 -0.039139205215759316
-0.05741175758768902 0.07724878102116177 -0.032685268753835
-0.06030883440639152 0.08413525790992464 -0.026231332291910672
-0.06320591122509402 0.09102173479868751 -0.019777395829986347
-0.06610298804379652 0.09790821168745038 -0.013323459368062021
-0.06900006486249902 0.10479468857621325 -0.0068695229061377025
-0.04292637349417652 0.042816396577347406 -0.06495495106345661
-0.04831089233114561 0.04762968030484132 -0.058223742365128194
-0.0536954111681147 0.052442964032335226 -0.051492533666799775
-0.05907993000508378 0.05725624775982913 -0.04476132496847135
-0.06446444884205288 0.06206953148732304 -0.03803011627014293
-0.06984896767902196 0.06688281521481695 -0.031298907571814506
-0.07523348651599104 0.07169609894231087 -0.024567698873486088
-0.08061800535296014 0.07650938266980478 -0.017836490175157656
-0.08600252418992922 0.08132266639729868 -0.011105281476829244
-0.09138704302689832 0.0861359501247926 -0.004374072778500812
-0.04292637349417652 0.042816396577347406 -0.06495495106345661
-0.05021483818400845 0.04503489316590621 -0.05867590103665233
-0.057503302873840374 0.04725338975446502 -0.05239685100984803
-0.0647917675636723 0.049471886343023824 -0.046117800983043744
-0.07208023225350423 0.05169038293158263 -0.03983875095623945
-0.07936869694333615 0.05390887952014144 -0.03355970092943515
-0.08665716163316808 0.05612737610870024 -0.02728065090263087
-0.093945626323 0.05834587269725905 -0.021001600875826573
-0.10123409101283193 0.060564369285817855 -0.014722550849022284
-0.10852255570266385 0.06278286587437666 -0.008443500822217988
-0.04292637349417652 0.042816396577347406 -0.06495495106345661
-0.05132896579554604 0.04219969749807941 -0.05980849220808038
-0.05973155809691556 0.04158299841881142 -0.054662033352704135
-0.06813415039828509 0.04096629933954342 -0.049515574497327894
-0.0765367426996546 0.040349600260275426 -0.04436911564195165
-0.08493933500102412 0.03973290118100743 -0.03922265678657541
-0.09334192730239364 0.03911620210173943 -0.034076197931199176
-0.10174451960376314 0.038499503022471446 -0.028929739075822934
-0.11014711190513267 0.037882803943203446 -0.023783280220446693
-0.1185497042065022 0.03726610486393545 -0.01863682136507045
-0.04292637349417652 0.042816396577347406 -0.06495495106345661
-0.05153254215157721 0.03943133074456345 -0.061498782052025386
-0.0601387108089779 0.0360462649117795 -0.05804261304059415
-0.06874487946637858 0.03266119907899555 -0.05458644402916292
-0.07735104812377927 0.029276133246211592 -0.05113027501773168
-0.08595721678117996 0.02589106741342764 -0.04767410600630045
-0.09456338543858064 0.022506001580643687 -0.044217936994869214
-0.10316955409598133 0.01912093574785973 -0.04076176798343798
-0.11177572275338202 0.015735869915075775 -0.03730559897200675
-0.1203818914107827 0.012350804082291824 -0.03384942996057551
-0.04292637349417652 0.042816396577347406 -0.06495495106345661
-0.05080350659511335 0.037029788398737835 -0.06356360143634666
-0.058680639696050176 0.031243180220128265 -0.06217225180923671
-0.066557772796987 0.0254565720415187 -0.060780902182126756
-0.07443490589792383 0.019669963862909125 -0.059389552555016795
-0.08231203899886066 0.013883355684299553 -0.05799820292790684
-0.09018917209979749 0.008096747505689986 -0.056606853300796886
-0.09806630520073432 0.0023101393270804024 -0.05521550367368694
-0.10594343830167113 -0.003476468851529161 -0.05382415404657698
-0.11382057140260798 -0.009263077030138738 -0.05243280441946702
-0.04292637349417652 0.042816396577347406 -0.06495495106345661
-0.04922086144084951 0.035255314837541685 -0.06577919514177917
-0.0555153493875225 0.027694233097735964 -0.06660343922010172
-0.06180983733419548 0.020133151357930243 -0.06742768329842426
-0.06810432528086847 0.012572069618124517 -0.0682519273767468
-0.07439881322754145 0.005010987878318797 -0.06907617145506935
-0.08069330117421444 -0.0025500938614869246 -0.0699004155333919
-0.08698778912088743 -0.010111175601292653 -0.07072465961171444
-0.09328227706756041 -0.017672257341098372 -0.07154890369003698
-0.0995767650142334 -0.025233339080904086 -0.07237314776835953
-0.04292637349417652 0.042816396577347406 -0.06495495106345661
-0.046956110848519965 0.03430020180512481 -0.0679054692118608
-0.050985848202863414 0.025784007032902213 -0.07085598736026498
-0.055015585557206856 0.017267812260679617 -0.07380650550866916
-0.059045322911550305 0.008751617488457016 -0.07675702365707333
-0.06307506026589374 0.0002354227162344273 -0.07970754180547751
-0.06710479762023719 -0.008280772055988176 -0.08265805995388169
-0.07113453497458064 -0.01679696682821077 -0.08560857810228586
-0.07516427232892409 -0.025313161600433374 -0.08855909625069004
-0.07919400968326752 -0.03382935637265597 -0.09150961439909423
-0.04292637349417652 0.042816396577347406 -0.06495495106345661
-0.044254675686029796 0.034267950618655243 -0.06971200885855668
-0.04558297787788307 0.025719504659963085 -0.07446906665365674
-0.04691128006973634 0.017171058701270926 -0.0792261244487568
-0.048239582261589614 0.008622612742578759 -0.08398318224385687
-0.04956788445344289 7.416678388659738e-05 -0.08874024003895693
-0.05089618664529616 -0.008474279174805558 -0.093497297834057
-0.052224488837149426 -0.01702272513349772 -0.09825435562915705
-0.05355279102900271 -0.025571171092189888 -0.10301141342425711
-0.054881093220855964 -0.034119617050882046 -0.10776847121935718
-0.04292637349417652 0.042816396577347406 -0.06495495106345661
-0.041409298370320216 0.03516205619461569 -0.07100304747979652
-0.039892223246463916 0.027507715811883975 -0.07705114389613643
-0.03837514812260761 0.01985337542915226 -0.08309924031247634
-0.0368580729987513 0.01219903504642054 -0.08914733672881625
-0.035340997874894996 0.004544694663688824 -0.09519543314515616
-0.033823922751038696 -0.0031096457190428937 -0.10124352956149607
-0.03230684762718239 -0.010763986101774611 -0.10729162597783598
-0.030789772503326082 -0.018418326484506326 -0.11333972239417589
-0.029272697379469782 -0.026072666867238043 -0.1193878188105158
-0.04292637349417652 0.042816396577347406 -0.06495495106345661
-0.03872831968412641 0.036885628320373384 -0.07163868100844077
-0.0345302658740763 0.030954860063399356 -0.07832241095342492
-0.030332212064026188 0.025024091806425335 -0.08500614089840906
-0.026134158253976074 0.019093323549451306 -0.09168987084339322
-0.021936104443925963 0.01316255529247728 -0.09837360078837737
-0.017738050633875853 0.007231787035503259 -0.10505733073336151
-0.013539996823825735 0.0013010187785292306 -0.11174106067834567
-0.009341943013775625 -0.0046297494784447975 -0.11842479062332983
-0.005143889203725515 -0.01056051773541882 -0.12510852056831398
-0.04292637349417652 0.042816396577347406 -0.06495495106345661
-0.03650226526776796 0.03925189121212542 -0.0715500286887904
-0.03007815704135939 0.03568738584690343 -0.07814510631412418
-0.02365404881495082 0.03212288048168144 -0.08474018393945795
-0.017229940588542256 0.02855837511645945 -0.09133526156479173
-0.010805832362133685 0.02499386975123746 -0.0979303391901255
-0.004381724135725116 0.021429364386015472 -0.1045254168154593
0.0020423840906834472 0.017864859020793482 -0.11112049444079307
0.008466492317092011 0.014300353655571493 -0.11771557206612684
0.014890600543500589 0.010735848290349495 -0.12431064969146063
0.04292637349417652 -0.042816396577347406 0.06495495106345661
0.04935048172058509 -0.04638090194256939 0.05835987343812284
0.05577458994699366 -0.04994540730779138 0.05176479581278906
0.062198698173402234 -0.053509912673013374 0.04516971818745528
0.0686228063998108 -0.05707441803823536 0.0385746405621215
0.07504691462621937 -0.06063892340345735 0.03197956293678773
0.08147102285262794 -0.06420342876867934 0.025384485311453944
0.0878951310790365 -0.06776793413390132 0.01878940768612017
0.09431923930544507 -0.07133243949912331 0.012194330060786393
0.10074334753185366 -0.0748969448643453 0.0055992524354526035
0.04292637349417652 -0.042816396577347406 0.06495495106345661
0.050880384330302626 -0.04362836958549613 0.05916320475165124
0.05883439516642873 -0.044440342593644856 0.05337145843984586
0.06678840600255484 -0.04525231560179358 0.04757971212804048
0.07474241683868094 -0.04606428860994231 0.04178796581623509
0.08269642767480705 -0.04687626161809103 0.03599621950442971
0.09065043851093314 -0.04768823462623975 0.030204473192624336
0.09860444934705925 -0.048500207634388476 0.024412726880818948
0.10655846018318535 -0.0493121806425372 0.018620980569013568
0.11451247101931146 -0.050124153650685926 0.01282923425720818
0.04292637349417652 -0.042816396577347406 0.06495495106345661
0.05154834644673146 -0.04078784735393061 0.060594161646267214
0.060170319399286396 -0.038759298130513806 0.056233372229077816
0.06879229235184132 -0.036730748907097 0.05187258281188842
0.07741426530439627 -0.0347021996836802 0.04751179339469901
0.0860362382569512 -0.0326736504602634 0.04315100397750961
0.09465821120950613 -0.030645101236846595 0.03879021456032022
0.10328018416206106 -0.028616552013429802 0.03442942514313081
0.111902157114616 -0.026588002790012995 0.030068635725941407
0.12052413006717091 -0.0245594535665962 0.02570784630875201
0.04292637349417652 -0.042816396577347406 0.06495495106345661
0.05128198401005639 -0.038167149906906596 0.0624976777388552
0.059637594525936255 -0.033517903236465786 0.06004040441425379
0.06799320504181612 -0.028868656566024976 0.05758313108965237
0.07634881555769599 -0.02421940989558417 0.05512585776505096
0.08470442607357585 -0.019570163225143353 0.05266858444044954
0.09306003658945572 -0.014920916554702542 0.050211311115848124
0.10141564710533557 -0.010271669884261725 0.04775403779124671
0.10977125762121544 -0.00562242321382093 0.045296764466645295
0.1181268681370953 -0.0009731765433800995 0.042839491142043884
0.04292637349417652 -0.042816396577347406 0.06495495106345661
0.05011016152333021 -0.03605027047711983 0.0646674775246879
0.057293949552483896 -0.029284144376892262 0.06438000398591918
0.06447773758163758 -0.02251801827666469 0.06409253044715048
0.07166152561079127 -0.015751892176437115 0.06380505690838176
0.07884531363994496 -0.00898576607620954 0.06351758336961305
0.08602910166909865 -0.0022196399759819665 0.06323010983084433
0.09321288969825234 0.0045464861242456 0.06294263629207561
0.10039667772740601 0.011312612224473181 0.0626551627533069
0.1075804657565597 0.018078738324700753 0.06236768921453819
0.04292637349417652 -0.042816396577347406 0.06495495106345661
0.04815986413568902 -0.034666605797556385 0.06686842952905774
0.05339335477720151 -0.026516815017765368 0.06878190799465886
0.058626845418714005 -0.018367024237974348 0.07069538646025998
0.0638603360602265 -0.010217233458183326 0.0726088649258611
0.069093826701739 -0.0020674426783923055 0.07452234339146223
0.07432731734325149 0.0060823481013987145 0.07643582185706335
0.07956080798476398 0.014232138881189743 0.07834930032266448
0.08479429862627648 0.022381929660980755 0.0802627787882656
0.09002778926778897 0.030531720440771782 0.08217625725386672
0.04292637349417652 -0.042816396577347406 0.06495495106345661
0.045642436831065704 -0.03416609740601657 0.06886202645100216
0.04835850016795488 -0.02551579823468572 0.0727691018385477
0.05107456350484406 -0.01686549906335488 0.07667617722609325
0.05379062684173324 -0.008215199892024032 0.0805832526136388
0.056506690178622414 0.00043509927930681275 0.08449032800118435
0.05922275351551159 0.009085398450637652 0.0883974033887299
0.06193881685240076 0.01773569762196849 0.09230447877627544
0.06465488018928996 0.02638599679329934 0.09621155416382099
0.06737094352617913 0.03503629596463018 0.10011862955136654
0.04292637349417652 -0.042816396577347406 0.06495495106345661
0.04283068191982552 -0.03460298315291158 0.07043223113018503
0.04273499034547451 -0.026389569728475757 0.07590951119691344
0.042639298771123504 -0.01817615630403993 0.08138679126364184
0.0425436071967725 -0.009962742879604103 0.08686407133037026
0.04244791562242149 -0.0017493294551682674 0.09234135139709868
0.04235222404807049 0.006464083969267548 0.09781863146382708
0.04225653247371948 0.014677497393703378 0.10329591153055549
0.042160840899368474 0.0228909108181392 0.10877319159728391
0.04206514932501747 0.031104324242575022 0.11425047166401232
0.04292637349417652 -0.042816396577347406 0.06495495106345661
0.04002929667547402 -0.035929919688584534 0.07140888752538094
0.03713221985677152 -0.029043442799821663 0.07786282398730526
0.03423514303806902 -0.022156965911058795 0.08431676044922959
0.03133806621936653 -0.015270489022295919 0.09077069691115391
0.028440989400664026 -0.00838401213353305 0.09722463337307824
0.025543912581961526 -0.00149753524477018 0.10367856983500257
0.02264683576325903 0.005388941643992698 0.11013250629692689
0.01974975894455653 0.01227541853275557 0.11658644275885122
0.016852682125854036 0.01916189542151844 0.12304037922077553
0.04292637349417652 -0.042816396577347406 0.06495495106345661
0.037541854657207434 -0.0380031128498535 0.07168615976178504
0.03215733582023835 -0.03318982912235959 0.07841736846011346
0.026772816983269263 -0.02837654539486568 0.08514857715844189
0.021388298146300173 -0.023563261667371774 0.0918797858567703
0.01600377930933108 -0.01874997793987786 0.09861099455509872
0.010619260472362002 -0.013936694212383952 0.10534220325342715
0.005234741635392907 -0.009123410484890038 0.11207341195175557
-0.00014977720157617548 -0.004310126757396139 0.11880462065008399
-0.005534296038545271 0.0005031569700977752 0.12553582934841243
0.04292637349417652 -0.042816396577347406 0.06495495106345661
0.0356379088043446 -0.0405978999887886 0.07123400109026091
0.02834944411451267 -0.03837940340022979 0.0775130511170652
0.021060979424680746 -0.03616090681167099 0.0837921011438695
0.01377251473484882 -0.03394241022311219 0.09007115117067378
0.006484050045016899 -0.031723913634553375 0.09635020119747809
-0.0008044146448150304 -0.029505417045994572 0.10262925122428236
-0.008092879334646953 -0.027286920457435766 0.10890830125108666
-0.015381344024478882 -0.025068423868876963 0.11518735127789095
-0.022669808714310805 -0.02284992728031816 0.12146640130469524
0.04292637349417652 -0.042816396577347406 0.06495495106345661
0.034523781192807 -0.043433095656615406 0.07010140991883286
0.026121188891437486 -0.0440497947358834 0.0752478687742091
0.017718596590067963 -0.04466649381515139 0.08039432762958534
0.00931600428869845 -0.04528319289441939 0.08554078648496158
0.0009134119873289305 -0.045899891973687386 0.09068724534033783
-0.007489180314040596 -0.04651659105295538 0.09583370419571406
-0.015891772615410096 -0.04713329013222337 0.1009801630510903
-0.024294364916779623 -0.04774998921149137 0.10612662190646655
-0.03269695721814915 -0.048366688290759366 0.11127308076184278
0.04292637349417652 -0.042816396577347406 0.06495495106345661
0.034320204836775836 -0.046201462410131365 0.06841112007488785
0.02571403617937515 -0.04958652824291532 0.07186728908631909
0.017107867521974462 -0.05297159407569927 0.07532345809775032
0.008501698864573776 -0.05635665990848322 0.07877962710918156
-0.00010446979282691049 -0.059741725741267175 0.08223579612061278
-0.008710638450227598 -0.06312679157405113 0.08569196513204402
-0.017316807107628285 -0.06651185740683509 0.08914813414347525
-0.02592297576502897 -0.06989692323961905 0.09260430315490649
-0.03452914442242966 -0.07328198907240299 0.09606047216633773
0.04292637349417652 -0.042816396577347406 0.06495495106345661
0.0350492403932397 -0.048603004755956976 0.06634630069056657
0.02717210729230287 -0.05438961293456655 0.06773765031767653
0.01929497419136604 -0.060176221113176116 0.06912899994478648
0.011417841090429218 -0.0659628292917857 0.07052034957189644
0.003540707989492382 -0.07174943747039526 0.07191169919900639
-0.004336425111444441 -0.07753604564900483 0.07330304882611635
-0.012213558212381272 -0.08332265382761442 0.0746943984532263
-0.020090691313318088 -0.08910926200622397 0.07608574808033626
-0.027967824414254938 -0.09489587018483356 0.07747709770744621
0.04292637349417652 -0.042816396577347406 0.06495495106345661
0.03663188554750354 -0.05037747831715313 0.06413070698513407
0.03033739760083055 -0.057938560056958854 0.06330646290681152
0.024042909654157566 -0.06549964179676457 0.062482218828488985
0.017748421707484578 -0.0730607235365703 0.06165797475016643
0.011453933760811594 -0.08062180527637602 0.06083373067184389
0.00515944581413861 -0.08818288701618174 0.060009486593521344
-0.0011350421325343814 -0.09574396875598747 0.0591852425151988
-0.007429530079207366 -0.1033050504957932 0.058360998436876255
-0.013724018025880351 -0.11086613223559891 0.05753675435855371
0.04292637349417652 -0.042816396577347406 0.06495495106345661
0.03889663613983308 -0.05133259134957001 0.06200443291505244
0.03486689878548963 -0.059848786121792605 0.05905391476664826
0.03083716143114619 -0.0683649808940152 0.05610339661824408
0.026807424076802745 -0.0768811756662378 0.053152878469839904
0.022777686722459306 -0.0853973704384604 0.05020236032143573
0.018747949368115857 -0.09391356521068299 0.04725184217303154
0.014718212013772415 -0.10242975998290559 0.044301324024627366
0.010688474659428966 -0.1109459547551282 0.04135080587622319
0.006658737305085525 -0.11946214952735079 0.038400287727819005
0.04292637349417652 -0.042816396577347406 0.06495495106345661
0.04159807130232325 -0.05136484253603957 0.060197893268356555
0.04026976911046998 -0.05991328849473173 0.05544083547325649
0.038941466918616705 -0.06846173445342389 0.05068377767815643
0.03761316472676343 -0.07701018041211606 0.04592671988305637
0.036284862534910166 -0.08555862637080822 0.0411696620879563
0.03495656034305689 -0.09410707232950037 0.03641260429285624
0.03362825815120362 -0.10265551828819254 0.03165554649775618
0.03229995595935034 -0.11120396424688471 0.02689848870265612
0.03097165376749708 -0.11975241020557686 0.022141430907556055
0.04292637349417652 -0.042816396577347406 0.06495495106345661
0.04444344861803283 -0.05047073696007912 0.05890685464711671
0.04596052374188914 -0.05812507734281084 0.0528587582307768
0.047477598865745436 -0.06577941772554256 0.04681066181443689
0.04899467398960174 -0.07343375810827428 0.04076256539809698
0.05051174911345805 -0.081088098491006 0.03471446898175707
0.05202882423731436 -0.08874243887373771 0.02866637256541716
0.053545899361170664 -0.09639677925646943 0.022618276149077257
0.055062974485026964 -0.10405111963920115 0.016570179732737347
0.056580049608883264 -0.11170546002193286 0.010522083316397438
0.04292637349417652 -0.042816396577347406 0.06495495106345661
0.04712442730422663 -0.048747164834321434 0.058271221118472466
0.05132248111427675 -0.05467793309129546 0.05158749117348831
0.05552053492432686 -0.060608701348269484 0.04490376122850417
0.05971858873437697 -0.06653946960524351 0.03822003128352001
0.06391664254442708 -0.07247023786221754 0.03153630133853586
0.0681146963544772 -0.07840100611919155 0.024852571393551716
0.07231275016452732 -0.08433177437616558 0.018168841448567556
0.07651080397457742 -0.09026254263313961 0.011485111503583403
0.08070885778462754 -0.09619331089011364 0.004801381558599251
0.04292637349417652 -0.042816396577347406 0.06495495106345661
0.04935048172058509 -0.0463809019425694 0.05835987343812284
0.055774589946993657 -0.04994540730779139 0.05176479581278906
0.06219869817340223 -0.053509912673013374 0.04516971818745528
0.06862280639981079 -0.05707441803823537 0.0385746405621215
0.07504691462621936 -0.060638923403457355 0.03197956293678773
0.08147102285262793 -0.06420342876867935 0.025384485311453944
0.0878951310790365 -0.06776793413390134 0.01878940768612017
0.09431923930544506 -0.07133243949912332 0.012194330060786393
0.10074334753185364 -0.07489694486434532 0.0055992524354526035
