# .PCD v0.7 - Point Cloud Data file format
VERSION 0.7
FIELDS x y z
SIZE 4 4 4
TYPE F F F
COUNT 1 1 1
WIDTH 700
HEIGHT 1
VIEWPOINT 0 0 0 1 0 0 0
POINTS 700
DATA ascii
0.13781744760304399 0.04844336150204805 -0.09821955337179915
0.12415576260841991 0.07124441141861722 -0.10245520608894437
0.10600209456133844 0.09044893885255607 -0.10756409350265178
0.0842052888033282 0.10515896144535287 -0.11330732971557693
0.05978453974622412 0.11468665488958422 -0.11941636738555204
0.0338817344742232 0.11858651482906864 -0.12560555470083679
0.007708059372943902 0.1166761881474188 -0.1315854921413561
-0.01751263359982844 0.10904499959709305 -0.13707656447861435
-0.04060105287147401 0.09604977507324773 -0.14182201527300997
-0.06047760961778558 0.07829815683146314 -0.14559995251958674
-0.07621289813651176 0.05662019081121854 -0.1482337240715704
-0.087071153825034 0.03202951461029176 -0.14960017769841705
-0.09254465671544146 0.005675960917264524 -0.14963541954723944
-0.09237747189594017 -0.021208207387048376 -0.14833780174835515
-0.08657741674287746 -0.04736591647234424 -0.1457679994678414
-0.07541569538891221 -0.07157406093400029 -0.14204617380420495
-0.05941421751919362 -0.09270069484240957 -0.13734635318896526
-0.0393211944545443 -0.10975796027658197 -0.13188829601061555
-0.016076153621676217 -0.12194827846260449 -0.12592721495662054
0.009233992705073083 -0.12870164367066428 -0.11974184355179937
0.03542577021367208 -0.12970227604945878 -0.11362140288849487
0.06127448049788854 -0.12490338714107861 -0.10785207796974193
0.08557146659361056 -0.11452936765729763 -0.10270363601659736
0.10718062843516268 -0.09906529521928295 -0.09841681245270795
0.12509154563169234 -0.07923425266715405 -0.09519205438345896
0.13846672360164447 -0.055963517510027705 -0.09318014791210733
0.14668075388858678 -0.03034120346028667 -0.09247516754917999
0.14934955756554075 -0.0035653814457401924 -0.09311007739291804
0.1463483443387343 0.02311194085540046 -0.09505518976467991
0.13781744760304399 0.048443361502048025 -0.09821955337179913
0.1315754856394278 0.04970378965082472 -0.07130167061660034
0.11791380064480377 0.07250483956739388 -0.07553732333374556
0.09976013259772229 0.09170936700133274 -0.08064621074745297
0.07796332683971205 0.10641938959412954 -0.08638944696037812
0.053542577782607965 0.11594708303836089 -0.09249848463035323
0.027639772510607043 0.1198469429778453 -0.09868767194563798
0.0014660974093277468 0.11793661629619547 -0.10466760938615727
-0.023754595563444593 0.11030542774586971 -0.11015868172341553
-0.046843014835090166 0.0973102032220244 -0.11490413251781115
-0.06671957158140174 0.07955858498023981 -0.11868206976438793
-0.08245486010012791 0.0578806189599952 -0.12131584131637159
-0.09331311578865015 0.03328994275906842 -0.12268229494321824
-0.09878661867905761 0.006936389066041189 -0.12271753679204063
-0.09861943385955632 -0.01994777923827171 -0.12141991899315634
-0.09281937870649361 -0.046105488323567576 -0.1188501167126426
-0.08165765735252836 -0.07031363278522362 -0.11512829104900613
-0.06565617948280977 -0.09144026669363291 -0.11042847043376645
-0.04556315641816046 -0.1084975321278053 -0.10497041325541673
-0.02231811558529237 -0.12068785031382782 -0.09900933220142175
0.002992030741456929 -0.1274412155218876 -0.09282396079660056
0.029183808250055926 -0.1284418479006821 -0.08670352013329606
0.055032518534272386 -0.12364295899230195 -0.08093419521454312
0.0793295046299944 -0.11326893950852096 -0.07578575326139855
0.10093866647154653 -0.09780486707050629 -0.07149892969750914
0.11884958366807617 -0.07797382451837738 -0.06827417162826015
0.13222476163802832 -0.05470308936125104 -0.06626226515690851
0.1404387919249706 -0.029080775311510005 -0.06555728479398118
0.14310759560192457 -0.002304953296963527 -0.06619219463771923
0.14010638237511816 0.024372369004177125 -0.0681373070094811
0.13157548563942784 0.04970378965082469 -0.07130167061660032
0.12533352367581166 0.050964217799601384 -0.044383787861401534
0.11167183868118762 0.07376526771617055 -0.048619440578546766
0.09351817063410614 0.0929697951501094 -0.053728327992254174
0.0717213648760959 0.1076798177429062 -0.05947156420517932
0.04730061581899181 0.11720751118713756 -0.06558060187515444
0.02139781054699089 0.12110737112662197 -0.07176978919043918
-0.004775864554288405 0.11919704444497213 -0.07774972663095847
-0.029996557527060746 0.11156585589464638 -0.08324079896821673
-0.05308497679870632 0.09857063137080106 -0.08798624976261235
-0.07296153354501789 0.08081901312901647 -0.09176418700918913
-0.08869682206374406 0.05914104710877187 -0.09439795856117279
-0.0995550777522663 0.03455037090784509 -0.09576441218801944
-0.10502858064267376 0.008196817214817855 -0.09579965403684183
-0.10486139582317247 -0.018687351089495048 -0.09450203623795754
-0.09906134067010976 -0.04484506017479091 -0.0919322339574438
-0.08789961931614451 -0.06905320463644696 -0.08821040829380733
-0.07189814144642592 -0.09017983854485624 -0.08351058767856766
-0.051805118381776614 -0.10723710397902864 -0.07805253050021793
-0.028560077548908522 -0.11942742216505116 -0.07209144944622295
-0.0032499312221592235 -0.12618078737311095 -0.06590607804140176
0.022941846286439773 -0.12718141975190544 -0.059785637378097264
0.04879055657065623 -0.12238253084352528 -0.05401631245934433
0.07308754266637825 -0.1120085113597443 -0.048867870506199756
0.09469670450793038 -0.09654443892172962 -0.04458104694231034
0.11260762170446002 -0.07671339636960071 -0.04135628887306136
0.12598279967441217 -0.053442661212474374 -0.03934438240170972
0.13419682996135446 -0.027820347162733343 -0.03863940203878238
0.13686563363830842 -0.001044525148186862 -0.039274311882520445
0.133864420411502 0.025632797152953787 -0.04121942425428231
0.1253335236758117 0.050964217799601357 -0.044383787861401534
0.11909156171219552 0.05222464594837805 -0.01746590510620274
0.10542987671757147 0.07502569586494721 -0.021701557823347973
0.08727620867048999 0.09423022329888607 -0.026810445237055378
0.06547940291247975 0.10894024589168287 -0.03255368144998053
0.04105865385537566 0.11846793933591422 -0.03866271911995564
0.015155848583374737 0.12236779927539863 -0.04485190643524038
-0.011017826517904557 0.1204574725937488 -0.050831843875759675
-0.0362385194906769 0.11282628404342304 -0.05632291621301794
-0.05932693876232247 0.09983105951957773 -0.06106836700741356
-0.07920349550863404 0.08207944127779314 -0.06484630425399034
-0.09493878402736021 0.060401475257548534 -0.067480075805974
-0.10579703971588245 0.03581079905662175 -0.06884652943282064
-0.11127054260628991 0.009457245363594519 -0.06888177128164304
-0.11110335778678862 -0.017426922940718383 -0.06758415348275874
-0.1053033026337259 -0.043584632026014244 -0.06501435120224501
-0.09414158127976066 -0.06779277648767029 -0.06129252553860854
-0.07814010341004207 -0.08891941039607958 -0.05659270492336887
-0.058047080345392764 -0.10597667583025197 -0.05113464774501914
-0.034802039512524675 -0.1181669940162745 -0.04517356669102415
-0.009491893185775375 -0.12492035922433428 -0.038988195286202974
0.01669988432282362 -0.12592099160312878 -0.03286775462289847
0.04254859460704008 -0.12112210269474862 -0.027098429704145534
0.0668455807027621 -0.11074808321096763 -0.021949987751000963
0.08845474254431424 -0.09528401077295295 -0.017663164187111544
0.10636565974084387 -0.07545296822082405 -0.014438406117862559
0.11974083771079602 -0.05218223306369771 -0.01242649964651092
0.1279548679977383 -0.026559919013956677 -0.011721519283583589
0.13062367167469227 0.00021590300058980285 -0.012356429127321647
0.12762245844788586 0.026893225301730453 -0.014301541499083513
0.11909156171219554 0.05222464594837802 -0.017465905106202738
0.11284959974857936 0.053485074097154715 0.009451977648996064
0.0991879147539553 0.07628612401372388 0.005216324931850832
0.08103424670687383 0.09549065144766274 0.00010743751814342631
0.05923744094886359 0.11020067404045954 -0.005635798694781726
0.0348166918917595 0.11972836748469089 -0.011744836364756834
0.008913886619758582 0.1236282274241753 -0.01793402368004158
-0.01725978848152071 0.12171790074252546 -0.02391396112056087
-0.042480481454293055 0.11408671219219971 -0.029405033457819134
-0.06556890072593863 0.1010914876683544 -0.03415048425221476
-0.0854454574722502 0.0833398694265698 -0.03792842149879153
-0.10118074599097637 0.0616619034063252 -0.0405621930507752
-0.11203900167949861 0.03707122720539842 -0.04192864667762184
-0.11751250456990607 0.010717673512371184 -0.04196388852644423
-0.11734531975040478 -0.016166494791941717 -0.04066627072755994
-0.11154526459734207 -0.04232420387723758 -0.0380964684470462
-0.10038354324337682 -0.06653234833889363 -0.03437464278340974
-0.08438206537365824 -0.08765898224730291 -0.02967482216817006
-0.06428904230900892 -0.1047162476814753 -0.024216764989820335
-0.04104400147614083 -0.11690656586749783 -0.018255683935825346
-0.01573385514939153 -0.12365993107555762 -0.012070312531004171
0.010457922359207466 -0.12466056345435213 -0.005949871867699663
0.036306632643423924 -0.11986167454597195 -0.00018054694894672997
0.060603618739145944 -0.10948765506219096 0.004967895004197842
0.08221278058069807 -0.09402358262417629 0.009254718568087262
0.10012369777722771 -0.07419254007204738 0.012479476637336244
0.11349887574717986 -0.05092180491492104 0.014491383108687883
0.12171290603412216 -0.025299490865180012 0.015196363471615215
0.12438170971107612 0.001476331149366468 0.014561453627877157
0.1213804964842697 0.02815365345050712 0.01261634125611529
0.11284959974857937 0.05348507409715469 0.009451977648996067
0.10660763778496321 0.05474550224593138 0.03636986040419487
0.09294595279033915 0.07754655216250055 0.03213420768704964
0.07479228474325768 0.0967510795964394 0.027025320273342233
0.05299547898524744 0.1114611021892362 0.02128208406041708
0.02857472992814335 0.12098879563346755 0.015173046390441973
0.0026719246561424286 0.12488865557295196 0.008983859075157228
-0.023501750445136867 0.12297832889130213 0.0030039216346379335
-0.048722443417909204 0.11534714034097637 -0.002487150702620329
-0.07181086268955478 0.10235191581713106 -0.007232601497015949
-0.09168741943586635 0.08460029757534647 -0.011010538743592724
-0.10742270795459252 0.06292233155510187 -0.013644310295576391
-0.11828096364311476 0.038331655354175084 -0.015010763922423032
-0.12375446653352222 0.01197810166114785 -0.015046005771245425
-0.12358728171402093 -0.014906066643165052 -0.013748387972361135
-0.11778722656095822 -0.04106377572846091 -0.011178585691847395
-0.10662550520699297 -0.06527192019011696 -0.007456760028210928
-0.09062402733727438 -0.08639855409852625 -0.0027569394129712565
-0.07053100427262507 -0.10345581953269864 0.0027011177653784714
-0.04728596343975698 -0.11564613771872116 0.00866219881937346
-0.021975817113007685 -0.12239950292678095 0.014847570224194636
0.004215960395591312 -0.12340013530557546 0.020968010887499142
0.03006467067980777 -0.11860124639719528 0.026737335806252076
0.054361656775529794 -0.1082272269134143 0.03188577775939665
0.07597081861708192 -0.09276315447539962 0.03617260132328607
0.09388173581361156 -0.07293211192327072 0.03939735939253505
0.10725691378356371 -0.04966137676614438 0.04140926586388669
0.11547094407050601 -0.024039062716403346 0.04211424622681402
0.11813974774745997 0.0027367592981431335 0.041479336383075965
0.11513853452065355 0.029414081599283784 0.039534224011314095
0.10660763778496322 0.05474550224593135 0.036369860404194876
0.10036567582134706 0.056005930394708046 0.06328774315939366
0.086703990826723 0.07880698031127721 0.05905209044224843
0.06855032277964153 0.09801150774521607 0.053943203028541026
0.04675351702163128 0.11272153033801287 0.04819996681561587
0.0223327679645272 0.12224922378224422 0.04209092914564076
-0.003570037307473722 0.12614908372172862 0.03590174183035602
-0.029743712408753016 0.12423875704007879 0.029921804389836725
-0.05496440538152536 0.11660756848975304 0.024430732052578463
-0.07805282465317093 0.10361234396590772 0.019685281258182842
-0.0979293813994825 0.08586072572412314 0.015907344011606067
-0.11366466991820867 0.06418275970387853 0.0132735724596224
-0.12452292560673091 0.03959208350295175 0.01190711883277576
-0.12999642849713838 0.013238529809924513 0.011871876983953367
-0.1298292436776371 -0.013645638494388388 0.013169494782837656
-0.12402918852457437 -0.03980334757968425 0.015739297063351396
-0.11286746717060912 -0.0640114920413403 0.019461122726987863
-0.09686598930089053 -0.08513812594974958 0.024160943342227535
-0.07677296623624122 -0.10219539138392197 0.02961900052057726
-0.05352792540337314 -0.1143857095699445 0.03558008157457225
-0.028217779076623834 -0.12113907477800429 0.04176545297939343
-0.002026001568024839 -0.1221397071567988 0.047885893642697935
0.02382270871619162 -0.11734081824841862 0.05365521856145087
0.04811969481191364 -0.10696679876463763 0.058803660514595436
0.06972885665346577 -0.09150272632662296 0.06309048407848486
0.08763977384999541 -0.07167168377449405 0.06631524214773384
0.10101495181994756 -0.04840094861736771 0.06832714861908548
0.10922898210688986 -0.02277863456762668 0.06903212898201282
0.11189778578384382 0.003997187446919798 0.06839721913827475
0.1088965725570374 0.03067450974806045 0.06645210676651289
0.10036567582134708 0.05600593039470802 0.06328774315939366
0.0941237138577309 0.05726635854348471 0.09020562591459247
0.08046202886310684 0.08006740846005388 0.08596997319744724
0.06230836081602537 0.09927193589399273 0.08086108578373984
0.04051155505801513 0.11398195848678953 0.07511784957081467
0.016090806000911045 0.12350965193102088 0.06900881190083957
-0.009811999271089878 0.12740951187050528 0.06281962458555483
-0.03598567437236917 0.12549918518885544 0.05683968714503553
-0.06120636734514151 0.1178679966385297 0.05134861480777727
-0.08429478661678709 0.10487277211468439 0.04660316401338165
-0.10417134336309866 0.0871211538728998 0.04282522676680488
-0.11990663188182484 0.0654431878526552 0.04019145521482121
-0.13076488757034707 0.040852511651728415 0.03882500158797457
-0.13623839046075453 0.014498957958701179 0.03878975973915218
-0.13607120564125325 -0.012385210345611722 0.04008737753803646
-0.13027115048819052 -0.03854291943090758 0.0426571798185502
-0.11910942913422529 -0.06275106389256363 0.04637900548218667
-0.1031079512645067 -0.08387769780097291 0.051078826097426346
-0.08301492819985738 -0.10093496323514531 0.05653688327577607
-0.05976988736698929 -0.11312528142116783 0.06249796432977106
-0.03445974104023999 -0.11987864662922762 0.06868333573459223
-0.008267963531640995 -0.12087927900802213 0.07480377639789675
0.017580746752575465 -0.11608039009964195 0.08057310131664967
0.04187773284829749 -0.10570637061586097 0.08572154326979425
0.06348689468984961 -0.09024229817784629 0.09000836683368367
0.08139781188637925 -0.07041125562571739 0.09323312490293265
0.0947729898563314 -0.047140520468591046 0.09524503137428429
0.1029870201432737 -0.021518206418850015 0.09595001173721163
0.10565582382022766 0.005257615595696464 0.09531510189347356
0.10265461059342124 0.031934937896837115 0.0933699895217117
0.09412371385773091 0.057266358543484684 0.09020562591459247
0.08788175189411475 0.05852678669226138 0.11712350866979127
0.07422006689949069 0.08132783660883054 0.11288785595264604
0.056066398852409216 0.1005323640427694 0.10777896853893863
0.034269593094398976 0.1152423866355662 0.10203573232601347
0.009848844037294894 0.12477008007979755 0.09592669465603837
-0.01605396123470603 0.12866994001928195 0.08973750734075363
-0.04222763633598532 0.1267596133376321 0.08375756990023434
-0.06744832930875766 0.11912842478730637 0.07826649756297607
-0.09053674858040324 0.10613320026346106 0.07352104676858044
-0.11041330532671481 0.08838158202167647 0.06974310952200367
-0.12614859384544097 0.06670361600143186 0.06710933797002
-0.13700684953396322 0.04211293980050508 0.06574288434317337
-0.14248035242437068 0.015759386107477843 0.06570764249435097
-0.1423131676048694 -0.011124782196835057 0.06700526029323527
-0.13651311245180667 -0.03728249128213092 0.069575062573749
-0.12535139109784144 -0.061490635743786964 0.07329688823738546
-0.10934991322812285 -0.08261726965219625 0.07799670885262514
-0.08925689016347353 -0.09967453508636864 0.08345476603097486
-0.06601184933060544 -0.11186485327239117 0.08941584708496986
-0.04070170300385614 -0.11861821848045095 0.09560121848979103
-0.014509925495257146 -0.11961885085924547 0.10172165915309554
0.011338784788959314 -0.11481996195086529 0.10749098407184847
0.03563577088468133 -0.1044459424670843 0.11263942602499305
0.05724493272623346 -0.08898187002906963 0.11692624958888247
0.0751558499227631 -0.06915082747694072 0.12015100765813144
0.08853102789271525 -0.04588009231981438 0.12216291412948309
0.09674505817965755 -0.020257778270073353 0.12286789449241042
0.09941386185661151 0.006518043744473128 0.12223298464867235
0.09641264862980509 0.03319536604561378 0.1202878722769105
0.08788175189411476 0.05852678669226135 0.11712350866979127
0.0816397899304986 0.05978721484103804 0.1440413914249901
0.06797810493587454 0.08258826475760721 0.13980573870784485
0.04982443688879306 0.10179279219154606 0.13469685129413744
0.028027631130782823 0.11650281478434286 0.12895361508121228
0.003606882073678738 0.1260305082285742 0.12284457741123718
-0.022295923198322184 0.1299303681680586 0.11665539009595244
-0.04846959829960148 0.12802004148640878 0.11067545265543315
-0.07369029127237382 0.12038885293608304 0.10518438031817488
-0.09677871054401939 0.10739362841223772 0.10043892952377925
-0.11665526729033096 0.08964201017045313 0.09666099227720248
-0.13239055580905715 0.06796404415020853 0.09402722072521881
-0.14324881149757937 0.043373367949281746 0.09266076709837218
-0.14872231438798683 0.01701981425625451 0.09262552524954978
-0.14855512956848554 -0.009864354048058391 0.09392314304843408
-0.14275507441542284 -0.03602206313335425 0.09649294532894781
-0.13159335306145759 -0.0602302075950103 0.10021477099258427
-0.115591875191739 -0.08135684150341958 0.10491459160782395
-0.09549885212708968 -0.09841410693759198 0.11037264878617367
-0.07225381129422159 -0.1106044251236145 0.11633372984016867
-0.0469436649674723 -0.11735779033167429 0.12251910124498984
-0.0207518874588733 -0.1183584227104688 0.12863954190829435
0.005096822825343158 -0.11355953380208862 0.13440886682704728
0.02939380892106518 -0.10318551431830764 0.13955730878019185
0.051002970762617304 -0.08772144188029296 0.14384413234408128
0.06891388795914695 -0.06789039932816406 0.14706889041333027
0.0822890659290991 -0.044619664171037715 0.1490807968846819
0.0905030962160414 -0.018997350121296688 0.14978577724760922
0.09317189989299536 0.007778471893249794 0.14915086740387118
0.09017068666618894 0.034455794194390446 0.1472057550321093
0.08163978993049861 0.059787214841038015 0.1440413914249901
0.02808882883627269 -0.005671926669494993 -0.12113047239839461
0.04028089758813617 0.0003408831273431233 -0.11858481472877289
0.05247296633999964 0.0063536929241812395 -0.11603915705915117
0.06466503509186311 0.012366502721019355 -0.11349349938952945
0.0768571038437266 0.018379312517857474 -0.11094784171990774
0.08904917259559007 0.02439212231469559 -0.10840218405028602
0.10124124134745353 0.030404932111533705 -0.1058565263806643
0.11343331009931701 0.03641774190837182 -0.10331086871104259
0.1256253788511805 0.042430551705209936 -0.10076521104142086
0.13781744760304399 0.04844336150204805 -0.09821955337179915
0.02808882883627269 -0.005671926669494993 -0.12113047239839461
0.037758046932850536 0.004054042552016484 -0.11934370459673568
0.04742726502942838 0.01378001177352796 -0.11755693679507676
0.05709648312600622 0.02350598099503944 -0.11577016899341783
0.06676570122258406 0.03323195021655091 -0.1139834011917589
0.07643491931916191 0.042957919438062396 -0.11219663339009997
0.08610413741573975 0.052683888659573866 -0.11040986558844104
0.0957733555123176 0.06240985788108534 -0.10862309778678211
0.10544257360889543 0.07213582710259682 -0.10683632998512319
0.11511179170547328 0.0818617963241083 -0.10504956218346426
0.02808882883627269 -0.005671926669494993 -0.12113047239839461
0.034187386463423446 0.0067132422975774 -0.12029621848056722
0.040285944090574205 0.019098411264649794 -0.11946196456273983
0.046384501717724964 0.03148358023172219 -0.11862771064491244
0.052483059344875724 0.04386874919879458 -0.11779345672708505
0.05858161697202648 0.05625391816586697 -0.11695920280925766
0.06468017459917723 0.06863908713293937 -0.11612494889143027
0.07077873222632798 0.08102425610001175 -0.11529069497360288
0.07687728985347875 0.09340942506708415 -0.11445644105577549
0.08297584748062953 0.10579459403415654 -0.1136221871379481
0.02808882883627269 -0.005671926669494993 -0.12113047239839461
0.029955852646223045 0.008030316809858948 -0.12133913672117863
0.0318228764561734 0.02173256028921289 -0.12154780104396266
0.03368990026612375 0.03543480376856683 -0.1217564653667467
0.03555692407607411 0.04913704724792077 -0.12196512968953072
0.03742394788602447 0.06283929072727472 -0.12217379401231475
0.03929097169597481 0.07654153420662865 -0.12238245833509877
0.04115799550592517 0.0902437776859826 -0.1225911226578828
0.043025019315875525 0.10394602116533654 -0.12279978698066683
0.04489204312582588 0.1176482646446905 -0.12300845130345085
0.02808882883627269 -0.005671926669494993 -0.12113047239839461
0.02552199782935524 0.007862540628938718 -0.12235944294465584
0.022955166822437784 0.02139700792737243 -0.12358841349091707
0.020388335815520332 0.03493147522580614 -0.1248173840371783
0.017821504808602878 0.04846594252423985 -0.12604635458343952
0.015254673801685416 0.062000409822673574 -0.12727532512970077
0.012687842794767975 0.07553487712110728 -0.128504295675962
0.010121011787850524 0.08906934441954098 -0.12973326622222323
0.007554180780933063 0.1026038117179747 -0.13096223676848445
0.0049873497740156114 0.11613827901640841 -0.13219120731474568
0.02808882883627269 -0.005671926669494993 -0.12113047239839461
0.02136629898057368 0.006228094907335094 -0.12324657114000281
0.014643769124874669 0.018128116484165183 -0.12536266988161104
0.007921239269175661 0.03002813806099527 -0.12747876862321925
0.0011987094134766488 0.041928159637825355 -0.12959486736482745
-0.005523820442222357 0.053828181214655435 -0.13171096610643565
-0.012246350297921368 0.06572820279148553 -0.13382706484804388
-0.018968880153620384 0.07762822436831562 -0.13594316358965208
-0.025691410009319394 0.0895282459451457 -0.13805926233126029
-0.0324139398650184 0.10142826752197578 -0.14017536107286852
0.02808882883627269 -0.005671926669494993 -0.12113047239839461
0.017939090552455336 0.0033040972000222373 -0.1239043872020415
0.007789352268637984 0.012280121069539468 -0.1266783020056884
-0.0023603860151793664 0.0212561449390567 -0.1294522168093353
-0.012510124298996724 0.03023216880857393 -0.1322261316129822
-0.022659862582814074 0.03920819267809116 -0.13500004641662908
-0.03280960086663142 0.04818421654760839 -0.13777396122027596
-0.04295933915044877 0.05716024041712561 -0.14054787602392285
-0.053109077434266135 0.06613626428664285 -0.14332179082756977
-0.06325881571808349 0.07511228815616008 -0.14609570563121665
0.02808882883627269 -0.005671926669494993 -0.12113047239839461
0.015611763756804774 -0.0005925919709133903 -0.12426160655338213
0.0031346986773368593 0.004486742727668212 -0.12739274070836965
-0.009342366402131052 0.009566077426249812 -0.13052387486335715
-0.021819431481598973 0.014645412124831418 -0.13365500901834468
-0.03429649656106689 0.019724746823413016 -0.13678614317333218
-0.04677356164053479 0.02480408152199462 -0.13991727732831968
-0.059250626720002704 0.02988341622057623 -0.14304841148330721
-0.07172769179947064 0.03496275091915783 -0.14617954563829472
-0.08420475687893855 0.04004208561773942 -0.14931067979328225
0.02808882883627269 -0.005671926669494993 -0.12113047239839461
0.014636520564126735 -0.005039705870438676 -0.1242795189344776
0.0011842122919807812 -0.004407485071382359 -0.12742856547056058
-0.012268095980165174 -0.003775264272326039 -0.13057761200664356
-0.02572040425231113 -0.0031430434732697254 -0.13372665854272653
-0.03917271252445708 -0.002510822674213405 -0.13687570507880953
-0.052625020796603035 -0.0018786018751570845 -0.1400247516148925
-0.066077329068749 -0.0012463810761007745 -0.1431737981509755
-0.07952963734089495 -0.0006141602770444575 -0.14632284468705847
-0.0929819456130409 1.8060522011859475e-05 -0.14947189122314145
0.02808882883627269 -0.005671926669494993 -0.12113047239839461
0.01511904370680517 -0.009555330703458159 -0.12395618326089698
0.002149258577337652 -0.013438734737421324 -0.12678189412339935
-0.010820526552129863 -0.017322138771384485 -0.12960760498590174
-0.023790311681597388 -0.021205542805347657 -0.13243331584840412
-0.03676009681106491 -0.025088946839310823 -0.1352590267109065
-0.04972988194053241 -0.02897235087327398 -0.13808473757340886
-0.06269966706999995 -0.032855754907237154 -0.14091044843591125
-0.07566945219946747 -0.03673915894120032 -0.1437361592984136
-0.088639237328935 -0.04062256297516349 -0.14656187016091599
0.02808882883627269 -0.005671926669494993 -0.12113047239839461
0.01700704431521289 -0.01365012845217563 -0.12332663796994266
0.005925259794153087 -0.021628330234856264 -0.12552280354149073
-0.005156524726906721 -0.0296065320175369 -0.12771896911303876
-0.016238309247966518 -0.03758473380021754 -0.12991513468458682
-0.02732009376902633 -0.04556293558289818 -0.13211130025613488
-0.03840187829008613 -0.05354113736557881 -0.13430746582768294
-0.04948366281114592 -0.06151933914825945 -0.136503631399231
-0.06056544733220572 -0.06949754093094009 -0.13869979697077905
-0.07164723185326553 -0.07747574271362072 -0.14089596254232709
0.02808882883627269 -0.005671926669494993 -0.12113047239839461
0.02009592822808107 -0.016880364243184 -0.12245910406229119
0.012103027619889448 -0.028088801816873003 -0.12378773572618777
0.004110127011697822 -0.03929723939056201 -0.12511636739008436
-0.0038827735964937935 -0.05050567696425102 -0.12644499905398093
-0.011875674204685428 -0.061714114537940026 -0.1277736307178775
-0.019868574812877047 -0.07292255211162903 -0.1291022623817741
-0.02786147542106866 -0.08413098968531803 -0.13043089404567068
-0.035854376029260275 -0.09533942725900704 -0.13175952570956725
-0.04384727663745192 -0.10654786483269606 -0.13308815737346383
0.02808882883627269 -0.005671926669494993 -0.12113047239839461
0.024050966944478235 -0.018895991906254933 -0.12144759229801214
0.02001310505268378 -0.03212005714301487 -0.12176471219762966
0.01597524316088933 -0.045344122379774816 -0.12208183209724718
0.011937381269094872 -0.058568187616534755 -0.12239895199686471
0.00789951937730041 -0.0717922528532947 -0.12271607189648223
0.003861657485505967 -0.08501631809005464 -0.12303319179609976
-0.00017620440628849437 -0.09824038332681458 -0.12335031169571728
-0.004214066298082945 -0.11146444856357451 -0.12366743159533482
-0.008251928189877408 -0.12468851380033448 -0.12398455149495234
0.02808882883627269 -0.005671926669494993 -0.12113047239839461
0.02844357065073404 -0.019478586908409066 -0.12040171567198729
0.028798312465195392 -0.03328524714732314 -0.11967295894557996
0.029153054279656747 -0.04709190738623722 -0.11894420221917264
0.029507796094118095 -0.060898567625151286 -0.11821544549276532
0.02986253790857945 -0.07470522786406537 -0.117486688766358
0.030217279723040804 -0.08851188810297944 -0.11675793203995068
0.030572021537502155 -0.10231854834189352 -0.11602917531354336
0.0309267633519635 -0.11612520858080758 -0.11530041858713604
0.031281505166424854 -0.12993186881972166 -0.1145716618607287
0.02808882883627269 -0.005671926669494993 -0.12113047239839461
0.03279773257700657 -0.01856501604127012 -0.11943481114509437
0.037506636317740455 -0.03145810541304525 -0.11773914989179413
0.04221554005847434 -0.04435119478482038 -0.11604348863849388
0.046924443799208224 -0.05724428415659551 -0.11434782738519364
0.0516333475399421 -0.07013737352837063 -0.11265216613189341
0.056342251280675985 -0.08303046290014576 -0.11095650487859317
0.06105115502140988 -0.0959235522719209 -0.10926084362529292
0.06576005876214375 -0.10881664164369602 -0.10756518237199268
0.07046896250287764 -0.12170973101547114 -0.10586952111869244
0.02808882883627269 -0.005671926669494993 -0.12113047239839461
0.03664161171680078 -0.016254278883805158 -0.11865165782589178
0.04519439459732888 -0.026836631098115325 -0.11617284325338895
0.05374717747785697 -0.03741898331242549 -0.11369402868088613
0.062299960358385066 -0.04800133552673566 -0.1112152141083833
0.07085274323891315 -0.05858368774104583 -0.10873639953588046
0.07940552611944124 -0.06916603995535599 -0.10625758496337764
0.08795830899996933 -0.07974839216966616 -0.10377877039087481
0.09651109188049743 -0.09033074438397633 -0.10129995581837198
0.10506387476102552 -0.1009130965982865 -0.09882114124586916
0.02808882883627269 -0.005671926669494993 -0.12113047239839461
0.03955866412138979 -0.012796779661806758 -0.11813712252839093
0.05102849940650688 -0.01992163265411852 -0.11514377265838724
0.062498334691623976 -0.027046485646430276 -0.11215042278838355
0.07396816997674106 -0.034171338638742055 -0.10915707291837987
0.08543800526185816 -0.041296191631053816 -0.1061637230483762
0.09690784054697525 -0.048421044623365564 -0.10317037317837251
0.10837767583209233 -0.05554589761567733 -0.10017702330836882
0.11984751111720944 -0.06267075060798911 -0.09718367343836513
0.13131734640232653 -0.06979560360030086 -0.09419032356836145
0.02808882883627269 -0.005671926669494993 -0.12113047239839461
0.04123278190000473 -0.008567192064606478 -0.11794696313591375
0.05437673496373676 -0.011462457459717962 -0.11476345387343291
0.06752068802746879 -0.014357722854829445 -0.11157994461095207
0.08066464109120082 -0.01725298824994093 -0.10839643534847122
0.09380859415493285 -0.02014825364505241 -0.10521292608599037
0.10695254721866487 -0.023043519040163895 -0.10202941682350952
0.12009650028239692 -0.025938784435275374 -0.09884590756102868
0.13324045334612897 -0.028834049830386867 -0.09566239829854782
0.146384406409861 -0.03172931522549835 -0.09247888903606698
0.02808882883627269 -0.005671926669494993 -0.12113047239839461
0.04148254841471887 -0.004023857537174513 -0.11810178636926218
0.05487626799316506 -0.0023757884048540324 -0.11507310034012974
0.06826998757161123 -0.0007277192725335528 -0.11204441431099732
0.08166370715005743 0.0009203498597869284 -0.10901572828186488
0.0950574267285036 0.0025684189921074112 -0.10598704225273245
0.10845114630694978 0.004216488124427887 -0.10295835622360003
0.12184486588539598 0.005864557256748381 -0.09992967019446759
0.13523858546384215 0.00751262638906885 -0.09690098416533517
0.14863230504228836 0.009160695521389333 -0.09387229813620274
0.02808882883627269 -0.005671926669494993 -0.12113047239839461
0.04028089758813617 0.0003408831273431198 -0.11858481472877289
0.05247296633999965 0.006353692924181233 -0.11603915705915117
0.06466503509186312 0.012366502721019345 -0.11349349938952945
0.0768571038437266 0.01837931251785746 -0.11094784171990774
0.08904917259559007 0.024392122314695577 -0.10840218405028601
0.10124124134745355 0.030404932111533684 -0.1058565263806643
0.11343331009931702 0.0364177419083718 -0.10331086871104259
0.12562537885118052 0.04243055170520991 -0.10076521104142086
0.13781744760304399 0.048443361502048025 -0.09821955337179913
-0.02808882883627269 0.005671926669494993 0.12113047239839461
-0.015896760084409215 0.011684736466333109 0.12367613006801632
-0.003704691332545738 0.017697546263171226 0.12622178773763804
0.008487377419317734 0.02371035606000934 0.12876744540725976
0.020679446171181216 0.029723165856847457 0.1313131030768815
0.03287151492304469 0.035735975653685574 0.1338587607465032
0.045063583674908154 0.04174878545052369 0.1364044184161249
0.05725565242677163 0.04776159524736181 0.13895007608574664
0.06944772117863512 0.053774405044199926 0.14149573375536836
0.0816397899304986 0.05978721484103804 0.1440413914249901
-0.02808882883627269 0.005671926669494993 0.12113047239839461
-0.018419610739694846 0.01539789589100647 0.12291724020005354
-0.008750392643117003 0.025123865112517945 0.12470400800171247
0.0009188254534608391 0.034849834334029425 0.1264907758033714
0.010588043550038683 0.0445758035555409 0.12827754360503033
0.020257261646616526 0.054301772777052386 0.13006431140668925
0.02992647974319437 0.06402774199856386 0.13185107920834818
0.039595697839772216 0.07375371122007533 0.1336378470100071
0.04926491593635005 0.08347968044158681 0.13542461481166604
0.0589341340329279 0.09320564966309829 0.13721138261332497
-0.02808882883627269 0.005671926669494993 0.12113047239839461
-0.021990271209121934 0.018057095636567384 0.121964726316222
-0.015891713581971174 0.030442264603639777 0.12279898023404939
-0.009793155954820418 0.04282743357071218 0.12363323415187678
-0.00369459832766966 0.055212602537784566 0.12446748806970417
0.002403959299481103 0.06759777150485696 0.12530174198753155
0.008502516926631853 0.07998294047192936 0.12613599590535896
0.014601074553782605 0.09236810943900174 0.12697024982318633
0.02069963218093337 0.10475327840607414 0.12780450374101374
0.026798189808084145 0.11713844737314653 0.1286387576588411
-0.02808882883627269 0.005671926669494993 0.12113047239839461
-0.026221805026322337 0.019374170148848933 0.12092180807561058
-0.024354781216371982 0.03307641362820288 0.12071314375282656
-0.02248775740642163 0.04677865710755682 0.12050447943004253
-0.020620733596471274 0.06048090058691076 0.1202958151072585
-0.018753709786520915 0.07418314406626471 0.12008715078447448
-0.01688668597657057 0.08788538754561864 0.11987848646169044
-0.01501966216662021 0.10158763102497259 0.11966982213890642
-0.013152638356669858 0.11528987450432653 0.11946115781612239
-0.011285614546719506 0.1289921179836805 0.11925249349333836
-0.02808882883627269 0.005671926669494993 0.12113047239839461
-0.030655659843190144 0.019206393967928705 0.11990150185213337
-0.033222490850107596 0.032740861266362414 0.11867253130587214
-0.03578932185702505 0.04627532856479613 0.11744356075961092
-0.038356152863942505 0.05980979586322984 0.11621459021334969
-0.040922983870859964 0.07334426316166356 0.11498561966708845
-0.04348981487777741 0.08687873046009727 0.11375664912082722
-0.04605664588469486 0.10041319775853097 0.112527678574566
-0.04862347689161232 0.11394766505696469 0.11129870802830477
-0.05119030789852977 0.1274821323553984 0.11006973748204353
-0.02808882883627269 0.005671926669494993 0.12113047239839461
-0.0348113586919717 0.01757194824632508 0.1190143736567864
-0.04153388854767071 0.029471969823155166 0.1168982749151782
-0.04825641840336972 0.04137199139998526 0.11478217617356998
-0.05497894825906873 0.053272012976815344 0.11266607743196176
-0.06170147811476774 0.06517203455364542 0.11054997869035356
-0.06842400797046674 0.07707205613047552 0.10843387994874534
-0.07514653782616576 0.08897207770730561 0.10631778120713713
-0.08186906768186478 0.1008720992841357 0.10420168246552892
-0.08859159753756378 0.11277212086096577 0.10208558372392071
-0.02808882883627269 0.005671926669494993 0.12113047239839461
-0.03823856712009004 0.014647950539012224 0.11835655759474771
-0.0483883054039074 0.023623974408529452 0.11558264279110082
-0.05853804368772475 0.03259999827804669 0.11280872798745394
-0.0686877819715421 0.04157602214756392 0.11003481318380703
-0.07883752025535945 0.05055204601708115 0.10726089838016015
-0.0889872585391768 0.05952806988659838 0.10448698357651325
-0.09913699682299415 0.0685040937561156 0.10171306877286636
-0.10928673510681151 0.07748011762563284 0.09893915396921946
-0.11943647339062886 0.08645614149515007 0.09616523916557257
-0.02808882883627269 0.005671926669494993 0.12113047239839461
-0.04056589391574061 0.010751261368076595 0.1179993382434071
-0.05304295899520852 0.0158305960666582 0.11486820408841958
-0.06552002407467643 0.0209099307652398 0.11173706993343206
-0.07799708915414436 0.025989265463821402 0.10860593577844455
-0.09047415423361227 0.031068600162403 0.10547480162345704
-0.10295121931308017 0.0361479348609846 0.10234366746846953
-0.11542828439254808 0.04122726955956622 0.09921253331348201
-0.127905349472016 0.04630660425814782 0.0960813991584945
-0.14038241455148393 0.05138593895672941 0.09295026500350698
-0.02808882883627269 0.005671926669494993 0.12113047239839461
-0.04154113710841865 0.00630414746855131 0.11798142586231163
-0.0549934453805646 0.006936368267607627 0.11483237932622864
-0.06844575365271055 0.0075685890666639475 0.11168333279014567
-0.0818980619248565 0.008200809865720261 0.10853428625406268
-0.09535037019700246 0.008833030664776581 0.1053852397179797
-0.10880267846914841 0.009465251463832902 0.10223619318189671
-0.12225498674129437 0.010097472262889212 0.09908714664581372
-0.13570729501344034 0.010729693061945529 0.09593810010973075
-0.14915960328558628 0.011361913861001846 0.09278905357364776
-0.02808882883627269 0.005671926669494993 0.12113047239839461
-0.04105861396574021 0.001788522635531827 0.11830476153589223
-0.05402839909520773 -0.002094881398431339 0.11547905067338986
-0.06699818422467524 -0.0059782854323945 0.11265333981088749
-0.07996796935414277 -0.009861689466357671 0.1098276289483851
-0.09293775448361029 -0.013745093500320838 0.10700191808588273
-0.10590753961307779 -0.017628497534283995 0.10417620722338036
-0.11887732474254532 -0.02151190156824717 0.10135049636087798
-0.13184710987201284 -0.025395305602210337 0.09852478549837561
-0.14481689500148037 -0.029278709636173506 0.09569907463587322
-0.02808882883627269 0.005671926669494993 0.12113047239839461
-0.03917061335733249 -0.002306275113185643 0.11893430682684655
-0.050252397878392294 -0.01028447689586628 0.1167381412552985
-0.061334182399452104 -0.018262678678546918 0.11454197568375045
-0.0724159669205119 -0.026240880461227554 0.11234581011220239
-0.0834977514415717 -0.03421908224390819 0.11014964454065433
-0.09457953596263151 -0.04219728402658882 0.10795347896910629
-0.1056613204836913 -0.05017548580926946 0.10575731339755823
-0.1167431050047511 -0.058153687591950096 0.10356114782601017
-0.12782488952581092 -0.06613188937463073 0.10136498225446212
-0.02808882883627269 0.005671926669494993 0.12113047239839461
-0.03608172944446431 -0.005536510904194013 0.11980184073449802
-0.04407463005265593 -0.01674494847788302 0.11847320907060145
-0.05206753066084756 -0.027953386051572025 0.11714457740670486
-0.06006043126903918 -0.03916182362526103 0.11581594574280829
-0.06805333187723081 -0.050370261198950037 0.1144873140789117
-0.07604623248542243 -0.06157869877263904 0.11315868241501513
-0.08403913309361404 -0.07278713634632804 0.11183005075111854
-0.09203203370180565 -0.08399557392001705 0.11050141908722197
-0.1000249343099973 -0.09520401149370607 0.10917278742332538
-0.02808882883627269 0.005671926669494993 0.12113047239839461
-0.03212669072806715 -0.007552138567264947 0.12081335249877709
-0.0361645526198616 -0.02077620380402489 0.12049623259915956
-0.04020241451165605 -0.03400026904078483 0.12017911269954204
-0.04424027640345051 -0.047224334277544765 0.1198619927999245
-0.04827813829524497 -0.06044839951430471 0.11954487290030698
-0.05231600018703941 -0.07367246475106465 0.11922775300068945
-0.056353862078833875 -0.08689652998782459 0.11891063310107193
-0.06039172397062833 -0.10012059522458452 0.1185935132014544
-0.06442958586242278 -0.11334466046134449 0.11827639330183688
-0.02808882883627269 0.005671926669494993 0.12113047239839461
-0.02773408702181134 -0.00813473356941908 0.12185922912480193
-0.027379345207349987 -0.021941393808333154 0.12258798585120925
-0.027024603392888633 -0.03574805404724723 0.12331674257761657
-0.026669861578427285 -0.049554714286161296 0.12404549930402389
-0.02631511976396593 -0.06336137452507538 0.12477425603043123
-0.025960377949504575 -0.07716803476398945 0.12550301275683853
-0.025605636135043224 -0.09097469500290353 0.12623176948324588
-0.02525089432058188 -0.10478135524181759 0.1269605262096532
-0.02489615250612053 -0.11858801548073167 0.12768928293606052
-0.02808882883627269 0.005671926669494993 0.12113047239839461
-0.02337992509553881 -0.007221162702280135 0.12282613365169485
-0.018671021354804924 -0.020114252074055265 0.1245217949049951
-0.013962117614071042 -0.03300734144583039 0.12621745615829533
-0.00925321387333716 -0.04590043081760552 0.12791311741159558
-0.004544310132603279 -0.05879352018938064 0.1296087786648958
0.0001645936081306052 -0.07168660956115577 0.13130443991819604
0.004873497348864493 -0.08457969893293091 0.1330001011714963
0.009582401089598371 -0.09747278830470603 0.13469576242479653
0.014291304830332256 -0.11036587767648115 0.13639142367809678
-0.02808882883627269 0.005671926669494993 0.12113047239839461
-0.019536045955744596 -0.004910425544815173 0.12360928697089743
-0.010983263075216503 -0.01549277775912534 0.12608810154340028
-0.0024304801946884143 -0.026075129973435505 0.1285669161159031
0.006122302685839682 -0.03665748218774567 0.13104573068840591
0.014675085566367773 -0.04723983440205584 0.13352454526090876
0.023227868446895863 -0.057822186616366 0.13600335983341158
0.03178065132742394 -0.06840453883067617 0.1384821744059144
0.04033343420795205 -0.07898689104498634 0.14096098897841725
0.04888621708848014 -0.08956924325929651 0.14343980355092006
-0.02808882883627269 0.005671926669494993 0.12113047239839461
-0.016618993551155595 -0.0014529263228167718 0.1241238222683983
-0.005149158266038502 -0.008577779315128537 0.12711717213840198
0.006320677019078592 -0.015702632307440293 0.13011052200840567
0.017790512304195687 -0.02282748529975207 0.13310387187840936
0.02926034758931278 -0.02995233829206383 0.13609722174841304
0.04073018287442987 -0.037077191284375574 0.1390905716184167
0.05220001815954695 -0.04420204427668734 0.1420839214884204
0.06366985344466407 -0.051326897268999125 0.14507727135842408
0.07513968872978116 -0.05845175026131087 0.14807062122842776
-0.02808882883627269 0.005671926669494993 0.12113047239839461
-0.014944875772540656 0.0027766612743835087 0.12431398166087546
-0.0018009227088086237 -0.00011860412072797591 0.1274974909233563
0.011343030354923404 -0.0030138695158394586 0.13068100018583714
0.024486983418655444 -0.005909134910950945 0.13386450944831801
0.037630936482387474 -0.008804400306062424 0.13704801871079886
0.050774889546119494 -0.01169966570117391 0.1402315279732797
0.06391884260985155 -0.01459493109628539 0.14341503723576055
0.07706279567358358 -0.017490196491396885 0.1465985464982414
0.09020674873731561 -0.020385461886508364 0.14978205576072223
-0.02808882883627269 0.005671926669494993 0.12113047239839461
-0.014695109257826506 0.0073199958018154735 0.12415915842752703
-0.0013013896793803237 0.008968064934135954 0.12718784445665948
0.012092329899065859 0.010616134066456433 0.1302165304857919
0.025486049477512044 0.012264203198776915 0.13324521651492433
0.038879769055958226 0.013912272331097398 0.13627390254405677
0.052273488634404404 0.015560341463417874 0.1393025885731892
0.0656672082128506 0.017208410595738365 0.14233127460232162
0.07906092779129678 0.018856479728058834 0.14535996063145407
0.09245464736974297 0.020504548860379317 0.1483886466605865
-0.02808882883627269 0.005671926669494993 0.12113047239839461
-0.01589676008440921 0.011684736466333105 0.12367613006801632
-0.0037046913325457344 0.01769754626317122 0.12622178773763804
0.008487377419317741 0.02371035606000933 0.12876744540725976
0.020679446171181223 0.029723165856847443 0.1313131030768815
0.032871514923044694 0.03573597565368556 0.1338587607465032
0.04506358367490817 0.04174878545052367 0.1364044184161249
0.05725565242677164 0.04776159524736179 0.13895007608574664
0.06944772117863514 0.0537744050441999 0.14149573375536836
0.08163978993049861 0.059787214841038015 0.1440413914249901
