# .PCD v0.7 - Point Cloud Data file format
VERSION 0.7
FIELDS x y z
SIZE 4 4 4
TYPE F F F
COUNT 1 1 1
WIDTH 700
HEIGHT 1
VIEWPOINT 0 0 0 1 0 0 0
POINTS 700
DATA ascii
0.029208702047699712 -0.009519893662947853 -0.19839303854442483
0.04184956633215807 0.01830220392587406 -0.19549224415004493
0.04918624200246728 0.0473463415158176 -0.18879251027595625
0.05087567425841302 0.07625444751341748 -0.17860710903189175
0.04683886712537634 0.10367481101127805 -0.1654122984597635
0.03726457721830918 0.1283252862877846 -0.1498250532369455
0.022600487692207034 0.14905324451604315 -0.13257421562607796
0.0035322750753454986 0.16488946940677116 -0.11446641562091618
-0.019048452203107132 0.17509347668477815 -0.09634835382432722
-0.044085844432286254 0.17918813831068398 -0.07906721066914023
-0.07040918097861822 0.17698199245775081 -0.06343103320268065
-0.09678761188148387 0.16857819605410684 -0.05017095170491702
-0.12198771102938545 0.15436970127943753 -0.039906992849162715
-0.1448311497940656 0.13502088155779876 -0.033119087943941874
-0.16424979436754655 0.11143646619470585 -0.030124631878408165
-0.17933565051184572 0.08471923624034185 -0.03106364209008708
-0.18938332036038047 0.05611845967330457 -0.035892211505115415
-0.1939229860382163 0.026971477018388576 -0.04438456158421586
-0.19274237782373363 -0.0013588312100067123 -0.05614359947625892
-0.18589669964488986 -0.027547771285997613 -0.07061948563864455
-0.17370604780490292 -0.05037077747854719 -0.08713534372321155
-0.1567404436348742 -0.06876067138404128 -0.10491891056198341
-0.1357931799298795 -0.08185756200235801 -0.12313864633459409
-0.11184372745955294 -0.08904905328433342 -0.1409426164460982
-0.08601193600350235 -0.08999887909039074 -0.15749832704177338
-0.05950567142023856 -0.08466262662149433 -0.17203165149451657
-0.033564337182077776 -0.07328981311227116 -0.18386302770554747
-0.009400921246274282 -0.056412218682438175 -0.1924392336728685
0.011854721913721836 -0.03481902088943534 -0.19735925553721606
0.029208702047699698 -0.00951989366294788 -0.19839303854442483
0.04511702335100365 -0.019394810988189397 -0.1730048265916989
0.05775788763546201 0.008427286600632517 -0.17010403219731904
0.06509456330577122 0.03747142419057605 -0.16340429832323036
0.06678399556171696 0.06637953018817594 -0.15321889707916586
0.06274718842868028 0.09379989368603651 -0.1400240865070376
0.053172898521613124 0.11845036896254307 -0.1244368412842196
0.03850880899551097 0.13917832719080162 -0.10718600367335207
0.01944059637864944 0.15501455208152962 -0.08907820366819028
-0.0031401308998031926 0.1652185593595366 -0.07096014187160131
-0.02817752312898231 0.16931322098544244 -0.05367899871641432
-0.05450085967531428 0.16710707513250928 -0.03804282124995474
-0.08087929057817993 0.1587032787288653 -0.024782739752191116
-0.10607938972608151 0.144494783954196 -0.014518780896436812
-0.12892282849076167 0.12514596423255722 -0.007730875991215972
-0.1483414730642426 0.10156154886946431 -0.004736419925682262
-0.16342732920854178 0.07484431891510031 -0.005675430137361177
-0.17347499905707653 0.04624354234806302 -0.010503999552389513
-0.17801466473491237 0.01709655969314703 -0.018996349631489957
-0.1768340565204297 -0.011233748535248255 -0.030755387523533014
-0.16998837834158592 -0.03742268861123916 -0.04523127368591865
-0.15779772650159898 -0.06024569480378874 -0.06174713177048565
-0.14083212233157025 -0.07863558870928282 -0.0795306986092575
-0.11988485862657555 -0.09173247932759955 -0.09775043438186819
-0.095935406156249 -0.09892397060957496 -0.1155544044933723
-0.07010361470019841 -0.09987379641563228 -0.13211011508904746
-0.04359735011693462 -0.09453754394673587 -0.14664343954179065
-0.017656015878773832 -0.0831647304375127 -0.15847481575282157
0.006507400057029658 -0.06628713600767971 -0.16705102172014258
0.027763043217025777 -0.04469393821467688 -0.17197104358449017
0.045117023351003635 -0.019394810988189425 -0.1730048265916989
0.06102534465430758 -0.029269728313430936 -0.14761661463897302
0.07366620893876595 -0.0014476307246090233 -0.14471582024459315
0.08100288460907516 0.027596506865334512 -0.13801608637050447
0.0826923168650209 0.0565046128629344 -0.12783068512643997
0.07865550973198422 0.08392497636079498 -0.11463587455431169
0.06908121982491706 0.10857545163730153 -0.0990486293314937
0.054417130298814904 0.12930340986556008 -0.08179779172062618
0.03534891768195337 0.14513963475628808 -0.06368999171546438
0.01276819040350074 0.15534364203429507 -0.045571929918875424
-0.012269201825678379 0.1594383036602009 -0.028290786763688427
-0.03859253837201035 0.15723215780726774 -0.012654609297228846
-0.064970969274876 0.14882836140362377 0.0006054722005347755
-0.09017106842277758 0.13461986662895445 0.01086943105628908
-0.11301450718745773 0.1152710469073157 0.01765733596150992
-0.1324331517609387 0.09168663154422277 0.02065179202704363
-0.14751900790523786 0.06496940158985877 0.019712781815364715
-0.15756667775377262 0.03636862502282148 0.01488421240033638
-0.16210634343160846 0.007221642367905492 0.006391862321235935
-0.16092573521712578 -0.021108665860489796 -0.005367175570807122
-0.154080057038282 -0.0472976059364807 -0.019843061733192755
-0.14188940519829507 -0.07012061212903027 -0.03635891981775976
-0.12492380102826632 -0.08851050603452436 -0.05414248665653162
-0.10397653732327161 -0.10160739665284109 -0.0723622224291423
-0.08002708485294506 -0.1087988879348165 -0.09016619254064641
-0.05419529339689448 -0.10974871374087382 -0.10672190313632157
-0.027689028813630685 -0.10441246127197741 -0.12125522758906476
-0.0017476945754699 -0.09303964776275424 -0.13308660380009568
0.022415721360333592 -0.07616205333292125 -0.1416628097674167
0.04367136452032971 -0.05456885553991842 -0.14658283163176428
0.06102534465430757 -0.029269728313430964 -0.14761661463897302
0.07693366595761152 -0.039144645638672475 -0.12222840268624713
0.08957453024206988 -0.011322548049850565 -0.11932760829186724
0.09691120591237909 0.01772158954009297 -0.11262787441777856
0.09860063816832483 0.04662969553769286 -0.10244247317371406
0.09456383103528815 0.07405005903555344 -0.0892476626015858
0.08498954112822099 0.09870053431205998 -0.0736604173787678
0.07032545160211884 0.11942849254031852 -0.05640957976790028
0.05125723898525731 0.13526471743104654 -0.038301779762738485
0.028676511706804676 0.14546872470905353 -0.020183717966149522
0.003639119477625558 0.14956338633495936 -0.002902574810962529
-0.02268421706870641 0.1473572404820262 0.01273360265549705
-0.04906264797157206 0.13895344407838223 0.025993684153260675
-0.07426274711947364 0.12474494930371291 0.036257643009014975
-0.0971061858841538 0.10539612958207414 0.043045547914235816
-0.11652483045763476 0.08181171421898122 0.046040003979769525
-0.13161068660193392 0.05509448426461722 0.04510099376809061
-0.14165835645046868 0.02649370769757994 0.040272424353062275
-0.14619802212830452 -0.0026532749573360496 0.03178007427396183
-0.14501741391382184 -0.03098358318573134 0.020021036381918777
-0.13817173573497807 -0.05717252326172224 0.005545150219533143
-0.12598108389499113 -0.07999552945427182 -0.010970707865033862
-0.1090154797249624 -0.09838542335976591 -0.02875427470380572
-0.08806821601996769 -0.11148231397808264 -0.046974010476416396
-0.06411876354964113 -0.11867380526005805 -0.06477798058792052
-0.03828697209359054 -0.11962363106611537 -0.08133369118359568
-0.01178070751032675 -0.11428737859721896 -0.09586701563633887
0.014160626727834037 -0.10291456508799579 -0.10769839184736978
0.03832404266363753 -0.0860369706581628 -0.1162745978146908
0.05957968582363365 -0.06444377286515997 -0.12119461967903837
0.0769336659576115 -0.0391446456386725 -0.12222840268624713
0.09284198726091546 -0.04901956296391402 -0.09684019073352122
0.10548285154537382 -0.02119746537509211 -0.09393939633914133
0.11281952721568303 0.007846672214851429 -0.08723966246505266
0.11450895947162877 0.036754778212451315 -0.07705426122098816
0.11047215233859209 0.0641751417103119 -0.0638594506488599
0.10089786243152493 0.08882561698681844 -0.0482722054260419
0.08623377290542278 0.10955357521507698 -0.03102136781517438
0.06716556028856124 0.125389800105805 -0.012913567810012587
0.04458483301010861 0.135593807383812 0.005204493986576378
0.019547440780929497 0.13968846900971782 0.02248563714176337
-0.006775895765402473 0.13748232315678466 0.038121814608222955
-0.033154326668268126 0.1290785267531407 0.05138189610598658
-0.05835442581616971 0.11487003197847137 0.06164585496174088
-0.08119786458084986 0.0955212122568326 0.06843375986696172
-0.10061650915433082 0.07193679689373968 0.07142821593249543
-0.11570236529862998 0.04521956693937568 0.07048920572081652
-0.12575003514716473 0.016618790372338398 0.06566063630578818
-0.13028970082500058 -0.012528192282577592 0.05716828622668774
-0.1291090926105179 -0.04085850051097288 0.04540924833464468
-0.12226341443167413 -0.06704744058696378 0.030933362172259043
-0.11007276259168719 -0.08987044677951336 0.014417504087692039
-0.09310715842165845 -0.10826034068500745 -0.0033660627510798172
-0.07215989471666374 -0.12135723130332418 -0.021585798523690497
-0.04821044224633719 -0.1285487225852996 -0.03938976863519461
-0.022378650790286603 -0.1294985483913569 -0.055945479230869774
0.004127613792977188 -0.1241622959224605 -0.07047880368361296
0.030068948031137976 -0.11278948241323733 -0.08231017989464387
0.05423236396694146 -0.09591188798340435 -0.09088638586196489
0.07548800712693758 -0.0743186901904015 -0.09580640772631246
0.09284198726091544 -0.04901956296391405 -0.09684019073352122
0.1087503085642194 -0.05889448028915556 -0.07145197878079533
0.12139117284867776 -0.031072382700333648 -0.06855118438641544
0.12872784851898697 -0.002028245110390113 -0.06185145051232677
0.1304172807749327 0.026879860887209776 -0.051666049268262265
0.12638047364189603 0.05430022438507035 -0.038471238696134
0.11680618373482887 0.0789506996615769 -0.022883993473316006
0.10214209420872672 0.09967865788983545 -0.005633155862448482
0.08307388159186518 0.11551488278056345 0.012474644142713312
0.06049315431341255 0.12571889005857045 0.030592705939302276
0.035455762084233435 0.12981355168447628 0.04787384909448927
0.009132425537901464 0.12760740583154312 0.06351002656094885
-0.01724600536496419 0.11920360942789913 0.07677010805871247
-0.04244610451286577 0.10499511465322983 0.08703406691446677
-0.06528954327754592 0.08564629493159107 0.09382197181968761
-0.08470818785102688 0.06206187956849814 0.09681642788522132
-0.09979404399532604 0.03534464961413414 0.09587741767354241
-0.1098417138438608 0.006743873047096857 0.09104884825851407
-0.11438137952169664 -0.022403109607819133 0.08255649817941363
-0.11320077130721395 -0.05073341783621442 0.07079746028737058
-0.10635509312837019 -0.07692235791220532 0.05632157412498494
-0.09416444128838325 -0.0997453641047549 0.03980571604041794
-0.07719883711835451 -0.11813525801024899 0.02202214920164608
-0.056251573413359804 -0.13123214862856572 0.0038024134290354015
-0.03230212094303325 -0.13842363991054113 -0.014001556682468715
-0.006470329486982668 -0.13937346571659845 -0.03055726727814388
0.020035935096281123 -0.13403721324770204 -0.04509059173088707
0.04597726933444191 -0.12266439973847887 -0.05692196794191798
0.0701406852702454 -0.10578680530864588 -0.065498173909239
0.09139632843024152 -0.08419360751564305 -0.07041819577358657
0.10875030856421938 -0.05889448028915559 -0.07145197878079533
0.12465862986752332 -0.0687693976143971 -0.046063766828069445
0.13729949415198167 -0.04094730002557519 -0.04316297243368956
0.14463616982229088 -0.011903162435631649 -0.03646323855960088
0.14632560207823664 0.017004943561968237 -0.02627783731553638
0.14228879494519994 0.04442530705982881 -0.013083026743408116
0.13271450503813279 0.06907578233633536 0.002504218479409877
0.11805041551203065 0.0898037405645939 0.0197550560902774
0.09898220289516911 0.10563996545532191 0.03786285609543919
0.07640147561671648 0.11584397273332891 0.05598091789202816
0.05136408338753736 0.11993863435923474 0.07326206104721515
0.025040746841205393 0.11773248850630158 0.08889823851367473
-0.0013376840616602602 0.1093286921026576 0.10215832001143836
-0.026537783209561842 0.09512019732798829 0.11242227886719267
-0.049381221974241996 0.07577137760634953 0.1192101837724135
-0.06879986654772295 0.0521869622432566 0.12220463983794722
-0.08388572269202212 0.0254697322888926 0.1212656296262683
-0.09393339254055687 -0.003131044278144679 0.11643706021123996
-0.09847305821839271 -0.03227802693306067 0.10794471013213952
-0.09729245000391003 -0.06060833516145596 0.09618567224009646
-0.09044677182506626 -0.08679727523744686 0.08170978607771083
-0.07825611998507932 -0.10962028142999644 0.06519392799314382
-0.061290515815050586 -0.12801017533549053 0.047410361154371965
-0.04034325211005588 -0.14110706595380726 0.029190625381761284
-0.016393799639729326 -0.14829855723578267 0.011386655270257168
0.009437991816321259 -0.14924838304184 -0.005169055325417995
0.03594425639958505 -0.14391213057294358 -0.019702379778161187
0.06188559063774584 -0.1325393170637204 -0.03153375598919209
0.08604900657354933 -0.11566172263388742 -0.04010996195651311
0.10730464973354545 -0.09406852484088458 -0.04502998382086069
0.12465862986752331 -0.06876939761439713 -0.046063766828069445
0.14056695117082726 -0.07864431493963864 -0.02067555487534354
0.1532078154552856 -0.050822217350816726 -0.01777476048096365
0.16054449112559482 -0.021778079760873193 -0.011075026606874976
0.16223392338154058 0.007130026236726695 -0.0008896253628104749
0.15819711624850388 0.034550389734587274 0.012305185209317789
0.14862282634143673 0.059200865011093826 0.02789243043213578
0.13395873681533457 0.07992882323935237 0.0451432680430033
0.11489052419847305 0.09576504813008037 0.0632510680481651
0.09230979692002042 0.10596905540808738 0.08136912984475406
0.0672724046908413 0.1100637170339932 0.09865027299994106
0.04094906814450933 0.10785757118106004 0.11428645046640064
0.01457063724164368 0.09945377477741606 0.12754653196416427
-0.010629461906257904 0.08524528000274675 0.13781049081991856
-0.033472900670938055 0.06589646028110799 0.1445983957251394
-0.05289154524441901 0.04231204491801506 0.1475928517906731
-0.06797740138871818 0.015594814963651057 0.1466538415789942
-0.07802507123725293 -0.013005961603386223 0.14182527216396587
-0.08256473691508877 -0.04215294425830221 0.1333329220848654
-0.08138412870060609 -0.0704832524866975 0.12157388419282236
-0.07453845052176232 -0.0966721925626884 0.10709799803043672
-0.06234779868177538 -0.11949519875523798 0.09058213994586972
-0.045382194511746646 -0.13788509266073207 0.07279857310709786
-0.02443493080675194 -0.1509819832790488 0.054578837334487186
-0.00048547833642538697 -0.1581734745610242 0.03677486722298307
0.025346313119625197 -0.15912330036708153 0.02021915662730791
0.051852577702888994 -0.15378704789818512 0.005685832174564718
0.07779391194104977 -0.14241423438896195 -0.006145544036466188
0.10195732787685327 -0.12553663995912898 -0.014721750003787205
0.12321297103684939 -0.10394344216612612 -0.01964177186813478
0.14056695117082724 -0.07864431493963867 -0.02067555487534354
0.1564752724741312 -0.08851923226488019 0.004712657077382363
0.16911613675858955 -0.06069713467605827 0.007613451471762251
0.17645281242889876 -0.031652997086114736 0.014313185345850927
0.17814224468484452 -0.002744891088514849 0.02449858658991543
0.17410543755180782 0.024675472409345728 0.037693397162043694
0.16453114764474067 0.04932594768585228 0.05328064238486169
0.1498670581186385 0.07005390591411081 0.07053147999572922
0.13079884550177698 0.08589013080483882 0.088639280000891
0.10821811822332436 0.09609413808284582 0.10675734179747996
0.08318072599414524 0.10018879970875165 0.12403848495266696
0.056857389447813274 0.09798265385581849 0.13967466241912654
0.03047895854494762 0.0895788574521745 0.15293474391689016
0.005278859397046036 0.0753703626775052 0.16319870277264448
-0.017564579367634118 0.05602154295586644 0.1699866076778653
-0.03698322394111507 0.032437127592773514 0.17298106374339903
-0.052069080085414235 0.0057198976384095135 0.1720420535317201
-0.062116749933948986 -0.022880878928627765 0.16721348411669176
-0.06665641561178483 -0.05202786158354376 0.15872113403759133
-0.06547580739730215 -0.08035816981193905 0.14696209614554825
-0.05863012921845838 -0.10654710988792995 0.13248620998316263
-0.04643947737847144 -0.12937011608047952 0.11597035189859563
-0.02947387320844271 -0.1477600099859736 0.09818678505982377
-0.008526609503448 -0.16085690060429034 0.0799670492872131
0.015422842966878552 -0.16804839188626575 0.06216307917570898
0.04125463442292914 -0.16899821769232307 0.045607368580033815
0.06776089900619293 -0.16366196522342666 0.03107404412729062
0.09370223324435371 -0.15228915171420349 0.019242667916259715
0.11786564918015721 -0.13541155728437052 0.010666461948938697
0.13912129234015333 -0.11381835949136768 0.005746440084591121
0.15647527247413118 -0.08851923226488022 0.004712657077382363
0.17238359377743515 -0.09839414959012173 0.030100869030108265
0.1850244580618935 -0.07057205200129982 0.033001663424488153
0.1923611337322027 -0.04152791441135628 0.03970139729857683
0.19405056598814846 -0.012619808413756392 0.04988679854264133
0.19001375885511176 0.014800555084104184 0.0630816091147696
0.1804394689480446 0.039451030360610734 0.0786688543375876
0.16577537942194245 0.060178988588869275 0.09591969194845511
0.14670716680508092 0.07601521347959728 0.1140274919536169
0.1241264395266283 0.08621922075760428 0.13214555375020587
0.09908904729744918 0.09031388238351011 0.14942669690539287
0.07276571075111721 0.08810773653057695 0.16506287437185244
0.04638727984825156 0.07970394012693297 0.17832295586961608
0.021187180700349976 0.06549544535226366 0.18858691472537037
-0.0016562580643301771 0.046146625630624896 0.19537481963059122
-0.021074902637811133 0.022562210267531968 0.19836927569612492
-0.036160758782110294 -0.004155019686832031 0.197430265484446
-0.046208428630645046 -0.03275579625386931 0.19260169606941768
-0.05074809430848089 -0.0619027789087853 0.18410934599031722
-0.049567486093998206 -0.09023308713718059 0.17235030809827417
-0.04272180791515444 -0.11642202721317149 0.15787442193588855
-0.030531156075167504 -0.13924503340572106 0.14135856385132153
-0.013565551905138768 -0.15763492731121515 0.12357499701254968
0.007381711799855941 -0.17073181792953188 0.10535526123993899
0.031331164270182496 -0.17792330921150729 0.08755129112843488
0.05716295572623308 -0.1788731350175646 0.07099558053275971
0.08366922030949688 -0.1735368825486682 0.056462256080016524
0.10961055454765765 -0.16216406903944502 0.04463087986898562
0.13377397048346115 -0.14528647460961205 0.0360546739016646
0.15502961364345727 -0.12369327681660922 0.031134652037317023
0.17238359377743512 -0.09839414959012176 0.030100869030108265
-0.07158744586486772 0.04443712796358694 -0.11424695378726654
-0.06038787387458245 0.038441903338416406 -0.12359651876028413
-0.04918830188429718 0.03244667871324587 -0.13294608373330172
-0.03798872989401191 0.026451454088075345 -0.1422956487063193
-0.02678915790372664 0.02045622946290481 -0.1516452136793369
-0.015589585913441364 0.014461004837734276 -0.16099477865235448
-0.004390013923156102 0.008465780212563749 -0.17034434362537207
0.006809558067129174 0.002470555587393216 -0.17969390859838966
0.018009130057414436 -0.003524669037777318 -0.18904347357140724
0.029208702047699712 -0.009519893662947853 -0.19839303854442483
-0.07158744586486772 0.04443712796358694 -0.11424695378726654
-0.058477733939063574 0.04322431356622353 -0.12293326662508718
-0.04536802201325943 0.04201149916886012 -0.1316195794629078
-0.03225831008745529 0.040798684771496715 -0.14030589230072843
-0.019148598161651136 0.0395858703741333 -0.14899220513854905
-0.0060388862358469846 0.0383730559767699 -0.15767851797636967
0.007070825689957139 0.0371602415794065 -0.1663648308141903
0.02018053761576129 0.03594742718204308 -0.17505114365201094
0.03329024954156544 0.03473461278467967 -0.18373745648983156
0.04639996146736958 0.03352179838731626 -0.1924237693276522
-0.07158744586486772 0.04443712796358694 -0.11424695378726654
-0.057988234708845 0.04813815105273932 -0.1213287177118816
-0.044389023552822295 0.0518391741418917 -0.12841048163649665
-0.030789812396799583 0.05554019723104408 -0.1354922455611117
-0.017190601240776867 0.05924122032019646 -0.14257400948572674
-0.0035913900847541584 0.06294224340934883 -0.1496557734103418
0.01000782107126855 0.06664326649850122 -0.15673753733495685
0.023607032227291273 0.0703442895876536 -0.1638193012595719
0.03720624338331398 0.07404531267680597 -0.17090106518418696
0.0508054545393367 0.07774633576595835 -0.177982829108802
-0.07158744586486772 0.04443712796358694 -0.11424695378726654
-0.058972421020884055 0.05265092526025528 -0.11895674979255486
-0.0463573961769004 0.060864722556923614 -0.12366654579784317
-0.033742371332916736 0.06907851985359195 -0.12837634180313148
-0.021127346488933076 0.07729231715026029 -0.1330861378084198
-0.008512321644949413 0.08550611444692863 -0.1377959338137081
0.00410270319903425 0.09371991174359696 -0.14250572981899642
0.0167177280430179 0.1019337090402653 -0.14721552582428474
0.029332752887001563 0.11014750633693364 -0.15192532182957302
0.041947777730985236 0.11836130363360199 -0.15663511783486134
-0.07158744586486772 0.04443712796358694 -0.11424695378726654
-0.06132364101704722 0.056273607080480514 -0.1160744023960404
-0.05105983616922673 0.06811008619737409 -0.11790185100481428
-0.04079603132140623 0.07994656531426766 -0.11972929961358814
-0.030532226473585732 0.09178304443116124 -0.121556748222362
-0.02026842162576523 0.10361952354805483 -0.12338419683113587
-0.01000461677794474 0.1154560026649484 -0.12521164543990973
0.00025918806987575485 0.12729248178184197 -0.1270390940486836
0.01052299291769625 0.13912896089873555 -0.12886654265745745
0.020786797765516746 0.15096544001562912 -0.13069399126623132
-0.07158744586486772 0.04443712796358694 -0.11424695378726654
-0.064787103527813 0.058613622726493494 -0.11299402258697855
-0.057986761190758296 0.07279011748940005 -0.11174109138669056
-0.0511864188537036 0.08696661225230659 -0.11048816018640256
-0.04438607651664888 0.10114310701521316 -0.10923522898611457
-0.037585734179594175 0.11531960177811972 -0.10798229778582658
-0.030785391842539474 0.12949609654102626 -0.10672936658553858
-0.02398504950548475 0.14367259130393284 -0.10547643538525059
-0.017184707168430045 0.15784908606683937 -0.1042235041849626
-0.010384364831375333 0.17202558082974592 -0.1029705729846746
-0.07158744586486772 0.04443712796358694 -0.11424695378726654
-0.06898748864898195 0.059417395193964904 -0.11004941731469857
-0.06638753143309617 0.07439766242434287 -0.1058518808421306
-0.0637875742172104 0.08937792965472083 -0.10165434436956262
-0.061187617001324635 0.1043581968850988 -0.09745680789699465
-0.05858765978543886 0.11933846411547679 -0.09325927142442668
-0.05598770256955309 0.13431873134585473 -0.0890617349518587
-0.05338774535366733 0.1492989985762327 -0.08486419847929073
-0.05078778813778156 0.16427926580661065 -0.08066666200672276
-0.04818783092189578 0.17925953303698863 -0.07646912553415479
-0.07158744586486772 0.04443712796358694 -0.11424695378726654
-0.07346961947698494 0.058597823264229375 -0.10755968025071043
-0.07535179308910217 0.07275851856487181 -0.10087240671415432
-0.0772339667012194 0.08691921386551422 -0.0941851331775982
-0.07911614031333662 0.10107990916615668 -0.08749785964104209
-0.08099831392545385 0.11524060446679911 -0.08081058610448598
-0.08288048753757109 0.12940129976744152 -0.07412331256792987
-0.0847626611496883 0.14356199506808395 -0.06743603903137375
-0.08664483476180554 0.1577226903687264 -0.06074876549481764
-0.08852700837392276 0.17188338566936884 -0.054061491958261536
-0.07158744586486772 0.04443712796358694 -0.11424695378726654
-0.07774778758918237 0.0562437202728425 -0.10579461303814822
-0.083908129313497 0.06805031258209807 -0.09734227228902988
-0.09006847103781165 0.07985690489135364 -0.08888993153991157
-0.0962288127621263 0.09166349720060919 -0.08043759079079323
-0.10238915448644095 0.10347008950986476 -0.0719852500416749
-0.10854949621075559 0.11527668181912033 -0.06353290929255657
-0.11470983793507025 0.1270832741283759 -0.055080568543438235
-0.12087017965938489 0.13888986643763146 -0.046628227794319896
-0.12703052138369952 0.150696458746887 -0.038175887045201584
-0.07158744586486772 0.04443712796358694 -0.11424695378726654
-0.08135838708799971 0.05261018980659256 -0.1049454880973327
-0.0911293283111317 0.06078325164959817 -0.09564402240739887
-0.10090026953426368 0.06895631349260378 -0.08634255671746505
-0.11067121075739568 0.0771293753356094 -0.0770410910275312
-0.12044215198052767 0.08530243717861502 -0.06773962533759736
-0.13021309320365965 0.09347549902162064 -0.05843815964766354
-0.13998403442679166 0.10164856086462626 -0.04913669395772968
-0.14975497564992366 0.10982162270763188 -0.039835228267795855
-0.15952591687305565 0.1179946845506375 -0.030533762577862014
-0.07158744586486772 0.04443712796358694 -0.11424695378726654
-0.08391015349351652 0.048090981271531934 -0.10510432129113224
-0.09623286112216532 0.05174483457947692 -0.09596168879499796
-0.10855556875081414 0.055398687887421916 -0.08681905629886366
-0.12087827637946294 0.05905254119536691 -0.07767642380272938
-0.13320098400811176 0.0627063945033119 -0.06853379130659508
-0.14552369163676054 0.06636024781125689 -0.05939115881046078
-0.15784639926540933 0.07001410111920188 -0.05024852631432648
-0.17016910689405815 0.07366795442714688 -0.0411058938181922
-0.18249181452270696 0.07732180773509187 -0.0319632613220579
-0.07158744586486772 0.04443712796358694 -0.11424695378726654
-0.08512656332095969 0.04317582103517986 -0.10625390057844773
-0.09866568077705166 0.04191451410677279 -0.09826084736962891
-0.11220479823314364 0.040653207178365715 -0.0902677941608101
-0.1257439156892356 0.039391900249958645 -0.08227474095199129
-0.13928303314532758 0.03813059332155156 -0.07428168774317248
-0.15282215060141954 0.03686928639314449 -0.06628863453435366
-0.1663612680575115 0.03560797946473743 -0.058295581325534834
-0.1799003855136035 0.03434667253633036 -0.050302528116716025
-0.19343950296969548 0.03308536560792327 -0.0423094749078972
-0.07158744586486772 0.04443712796358694 -0.11424695378726654
-0.08487579969098255 0.0383973429757142 -0.108269651205938
-0.0981641535170974 0.03235755798784146 -0.10229234862460945
-0.11145250734321224 0.026317772999968715 -0.09631504604328091
-0.12474086116932707 0.020277988012095974 -0.09033774346195235
-0.1380292149954419 0.014238203024223238 -0.0843604408806238
-0.15131756882155675 0.00819841803635049 -0.07838313829929526
-0.1646059226476716 0.0021586330484777557 -0.07240583571796672
-0.17789427647378644 -0.0038811519393949926 -0.06642853313663817
-0.19118263029990126 -0.009920936927267721 -0.060451230555309605
-0.07158744586486772 0.04443712796358694 -0.11424695378726654
-0.08318503673389177 0.03427336933660461 -0.11093313531552086
-0.09478262760291584 0.024109610709622288 -0.10761931684377517
-0.10638021847193989 0.013945852082639954 -0.10430549837202949
-0.11797780934096394 0.003782093455657636 -0.1009916799002838
-0.129575400209988 -0.006381665171324714 -0.09767786142853813
-0.14117299107901204 -0.016545423798307028 -0.09436404295679243
-0.1527705819480361 -0.02670918242528937 -0.09105022448504675
-0.16436817281706018 -0.036872941052271666 -0.08773640601330106
-0.17596576368608424 -0.047036699679254015 -0.08442258754155538
-0.07158744586486772 0.04443712796358694 -0.11424695378726654
-0.08023749485097847 0.03125079665169277 -0.11395572307570886
-0.08888754383708923 0.0180644653397986 -0.11366449236415117
-0.09753759282319999 0.004878134027904434 -0.1133732616525935
-0.10618764180931076 -0.00830819728398974 -0.1130820309410358
-0.11483769079542151 -0.02149452859588391 -0.11279080022947813
-0.12348773978153227 -0.03468085990777807 -0.11249956951792044
-0.13213778876764304 -0.04786719121967227 -0.11220833880636276
-0.14078783775375378 -0.061053522531566415 -0.11191710809480508
-0.14943788673986455 -0.0742398538434606 -0.11162587738324739
-0.07158744586486772 0.04443712796358694 -0.11424695378726654
-0.07635258594108096 0.029657167571436355 -0.11700987020240422
-0.08111772601729421 0.014877207179285772 -0.11977278661754191
-0.08588286609350744 9.724678713519154e-05 -0.12253570303267959
-0.09064800616972069 -0.014682713605015394 -0.12529861944781728
-0.09541314624593393 -0.029462673997165983 -0.12806153586295496
-0.10017828632214718 -0.044242634389316554 -0.13082445227809264
-0.10494342639836042 -0.059022594781467125 -0.13358736869323032
-0.10970856647457367 -0.07380255517361772 -0.136350285108368
-0.11447370655078691 -0.08858251556576831 -0.13911320152350568
-0.07158744586486772 0.04443712796358694 -0.11424695378726654
-0.07195130016515928 0.02966517653438412 -0.11976461246445408
-0.07231515446545085 0.014893225105181302 -0.12528227114164162
-0.0726790087657424 0.00012127367597847861 -0.13079992981882915
-0.07304286306603397 -0.014650677753224333 -0.1363175884960167
-0.07340671736632554 -0.02942262918242715 -0.14183524717320423
-0.0737705716666171 -0.04419458061162998 -0.1473529058503918
-0.07413442596690865 -0.058966532040832784 -0.15287056452757933
-0.07449828026720023 -0.0737384834700356 -0.15838822320476686
-0.07486213456749179 -0.08851043489923842 -0.1639058818819544
-0.07158744586486772 0.04443712796358694 -0.11424695378726654
-0.06751058513001984 0.031273955645128804 -0.12192143079353504
-0.06343372439517195 0.018110783326670675 -0.12959590779980354
-0.059356863660324076 0.0049476110082125385 -0.13727038480607204
-0.05528000292547619 -0.008215561310245591 -0.14494486181234054
-0.05120314219062831 -0.021378733628703725 -0.15261933881860903
-0.04712628145578044 -0.03454190594716186 -0.16029381582487753
-0.043049420720932555 -0.047705078265619996 -0.16796829283114603
-0.03897255998608467 -0.06086825058407812 -0.17564276983741453
-0.03489569925123681 -0.07403142290253627 -0.18331724684368303
-0.07158744586486772 0.04443712796358694 -0.11424695378726654
-0.06351166121451327 0.034309168724241314 -0.12324660045720665
-0.055435876564158805 0.024181209484895695 -0.13224624712714675
-0.04736009191380436 0.014053250245550075 -0.14124589379708682
-0.0392843072634499 0.00392529100620445 -0.15024554046702693
-0.031208522613095434 -0.006202668233141168 -0.15924518713696703
-0.023132737962741002 -0.016330627472486786 -0.1682448338069071
-0.015056953312386535 -0.02645858671183242 -0.1772444804768472
-0.006981168662032074 -0.03658654595117804 -0.1862441271467873
0.0010946159883223788 -0.046714505190523656 -0.19524377381672742
-0.07158744586486772 0.04443712796358694 -0.11424695378726654
-0.06038787387458245 0.038441903338416406 -0.12359651876028413
-0.04918830188429718 0.032446678713245865 -0.13294608373330172
-0.03798872989401192 0.026451454088075334 -0.1422956487063193
-0.026789157903726647 0.020456229462904797 -0.1516452136793369
-0.01558958591344137 0.014461004837734258 -0.16099477865235448
-0.004390013923156116 0.008465780212563728 -0.17034434362537207
0.00680955806712916 0.002470555587393195 -0.17969390859838966
0.018009130057414422 -0.0035246690377773457 -0.18904347357140724
0.029208702047699698 -0.00951989366294788 -0.19839303854442483
0.07158744586486772 -0.04443712796358694 0.11424695378726654
0.08278701785515298 -0.05043235258875747 0.10489738881424895
0.09398658984543826 -0.056427577213928 0.09554782384123137
0.10518616183572352 -0.062422801839098534 0.08619825886821379
0.1163857338260088 -0.06841802646426906 0.0768486938951962
0.12758530581629407 -0.0744132510894396 0.06749912892217862
0.13878487780657933 -0.08040847571461013 0.05814956394916103
0.1499844497968646 -0.08640370033978066 0.04879999897614344
0.16118402178714986 -0.0923989249649512 0.03945043400312585
0.17238359377743515 -0.09839414959012173 0.030100869030108265
0.07158744586486772 -0.04443712796358694 0.11424695378726654
0.08469715779067186 -0.045649942360950345 0.10556064094944592
0.09780686971647601 -0.04686275675831376 0.09687432811162529
0.11091658164228015 -0.048075571155677156 0.08818801527380467
0.1240262935680843 -0.04928838555304057 0.07950170243598403
0.13713600549388844 -0.050501199950403974 0.07081538959816341
0.15024571741969256 -0.05171401434776738 0.06212907676034279
0.1633554293454967 -0.05292682874513079 0.05344276392252216
0.17646514127130086 -0.054139643142494205 0.044756451084701526
0.18957485319710501 -0.05535245753985762 0.03607013824688089
0.07158744586486772 -0.04443712796358694 0.11424695378726654
0.08518665702089043 -0.040736104874434555 0.10716518986265149
0.09878586817691314 -0.03703508178528218 0.10008342593803644
0.11238507933293584 -0.0333340586961298 0.0930016620134214
0.12598429048895857 -0.029633035606977418 0.08591989808880635
0.13958350164498126 -0.025932012517825044 0.07883813416419129
0.15318271280100398 -0.02223098942867266 0.07175637023957625
0.1667819239570267 -0.018529966339520282 0.06467460631496119
0.1803811351130494 -0.014828943250367895 0.057592842390346136
0.19398034626907212 -0.011127920161215518 0.05051107846573108
0.07158744586486772 -0.04443712796358694 0.11424695378726654
0.08420247070885138 -0.0362233306669186 0.10953715778197823
0.09681749555283503 -0.028009533370250264 0.10482736177668991
0.1094325203968187 -0.019795736073581927 0.1001175657714016
0.12204754524080236 -0.011581938776913587 0.0954077697661133
0.13466257008478602 -0.0033681414802452436 0.09069797376082499
0.14727759492876968 0.004845655816423087 0.08598817775553667
0.15989261977275332 0.013059453113091432 0.08127838175024836
0.17250764461673698 0.02127325040975976 0.07656858574496006
0.18512266946072067 0.029487047706428113 0.07185878973967175
0.07158744586486772 -0.04443712796358694 0.11424695378726654
0.08185125071268821 -0.032600648846693364 0.11241950517849268
0.09211505556050871 -0.020764169729799786 0.11059205656971881
0.1023788604083292 -0.008927690612906205 0.10876460796094495
0.1126426652561497 0.002908788503987369 0.10693715935217109
0.1229064701039702 0.014745267620880959 0.10510971074339721
0.13317027495179068 0.026581746737774525 0.10328226213462335
0.14343407979961117 0.0384182258546681 0.1014548135258495
0.15369788464743167 0.050254704971561676 0.09962736491707562
0.16396168949525217 0.06209118408845524 0.09779991630830176
0.07158744586486772 -0.04443712796358694 0.11424695378726654
0.07838778820192242 -0.030260633200680384 0.11549988498755454
0.08518813053897713 -0.01608413843777383 0.11675281618784253
0.09198847287603183 -0.0019076436748672796 0.11800574738813052
0.09878881521308655 0.012268851088039283 0.11925867858841852
0.10558915755014125 0.026445345850945837 0.12051160978870651
0.11238949988719596 0.04062184061385238 0.1217645409889945
0.11918984222425068 0.05479833537675896 0.1230174721892825
0.1259901845613054 0.0689748301396655 0.12427040338957049
0.1327905268983601 0.08315132490257206 0.12552333458985848
0.07158744586486772 -0.04443712796358694 0.11424695378726654
0.07418740308075349 -0.029456860733208974 0.11844449025983451
0.07678736029663925 -0.014476593502831007 0.12264202673240249
0.07938731751252502 0.0005036737275469574 0.12683956320497047
0.0819872747284108 0.015483940957924923 0.13103709967753843
0.08458723194429657 0.030464208188302908 0.13523463615010642
0.08718718916018234 0.04544447541868085 0.13943217262267438
0.0897871463760681 0.060424742649058824 0.14362970909524236
0.09238710359195387 0.07540500987943678 0.14782724556781032
0.09498706080783965 0.09038527710981477 0.1520247820403783
0.07158744586486772 -0.04443712796358694 0.11424695378726654
0.06970527225275049 -0.030276432662944504 0.12093422732382265
0.06782309864063327 -0.01611573736230207 0.12762150086037877
0.06594092502851603 -0.001955042061659646 0.1343087743969349
0.0640587514163988 0.012205653238982804 0.140996047933491
0.062176577804281576 0.02636634853962523 0.14768332147004712
0.06029440419216434 0.040527043840267646 0.15437059500660322
0.058412230580047124 0.05468773914091009 0.16105786854315934
0.0565300569679299 0.06884843444155254 0.16774514207971544
0.05464788335581267 0.08300912974219497 0.17443241561627154
0.07158744586486772 -0.04443712796358694 0.11424695378726654
0.06542710414055307 -0.032630535654331376 0.12269929453638487
0.05926676241623842 -0.02082394334507581 0.1311516352855032
0.053106420691923784 -0.00901735103582024 0.13960397603462152
0.04694607896760913 0.0027892412734353217 0.14805631678373987
0.040785737243294484 0.014595833582690886 0.1565086575328582
0.03462539551897985 0.026402425891946454 0.16496099828197652
0.02846505379466518 0.038209018201202025 0.17341333903109485
0.02230471207035054 0.05001561051045758 0.1818656797802132
0.016144370346035903 0.06182220281971314 0.1903180205293315
0.07158744586486772 -0.04443712796358694 0.11424695378726654
0.06181650464173572 -0.03626406612058132 0.12354841947720038
0.05204556341860373 -0.028091004277575705 0.13284988516713422
0.042274622195471755 -0.01991794243457009 0.14215135085706804
0.03250368097233975 -0.011744880591564468 0.15145281654700188
0.022732739749207757 -0.0035718187485588573 0.16075428223693572
0.012961798526075787 0.004601243094446762 0.17005574792686956
0.003190857302943769 0.012774304937452382 0.1793572136168034
-0.006580083920188221 0.020947366780458 0.18865867930673724
-0.01635102514332021 0.029120428623463618 0.19796014499667108
0.07158744586486772 -0.04443712796358694 0.11424695378726654
0.05926473823621891 -0.040783274655641945 0.12338958628340084
0.04694203060757011 -0.03712942134769695 0.13253221877953514
0.0346193229789213 -0.03347556803975196 0.14167485127566942
0.022296615350272494 -0.02982171473180697 0.1508174837718037
0.009973907721623685 -0.026167861423861974 0.15996011626793802
-0.002348799907025124 -0.022514008115916986 0.1691027487640723
-0.014671507535673912 -0.018860154807971992 0.17824538126020661
-0.026994215164322728 -0.015206301500027 0.1873880137563409
-0.039316922792971526 -0.011552448192082008 0.19653064625247518
0.07158744586486772 -0.04443712796358694 0.11424695378726654
0.058048328408775746 -0.04569843489199401 0.12224000699608535
0.04450921095268377 -0.04695974182040109 0.13023306020490416
0.030970093496591796 -0.048221048748808164 0.13822611341372298
0.01743097604049983 -0.04948235567721523 0.1462191666225418
0.00389185858440785 -0.05074366260562231 0.1542122198313606
-0.009647258871684123 -0.05200496953402939 0.16220527304017943
-0.023186376327776082 -0.05326627646243645 0.17019832624899825
-0.03672549378386805 -0.05452758339084352 0.17819137945781707
-0.05026461123996004 -0.055788890319250606 0.1861844326666359
0.07158744586486772 -0.04443712796358694 0.11424695378726654
0.05829909203875287 -0.05047691295145968 0.12022425636859509
0.045010738212638034 -0.05651669793933242 0.12620155894992363
0.031722384386523195 -0.06255648292720516 0.1321788615312522
0.018434030560408352 -0.0685962679150779 0.13815616411258072
0.005145676734293513 -0.07463605290295064 0.14413346669390928
-0.008142677091821333 -0.08067583789082339 0.15011076927523784
-0.02143103091793618 -0.08671562287869612 0.15608807185656637
-0.03471938474405101 -0.09275540786656887 0.16206537443789493
-0.04800773857016584 -0.09879519285444159 0.16804267701922349
0.07158744586486772 -0.04443712796358694 0.11424695378726654
0.05998985499584366 -0.05460088659056926 0.11756077225901222
0.0483922641268196 -0.06476464521755158 0.12087459073075792
0.03679467325779555 -0.07492840384453392 0.1241884092025036
0.025197082388771486 -0.08509216247151624 0.1275022276742493
0.013599491519747427 -0.09525592109849859 0.13081604614599496
0.0020019006507233754 -0.1054196797254809 0.13412986461774065
-0.00959569021830069 -0.11558343835246325 0.13744368308948635
-0.021193281087324743 -0.12574719697944553 0.140757501561232
-0.03279087195634882 -0.13591095560642788 0.1440713200329777
0.07158744586486772 -0.04443712796358694 0.11424695378726654
0.06293739687875696 -0.057623459275481105 0.11453818449882423
0.0542873478926462 -0.07080979058737527 0.11482941521038191
0.045637298906535444 -0.08399612189926944 0.11512064592193959
0.03698724992042468 -0.09718245321116362 0.11541187663349728
0.028337200934313914 -0.11036878452305779 0.11570310734505496
0.019687151948203165 -0.12355511583495195 0.11599433805661265
0.011037102962092388 -0.13674144714684613 0.11628556876817032
0.0023870539759816393 -0.14992777845874028 0.11657679947972802
-0.0062629950101291305 -0.16311410977063448 0.1168680301912857
0.07158744586486772 -0.04443712796358694 0.11424695378726654
0.06682230578865447 -0.059217088355737524 0.11148403737212886
0.06205716571244123 -0.07399704874788811 0.10872112095699119
0.05729202563622798 -0.08877700914003868 0.10595820454185349
0.052526885560014745 -0.10355696953218926 0.10319528812671581
0.04776174548380151 -0.11833692992433986 0.10043237171157814
0.042996605407588255 -0.13311689031649043 0.09766945529644046
0.03823146533137502 -0.147896850708641 0.09490653888130278
0.03346632525516177 -0.1626768111007916 0.09214362246616509
0.028701185178948523 -0.17745677149294217 0.08938070605102741
0.07158744586486772 -0.04443712796358694 0.11424695378726654
0.07122359156457615 -0.05920907939278976 0.108729295110079
0.07085973726428459 -0.07398103082199257 0.10321163643289147
0.07049588296399302 -0.08875298225119539 0.09769397775570393
0.07013202866370145 -0.10352493368039821 0.09217631907851638
0.0697681743634099 -0.11829688510960103 0.08665866040132884
0.06940432006311834 -0.13306883653880386 0.0811410017241413
0.06904046576282677 -0.14784078796800665 0.07562334304695377
0.0686766114625352 -0.16261273939720947 0.07010568436976623
0.06831275716224364 -0.17738469082641228 0.0645880256925787
0.07158744586486772 -0.04443712796358694 0.11424695378726654
0.0756643065997156 -0.05760030028204507 0.10657247678099804
0.07974116733456348 -0.0707634726005032 0.09889799977472954
0.08381802806941135 -0.08392664491896133 0.09122352276846105
0.08789488880425925 -0.09708981723741947 0.08354904576219255
0.09197174953910713 -0.1102529895558776 0.07587456875592405
0.09604861027395499 -0.12341616187433574 0.06820009174965555
0.10012547100880288 -0.13657933419279386 0.060525614743387045
0.10420233174365076 -0.14974250651125198 0.052851137737118546
0.10827919247849863 -0.16290567882971013 0.045176660730850055
0.07158744586486772 -0.04443712796358694 0.11424695378726654
0.07966323051522217 -0.05456508720293256 0.10524730711732645
0.08773901516557663 -0.06469304644227818 0.09624766044738635
0.09581479981593108 -0.0748210056816238 0.08724801377744626
0.10389058446628553 -0.08494896492096943 0.07824836710750616
0.11196636911664 -0.09507692416031505 0.06924872043756607
0.12004215376699442 -0.10520488339966066 0.06024907376762597
0.1281179384173489 -0.1153328426390063 0.05124942709768587
0.13619372306770336 -0.1254608018783519 0.04224978042774577
0.1442695077180578 -0.13558876111769752 0.03325013375780568
0.07158744586486772 -0.04443712796358694 0.11424695378726654
0.08278701785515298 -0.05043235258875747 0.10489738881424895
0.09398658984543826 -0.05642757721392801 0.09554782384123137
0.10518616183572352 -0.06242280183909854 0.08619825886821379
0.11638573382600878 -0.06841802646426907 0.0768486938951962
0.12758530581629407 -0.07441325108943962 0.06749912892217862
0.1387848778065793 -0.08040847571461014 0.05814956394916103
0.1499844497968646 -0.08640370033978068 0.04879999897614344
0.16118402178714986 -0.09239892496495122 0.03945043400312585
0.17238359377743512 -0.09839414959012176 0.030100869030108265
