# .PCD v0.7 - Point Cloud Data file format
VERSION 0.7
FIELDS x y z
SIZE 4 4 4
TYPE F F F
COUNT 1 1 1
WIDTH 700
HEIGHT 1
VIEWPOINT 0 0 0 1 0 0 0
POINTS 700
DATA ascii
0.06765957071007189 0.09735281319942161 -0.06547965286355396
0.05882466452899171 0.11035668414234107 -0.05200032493940185
0.046283687042592656 0.12101924430155028 -0.03943520645399561
0.030623040419843386 0.12884192421458907 -0.028371828382586686
0.012574999091265056 0.133458944063008 -0.019327501987732594
-0.007016530589575255 0.13465441713014406 -0.012725129919609874
-0.02723547046922274 0.13237244442405077 -0.00887343175811446
-0.047136405390642726 0.12671972845223461 -0.007952508628422837
-0.0657887897552102 0.1179605839309951 -0.010005421872546825
-0.08232045880067425 0.10650457872305549 -0.014936179548840403
-0.09595841005609941 0.09288738289950377 -0.022514224908503605
-0.10606494807827618 0.07774572140262304 -0.032385216972911086
-0.11216750238189782 0.061787601495259394 -0.04408759912395088
-0.11398072431022892 0.04575920712810478 -0.05707418097850394
-0.11141982962115218 0.03041000820748653 -0.0707377244026004
-0.10460456290409878 0.01645771621552337 -0.08443933729166737
-0.09385359845613322 0.004554724818900738 -0.09753834745526102
-0.07966963942600362 -0.004742395333900061 -0.10942225973663586
-0.06271591197362064 -0.010998921237540931 -0.11953539560553463
-0.043785153551943 -0.013922304694396736 -0.12740487606867087
-0.023762545384741512 -0.013375851543132275 -0.13266273296588765
-0.003584322376383882 -0.009385113325761576 -0.13506311475235938
0.015806004191743182 -0.0021366925259419635 -0.13449378224358333
0.03350176420011419 0.008030482755768115 -0.13098135679490225
0.04867552357816235 0.020641006703199596 -0.124690075516516
0.060617774201792415 0.03510522523216132 -0.11591411172874494
0.06877010970470171 0.05074680756006328 -0.10506381974452207
0.0727513359394443 0.06683437068162287 -0.09264654715779631
0.07237529519209886 0.08261567802531829 -0.07924291183391562
0.0676595707100719 0.0973528131994216 -0.06547965286355398
0.0722005748075821 0.08395621536764956 -0.04957923292763616
0.06336566862650192 0.09696008631056902 -0.03609990500348405
0.05082469114010287 0.10762264646977823 -0.02353478651807781
0.0351640445173536 0.11544532638281703 -0.012471408446668882
0.01711600318877527 0.12006234623123598 -0.0034270820518147904
-0.002475526492065041 0.12125781929837201 0.0031752900163079275
-0.022694466371712525 0.11897584659227874 0.007026988177803343
-0.04259540129313251 0.11332313062046256 0.007947911307494965
-0.06124778565769999 0.10456398609922304 0.005894998063370977
-0.07777945470316404 0.09310798089128344 0.0009642403870773993
-0.0914174059585892 0.07949078506773172 -0.006613804972585801
-0.10152394398076597 0.064349123570851 -0.016484797036993282
-0.10762649828438761 0.04839100366348735 -0.02818717918803308
-0.10943972021271871 0.03236260929633274 -0.04117376104258614
-0.10687882552364197 0.01701341037571448 -0.054837304466682606
-0.10006355880658857 0.003061118383751321 -0.06853891735574957
-0.08931259435862302 -0.008841873012871312 -0.08163792751934322
-0.07512863532849341 -0.01813899316567211 -0.09352183980071806
-0.058174907876110425 -0.02439551906931298 -0.10363497566961682
-0.03924414945443279 -0.027318902526168785 -0.11150445613275306
-0.019221541287231296 -0.026772449374904323 -0.11676231302996985
0.0009566817211263324 -0.022781711157533625 -0.11916269481644158
0.0203470082892534 -0.015533290357714013 -0.11859336230766553
0.03804276829762441 -0.0053661150760039335 -0.11508093685898446
0.053216527675672566 0.0072444088714275455 -0.1087896555805982
0.06515877829930262 0.02170862740038927 -0.10001369179282714
0.07331111380221192 0.037350209728291235 -0.08916339980860427
0.07729234003695451 0.05343777284985082 -0.07674612722187851
0.07691629928960907 0.06921908019354624 -0.06334249189799782
0.07220057480758212 0.08395621536764955 -0.04957923292763618
0.07674157890509231 0.07055961753587753 -0.033678812991718377
0.06790667272401213 0.08356348847879698 -0.020199485067566258
0.05536569523761308 0.0942260486380062 -0.007634366582160022
0.03970504861486381 0.10204872855104499 0.0034290114892489044
0.02165700728628548 0.10666574839946394 0.012473337884102997
0.002065477605445169 0.10786122146659997 0.019075709952225715
-0.018153462274202316 0.1055792487605067 0.02292740811372113
-0.0380543971956223 0.09992653278869053 0.023848331243412752
-0.05670678156018978 0.09116738826745101 0.021795417999288764
-0.07323845060565383 0.0797113830595114 0.016864660322995186
-0.08687640186107899 0.06609418723595968 0.009286614963331986
-0.09698293988325576 0.050952525739078956 -0.0005843771010754956
-0.1030854941868774 0.034994405831715314 -0.012286759252115292
-0.1048987161152085 0.018966011464560697 -0.025273341106668352
-0.10233782142613176 0.0036168125439424445 -0.03893688453076481
-0.09552255470907836 -0.010335479448020714 -0.05263849741983178
-0.0847715902611128 -0.022238470844643348 -0.06573750758342542
-0.0705876312309832 -0.03153559099744414 -0.07762141986480027
-0.053633903778600216 -0.03779211690108501 -0.08773455573369904
-0.03470314535692258 -0.04071550035794082 -0.09560403619683527
-0.014680537189721087 -0.040169047206676356 -0.10086189309405207
0.005497685818636542 -0.03617830898930566 -0.1032622748805238
0.02488801238676361 -0.02892988818948605 -0.10269294237174774
0.04258377239513462 -0.01876271290777597 -0.09918051692306667
0.057757531773182776 -0.00615218896034449 -0.0928892356446804
0.06969978239681283 0.008312029568617237 -0.08411327185690935
0.07785211789972213 0.023953611896519195 -0.07326297987268648
0.08183334413446472 0.04004117501807879 -0.06084570728596072
0.08145730338711928 0.0558224823617742 -0.04744207196208002
0.07674157890509233 0.07055961753587751 -0.03367881299171839
0.08128258300260253 0.057163019704105485 -0.017778393055800583
0.07244767682152235 0.07016689064702494 -0.004299065131648466
0.05990669933512329 0.08082945080623416 0.00826605335375777
0.04424605271237402 0.08865213071927296 0.019329431425166698
0.02619801138379569 0.0932691505676919 0.02837375782002079
0.0066064817029553805 0.09446462363482794 0.034976129888143505
-0.013612458176692105 0.09218265092873466 0.03882782804963892
-0.03351339309811209 0.08652993495691849 0.03974875117933054
-0.05216577746267957 0.07777079043567897 0.037695837935206554
-0.0686974465081436 0.06631478522773937 0.032765080258912976
-0.08233539776356877 0.052697589404187645 0.02518703489924978
-0.09244193578574554 0.03755592790730692 0.015316042834842296
-0.09854449008936718 0.02159780799994327 0.0036136606838025006
-0.10035771201769828 0.005569413632788658 -0.00937292117075056
-0.09779681732862154 -0.009779785287829596 -0.023036464594847022
-0.09098155061156814 -0.023732077279792756 -0.03673807748391399
-0.08023058616360258 -0.03563506867641539 -0.04983708764750763
-0.06604662713347298 -0.04493218882921619 -0.061720999928882476
-0.049092899681090006 -0.051188714732857056 -0.07183413579778125
-0.030162141259412367 -0.05411209818971286 -0.07970361626091749
-0.010139533092210875 -0.0535656450384484 -0.08496147315813428
0.010038689916146754 -0.0495749068210777 -0.087361854944606
0.029429016484273818 -0.04232648602125809 -0.08679252243582994
0.04712477649264483 -0.03215931073954801 -0.08328009698714887
0.062298535870692985 -0.01954878679211653 -0.07698881570876262
0.07424078649432306 -0.005084568263154804 -0.06821285192099155
0.08239312199723235 0.010557014064747156 -0.0573625599367687
0.08637434823197494 0.026644577186306743 -0.04494528735004293
0.0859983074846295 0.04242588453000216 -0.03154165202616223
0.08128258300260255 0.05716301970410547 -0.0177783930558006
0.08582358710011274 0.04376642187233344 -0.0018779731198827843
0.07698868091903256 0.0567702928152529 0.011601354804269335
0.06444770343263351 0.06743285297446211 0.02416647328967557
0.04878705680988424 0.0752555328875009 0.035229851361084495
0.030739015481305906 0.07987255273591985 0.04427417775593859
0.011147485800465593 0.08106802580305589 0.050876549824061305
-0.009071454079181892 0.07878605309696261 0.05472824798555672
-0.028972389000601874 0.07313333712514644 0.05564917111524834
-0.047624773365169355 0.06437419260390692 0.053596257871124355
-0.0641564424106334 0.05291818739596732 0.04866550019483078
-0.07779439366605856 0.0393009915724156 0.041087454835167576
-0.08790093168823533 0.02415933007553487 0.031216462770760095
-0.09400348599185697 0.008201210168171224 0.0195140806197203
-0.09581670792018807 -0.00782718419898339 0.00652749876516724
-0.09325581323111133 -0.023176383119601643 -0.007136044658929223
-0.08644054651405793 -0.0371286751115648 -0.020837657547996193
-0.07568958206609237 -0.04903166650818743 -0.03393666771158983
-0.06150562303596277 -0.05832878666098823 -0.045820579992964676
-0.04455189558357979 -0.0645853125646291 -0.05593371586186345
-0.02562113716190215 -0.0675086960214849 -0.06380319632499969
-0.005598528994700662 -0.06696224287022044 -0.06906105322221648
0.014579694013656967 -0.06297150465284974 -0.07146143500868819
0.033970020581784034 -0.05572308385303013 -0.07089210249991214
0.051665780590155044 -0.04555590857132005 -0.06737967705123107
0.0668395399682032 -0.032945384623888574 -0.06108839577284482
0.07878179059183327 -0.01848116609492685 -0.05231243198507376
0.08693412609474256 -0.0028395837670248908 -0.0414621400008509
0.09091535232948515 0.013247979354534697 -0.029044867414125132
0.09053931158213971 0.02902928669823011 -0.01564123209024443
0.08582358710011276 0.04376642187233343 -0.0018779731198827999
0.09036459119762295 0.030369824040561395 0.014022446816035013
0.08152968501654277 0.04337369498348085 0.027501774740187133
0.06898870753014372 0.05403625514269006 0.04006689322559337
0.05332806090739445 0.061858935055728856 0.051130271297002296
0.035280019578816116 0.0664759549041478 0.06017459769185639
0.015688489897975805 0.06767142797128384 0.0667769697599791
-0.004530449981671679 0.06538945526519056 0.07062866792147451
-0.024431384903091664 0.05973673929337439 0.07154959105116614
-0.043083769267659146 0.05097759477213488 0.06949667780704215
-0.05961543831312319 0.03952158956419527 0.06456592013074858
-0.07325338956854835 0.025904393740643555 0.05698787477108538
-0.08335992759072512 0.010762732243762826 0.047116882706677896
-0.08946248189434676 -0.00519538766360082 0.0354145005556381
-0.09127570382267786 -0.021223782030755433 0.02242791870108504
-0.08871480913360112 -0.036572980951373686 0.008764375276988574
-0.08189954241654772 -0.05052527294333685 -0.004937237612078394
-0.07114857796858216 -0.06242826433995948 -0.018036247775672035
-0.05696461893845256 -0.07172538449276028 -0.029920160057046875
-0.04001089148606958 -0.07798191039640115 -0.04003329592594565
-0.02108013306439194 -0.08090529385325695 -0.047902776389081886
-0.0010575248971904493 -0.08035884070199249 -0.05316063328629868
0.019120698111167178 -0.0763681024846218 -0.0555610150727704
0.038511024679294244 -0.06911968168480218 -0.054991682563994344
0.056206784687665254 -0.0589525064030921 -0.05147925711531328
0.07138054406571341 -0.046341982455660624 -0.04518797583692702
0.08332279468934348 -0.031877763926698895 -0.03641201204915596
0.09147513019225277 -0.016236181598796934 -0.025561720064933097
0.09545635642699536 -0.00014861847723734715 -0.013144447478207333
0.09508031567964992 0.015632688866458067 0.00025918784567336583
0.09036459119762297 0.03036982404056138 0.014022446816034997
0.09490559529513316 0.016973226208789355 0.0299228667519528
0.08607068911405298 0.029977097151708813 0.04340219467610492
0.07352971162765393 0.04063965731091802 0.055967313161511156
0.05786906500490466 0.04846233722395682 0.06703069123292009
0.039821023676326325 0.053079357072375766 0.07607501762777417
0.020229493995486018 0.0542748301395118 0.0826773896958969
1.0554115838531834e-05 0.05199285743341853 0.08652908785739231
-0.01989038080558145 0.046340141461602355 0.08745001098708394
-0.038542765170148936 0.03758099694036284 0.08539709774295995
-0.05507443421561298 0.026124991732423233 0.08046634006666636
-0.06871238547103814 0.012507795908871517 0.07288829470700317
-0.07881892349321491 -0.002633865588009212 0.06301730264259568
-0.08492147779683655 -0.01859198549537286 0.051314920491555886
-0.08673469972516765 -0.03462037986252747 0.03832833863700283
-0.08417380503609091 -0.04996957878314572 0.024664795212906362
-0.07735853831903751 -0.06392187077510889 0.010963182323839396
-0.06660757387107195 -0.07582486217173151 -0.0021358278397542473
-0.05242361484094235 -0.08512198232453232 -0.014019740121129087
-0.03546988738855937 -0.09137850822817319 -0.024132875990027863
-0.016539128966881728 -0.09430189168502899 -0.0320023564531641
0.003483479200319761 -0.09375543853376453 -0.03726021335038089
0.02366170220867739 -0.08976470031639383 -0.03966059513685261
0.04305202877680445 -0.08251627951657421 -0.03909126262807656
0.06074778878517546 -0.07234910423486414 -0.035578837179395494
0.07592154816322362 -0.05973858028743266 -0.029287555901009232
0.08786379878685369 -0.04527436175847093 -0.02051159211323817
0.09601613428976298 -0.029632779430568974 -0.009661300129015308
0.09999736052450557 -0.013545216309009385 0.0027559724577104565
0.09962131977716013 0.0022360910346860287 0.016159607781591156
0.09490559529513318 0.01697322620878934 0.029922866751952788
0.09944659939264337 0.0035766283770173116 0.0458232866878706
0.09061169321156319 0.01658049931993677 0.05930261461202272
0.07807071572516414 0.02724305947914598 0.07186773309742896
0.062410069102414874 0.035065739392184776 0.08293111116883788
0.04436202777383654 0.03968275924060372 0.09197543756369198
0.02477049809299623 0.04087823230773976 0.09857780963181469
0.004551558213348745 0.03859625960164648 0.1024295077933101
-0.01534937670807124 0.03294354362983031 0.10335043092300172
-0.03400176107263872 0.0241843991085908 0.10129751767887774
-0.05053343011810276 0.01272839390065119 0.09636676000258416
-0.06417138137352793 -0.0008888019229005284 0.08878871464292096
-0.0742779193957047 -0.016030463419781257 0.07891772257851348
-0.08038047369932634 -0.0319885833271449 0.06721534042747368
-0.08219369562765744 -0.048016977694299516 0.05422875857292062
-0.0796328009385807 -0.06336617661491777 0.04056521514882416
-0.0728175342215273 -0.07731846860688094 0.026863602259757192
-0.06206656977356174 -0.08922146000350356 0.01376459209616355
-0.047882610743432134 -0.09851858015630437 0.0018806798147887101
-0.030928883291049154 -0.10477510605994524 -0.008232456054110064
-0.011998124869371516 -0.10769848951680104 -0.016101936517246302
0.008024483297829973 -0.10715203636553658 -0.021359793414463094
0.028202706306187604 -0.10316129814816588 -0.023760175200934815
0.04759303287431467 -0.09591287734834626 -0.02319084269215876
0.06528879288268567 -0.08574570206663619 -0.019678417243477696
0.08046255226073383 -0.07313517811920471 -0.013387135965091434
0.0924048028843639 -0.05867095959024298 -0.004611172177320372
0.10055713838727319 -0.04302937726234102 0.006239119806902489
0.10453836462201578 -0.02694181414078143 0.018656392393628252
0.10416232387467034 -0.011160506797086016 0.03206002771750895
0.09944659939264339 0.0035766283770172977 0.045823286687870585
0.1039876034901536 -0.009819969454754728 0.06172370662378839
0.09515269730907341 0.00318390148816473 0.07520303454794051
0.08261171982267436 0.01384646164737394 0.08776815303334674
0.06695107319992509 0.021669141560412736 0.09883153110475568
0.04890303187134675 0.026286161408831683 0.10787585749960976
0.02931150219050644 0.027481634475967718 0.11447822956773249
0.009092562310858955 0.025199661769874444 0.1183299277292279
-0.010808372610561029 0.019546945798058272 0.11925085085891952
-0.02946075697512851 0.010787801276818759 0.11719793761479554
-0.04599242602059255 -0.00066820393112085 0.11226717993850195
-0.059630377276017714 -0.014285399754672568 0.10468913457883876
-0.06973691529819448 -0.029427061251553296 0.09481814251443127
-0.07583946960181612 -0.045385181158916946 0.08311576036339148
-0.07765269153014721 -0.06141357552607156 0.07012917850883842
-0.07509179684107048 -0.07676277444668982 0.05646563508474196
-0.06827653012401708 -0.09071506643865297 0.04276402219567499
-0.05752556567605153 -0.1026180578352756 0.029665012032081342
-0.043341606645921925 -0.1119151779880764 0.017781099750706502
-0.026387879193538945 -0.11817170389171727 0.007667963881807727
-0.007457120771861304 -0.12109508734857308 -0.00020151658132850817
0.012565487395340184 -0.12054863419730862 -0.005459373478545301
0.032743710403697814 -0.11655789597993792 -0.007859755265017022
0.05213403697182488 -0.1093094751801183 -0.007290422756240967
0.0698297969801959 -0.09914229989840823 -0.0037779973075599024
0.08500355635824405 -0.08653177595097675 0.002513283970826359
0.09694580698187412 -0.07206755742201502 0.01128924775859742
0.10509814248478341 -0.05642597509411306 0.02213953974282028
0.109079368719526 -0.04033841197255347 0.03455681232954605
0.10870332797218056 -0.024557104628858056 0.04796044765342675
0.10398760349015361 -0.009819969454754742 0.06172370662378838
0.1085286075876638 -0.02321656728652678 0.0776241265597062
0.09969370140658362 -0.010212696343607318 0.09110345448385831
0.08715272392018457 0.00044986381560189077 0.10366857296926454
0.0714920772974353 0.008272543728640688 0.11473195104067348
0.05344403596885697 0.012889563577059634 0.12377627743552756
0.03385250628801666 0.01408503664419567 0.13037864950365027
0.01363356640836917 0.011803063938102395 0.1342303476651457
-0.006267368513050814 0.0061503479662862225 0.13515127079483732
-0.024919752877618294 -0.002608796554953291 0.13309835755071334
-0.041451421923082335 -0.014064801762892898 0.12816759987441975
-0.0550893731785075 -0.02768199758644462 0.12058955451475656
-0.06519591120068427 -0.04282365908332535 0.11071856245034907
-0.07129846550430591 -0.05878177899068899 0.09901618029930928
-0.073111687432637 -0.07481017335784361 0.08602959844475622
-0.07055079274356027 -0.09015937227846185 0.07236605502065975
-0.06373552602650687 -0.10411166427042502 0.05866444213159279
-0.05298456157854131 -0.11601465566704765 0.04556543196799914
-0.03880060254841171 -0.12531177581984845 0.033681519686624306
-0.02184687509602873 -0.13156830172348932 0.02356838381772553
-0.00291611667435109 -0.13449168518034513 0.015698903354589296
0.0171064914928504 -0.13394523202908065 0.010441046457372502
0.03728471450120803 -0.12995449381170995 0.00804066467090078
0.056675041069335096 -0.12270607301189035 0.008609997179676835
0.0743708010777061 -0.11253889773018028 0.0121224226283579
0.08954456045575426 -0.0999283737827488 0.018413703906744162
0.10148681107938433 -0.08546415525378706 0.027189667694515224
0.10963914658229362 -0.0698225729258851 0.038039959678738085
0.11362037281703621 -0.053735009804325516 0.05045723226546385
0.11324433206969077 -0.0379537024606301 0.06386086758934455
0.10852860758766382 -0.023216567286526792 0.07762412655970619
-0.020434518438795957 0.06028469024297419 -0.07155188971163008
-0.010646286311143971 0.06440337057146835 -0.07087719672851052
-0.000858054183491988 0.06852205089996251 -0.07020250374539094
0.008930177944159996 0.07264073122845667 -0.06952781076227138
0.018718410071811978 0.07675941155695082 -0.0688531177791518
0.028506642199463965 0.08087809188544498 -0.06817842479603224
0.038294874327115945 0.08499677221393914 -0.06750373181291267
0.04808310645476792 0.08911545254243329 -0.0668290388297931
0.05787133858241991 0.09323413287092745 -0.06615434584667354
0.06765957071007189 0.09735281319942161 -0.06547965286355396
-0.020434518438795957 0.06028469024297419 -0.07155188971163008
-0.012313716624693681 0.066508045944821 -0.06862774057744454
-0.004192914810591407 0.07273140164666782 -0.06570359144325902
0.003927887003510858 0.07895475734851463 -0.06277944230907348
0.01204868881761314 0.08517811305036145 -0.05985529317488795
0.0201694906317154 0.09140146875220825 -0.05693114404070241
0.02829029244581767 0.09762482445405507 -0.05400699490651688
0.036411094259919945 0.10384818015590189 -0.051082845772331346
0.044531896074022234 0.1100715358577487 -0.04815869663814581
0.05265269788812449 0.11629489155959552 -0.04523454750396028
-0.020434518438795957 0.06028469024297419 -0.07155188971163008
-0.014861161822024497 0.06793832416256537 -0.06669516135791632
-0.009287805205253038 0.07559195808215656 -0.061838433004202574
-0.0037144485884815837 0.08324559200174775 -0.056981704650488824
0.0018589080282898783 0.09089922592133894 -0.052124976296775066
0.00743226464506134 0.09855285984093011 -0.047268247943061316
0.013005621261832788 0.1062064937605213 -0.042411519589347565
0.018578977878604255 0.11386012768011249 -0.03755479123563381
0.02415233449537571 0.12151376159970367 -0.03269806288192006
0.02972569111214718 0.12916739551929485 -0.0278413345282063
-0.020434518438795957 0.06028469024297419 -0.07155188971163008
-0.0180125666883207 0.06853921238675569 -0.065288884015418
-0.015590614937845446 0.07679373453053717 -0.05902587831920592
-0.013168663187370191 0.08504825667431866 -0.052762872622993846
-0.010746711436894938 0.09330277881810015 -0.04649986692678177
-0.008324759686419683 0.10155730096188163 -0.04023686123056969
-0.005902807935944427 0.10981182310566312 -0.03397385553435761
-0.0034808561854691848 0.11806634524944462 -0.027710849838145535
-0.0010589044349939207 0.1263208673932261 -0.02144784414193346
0.0013630473154813258 0.1345753895370076 -0.015184838445721367
-0.020434518438795957 0.06028469024297419 -0.07155188971163008
-0.021426427607234358 0.06824559505455945 -0.06456130052065048
-0.022418336775672763 0.0762064998661447 -0.0575707113296709
-0.023410245944111167 0.08416740467772994 -0.050580122138691314
-0.024402155112549572 0.09212830948931519 -0.043589532947711715
-0.025394064280987977 0.10008921430090044 -0.03659894375673212
-0.026385973449426378 0.10805011911248569 -0.029608354565752545
-0.02737788261786478 0.11601102392407094 -0.022617765374772954
-0.028369791786303188 0.1239719287356562 -0.015627176183793355
-0.029361700954741585 0.13193283354724145 -0.008636586992813776
-0.020434518438795957 0.06028469024297419 -0.07155188971163008
-0.024732799776691173 0.06708929015986245 -0.06459125583489299
-0.02903108111458639 0.0738938900767507 -0.05763062195815589
-0.0333293624524816 0.08069848999363896 -0.050669988081418794
-0.03762764379037682 0.08750308991052722 -0.043709354204681694
-0.041925925128272035 0.09430768982741547 -0.03674872032794461
-0.04622420646616725 0.10111228974430372 -0.029788086451207514
-0.05052248780406247 0.10791688966119198 -0.022827452574470414
-0.05482076914195769 0.11472148957808025 -0.015866818697733313
-0.0591190504798529 0.12152608949496849 -0.008906184820996211
-0.020434518438795957 0.06028469024297419 -0.07155188971163008
-0.027573386468480284 0.06519560127992419 -0.06537550383504272
-0.03471225449816461 0.07010651231687418 -0.05919911795845536
-0.041851122527848936 0.07501742335382415 -0.053022732081868
-0.04898999055753327 0.07992833439077414 -0.04684634620528064
-0.0561288585872176 0.08483924542772413 -0.04066996032869327
-0.06326772661690191 0.08975015646467412 -0.03449357445210592
-0.07040659464658625 0.0946610675016241 -0.028317188575518563
-0.07754546267627058 0.0995719785385741 -0.022140802698931192
-0.08468433070595491 0.10448288957552408 -0.015964416822343827
-0.020434518438795957 0.06028469024297419 -0.07155188971163008
-0.029640366038302494 0.06276973898849642 -0.06682905908142195
-0.03884621363780903 0.06525478773401865 -0.062106228451213816
-0.04805206123731557 0.06773983647954086 -0.05738339782100568
-0.05725790883682211 0.0702248852250631 -0.05266056719079755
-0.06646375643632864 0.07270993397058531 -0.04793773656058941
-0.07566960403583518 0.07519498271610754 -0.04321490593038128
-0.08487545163534171 0.07768003146162977 -0.038492075300173144
-0.09408129923484826 0.08016508020715199 -0.03376924466996502
-0.10328714683435479 0.0826501289526742 -0.029046414039756878
-0.020434518438795957 0.06028469024297419 -0.07155188971163008
-0.03070974917727499 0.06007458310598711 -0.06879440630885199
-0.040984979915754026 0.059864475969000026 -0.0660369229060739
-0.051260210654233064 0.059654368832012944 -0.0632794395032958
-0.0615354413927121 0.05944426169502587 -0.060521956100517714
-0.07181067213119113 0.05923415455803878 -0.05776447269773962
-0.08208590286967017 0.0590240474210517 -0.05500698929496153
-0.09236113360814921 0.058813940284064614 -0.05224950589218344
-0.10263636434662825 0.05860383314707754 -0.049492022489405346
-0.11291159508510729 0.058393726010090456 -0.04673453908662725
-0.020434518438795957 0.06028469024297419 -0.07155188971163008
-0.03066565162910105 0.05740219559191849 -0.0710585696497365
-0.040896784819406146 0.05451970094086279 -0.07056524958784292
-0.05112791800971125 0.051637206289807086 -0.07007192952594934
-0.06135905120001634 0.048754711638751384 -0.06957860946405577
-0.07159018439032144 0.04587221698769568 -0.06908528940216219
-0.08182131758062654 0.04298972233663998 -0.06859196934026862
-0.09205245077093165 0.04010722768558427 -0.06809864927837504
-0.10228358396123673 0.03722473303452858 -0.06760532921648146
-0.11251471715154185 0.03434223838347287 -0.06711200915458788
-0.020434518438795957 0.06028469024297419 -0.07155188971163008
-0.029512852047369285 0.055042171099804596 -0.07337619187397663
-0.03859118565594261 0.04979965195663501 -0.07520049403632319
-0.047669519264515944 0.04455713281346541 -0.07702479619866974
-0.05674785287308927 0.03931461367029582 -0.07884909836101629
-0.0658261864816626 0.03407209452712622 -0.08067340052336285
-0.07490452009023593 0.02882957538395663 -0.0824977026857094
-0.08398285369880926 0.023587056240787035 -0.08432200484805595
-0.09306118730738258 0.01834453709761744 -0.0861463070104025
-0.10213952091595592 0.013102017954447842 -0.08797060917274906
-0.020434518438795957 0.06028469024297419 -0.07155188971163008
-0.027376274154288845 0.053250254902919014 -0.0754961226519619
-0.03431802986978173 0.04621581956286384 -0.07944035559229372
-0.04125978558527463 0.03918138422280866 -0.08338458853262554
-0.048201541300767516 0.03214694888275348 -0.08732882147295735
-0.05514329701626041 0.025112513542698302 -0.09127305441328916
-0.0620850527317533 0.018078078202643125 -0.09521728735362098
-0.06902680844724618 0.011043642862587947 -0.0991615202939528
-0.07596856416273907 0.00400920752253277 -0.10310575323428461
-0.08291031987823197 -0.0030252278175224067 -0.10704998617461643
-0.020434518438795957 0.06028469024297419 -0.07155188971163008
-0.024487449316996836 0.052220628925638876 -0.07718863458978237
-0.028540380195197716 0.04415656760830356 -0.08282537946793467
-0.03259331107339859 0.03609250629096825 -0.08846212434608695
-0.036646241951599476 0.028028444973632934 -0.09409886922423925
-0.04069917282980035 0.019964383656297626 -0.09973561410239154
-0.04475210370800123 0.011900322338962316 -0.10537235898054383
-0.04880503458620211 0.003836261021627002 -0.11100910385869613
-0.052857965464402995 -0.004227800295708327 -0.11664584873684841
-0.05691089634260387 -0.012291861613043636 -0.12228259361500071
-0.020434518438795957 0.06028469024297419 -0.07155188971163008
-0.021159426531349636 0.05206486911889562 -0.07827031775694662
-0.021884334623903316 0.04384504799481705 -0.08498874580226318
-0.022609242716456996 0.035625226870738484 -0.09170717384757972
-0.023334150809010676 0.02740540574665991 -0.09842560189289627
-0.024059058901564352 0.019185584622581343 -0.10514402993821281
-0.024783966994118035 0.010965763498502779 -0.11186245798352935
-0.025508875086671715 0.002745942374424204 -0.11858088602884591
-0.0262337831792254 -0.005473878749654372 -0.12529931407416245
-0.02695869127177907 -0.013693699873732942 -0.132017742119479
-0.020434518438795957 0.06028469024297419 -0.07155188971163008
-0.017752848705766253 0.0527998544746123 -0.07862395499824876
-0.015071178972736552 0.045315018706250404 -0.08569602028486743
-0.012389509239706853 0.037830182937888514 -0.0927680855714861
-0.00970783950667715 0.03034534716952662 -0.09984015085810478
-0.0070261697736474504 0.02286051140116473 -0.10691221614472345
-0.004344500040617752 0.015375675632802838 -0.11398428143134212
-0.0016628303075880513 0.007890839864440948 -0.1210563467179608
0.0010188394254416562 0.0004060040960790446 -0.12812841200457947
0.003700509158471353 -0.007078831672282839 -0.13520047729119816
-0.020434518438795957 0.06028469024297419 -0.07155188971163008
-0.014636871406149818 0.05434593792502417 -0.0782112242313465
-0.00883922437350368 0.04840718560707415 -0.08487055875106292
-0.0030415773408575424 0.04246843328912413 -0.09152989327077934
0.002756069691788593 0.03652968097117411 -0.09818922779049576
0.008553716724434732 0.030590928653224086 -0.10484856231021217
0.014351363757080871 0.024652176335274067 -0.1115078968299286
0.020149010789727 0.018713424017324048 -0.118167231349645
0.02594665782237314 0.012774671699374027 -0.12482656586936143
0.03174430485501928 0.006835919381424009 -0.13148590038907784
-0.020434518438795957 0.06028469024297419 -0.07155188971163008
-0.012149159122283178 0.0565355773383226 -0.07707685123901141
-0.0038637998057704016 0.05278646443367102 -0.08260181276639275
0.004421559510742379 0.04903735152901943 -0.08812677429377408
0.012706918827255153 0.045288238624367844 -0.09365173582115542
0.02099227814376793 0.041539125719716255 -0.09917669734853675
0.02927763746028071 0.03779001281506467 -0.10470165887591808
0.037562996776793485 0.034040899910413085 -0.1102266204032994
0.04584835609330626 0.030291787005761493 -0.11575158193068075
0.05413371540981904 0.026542674101109904 -0.12127654345806207
-0.020434518438795957 0.06028469024297419 -0.07155188971163008
-0.010559294080956553 0.05913149130832058 -0.07534376293657354
-0.0006840697231171505 0.05797829237366696 -0.079135636161517
0.009191154634722256 0.05682509343901335 -0.08292750938646046
0.019066378992561653 0.05567189450435972 -0.08671938261140391
0.028941603350401066 0.05451869556970611 -0.09051125583634737
0.038816827708240464 0.053365496635052495 -0.09430312906129083
0.04869205206607986 0.05221229770039888 -0.09809500228623429
0.05856727642391926 0.05105909876574525 -0.10188687551117774
0.06844250078175868 0.049905899831091644 -0.1056787487361212
-0.020434518438795957 0.06028469024297419 -0.07155188971163008
-0.010039562828695557 0.061852372276613395 -0.07319976633323777
0.00035539278140484106 0.06342005431025259 -0.07484764295484546
0.010750348391505229 0.0649877363438918 -0.07649551957645315
0.021145304001605636 0.066555418377531 -0.07814339619806084
0.03154025961170602 0.06812310041117019 -0.07979127281966852
0.04193521522180641 0.06969078244480939 -0.08143914944127623
0.052330170831906817 0.0712584644784486 -0.0830870260628839
0.06272512644200723 0.0728261465120878 -0.0847349026844916
0.07312008205210761 0.074393828545727 -0.08638277930609929
-0.020434518438795957 0.06028469024297419 -0.07155188971163008
-0.010646286311143971 0.06440337057146835 -0.07087719672851052
-0.000858054183491988 0.06852205089996251 -0.07020250374539094
0.00893017794416 0.07264073122845666 -0.06952781076227138
0.018718410071811978 0.07675941155695082 -0.06885311777915182
0.028506642199463972 0.08087809188544497 -0.06817842479603224
0.03829487432711595 0.08499677221393913 -0.06750373181291268
0.04808310645476792 0.08911545254243328 -0.06682903882979312
0.05787133858241991 0.09323413287092744 -0.06615434584667355
0.0676595707100719 0.0973528131994216 -0.06547965286355398
0.020434518438795957 -0.06028469024297419 0.07155188971163008
0.03022275056644794 -0.056166009914480036 0.07222658269474964
0.040010982694099924 -0.05204732958598588 0.07290127567786922
0.049799214821751904 -0.04792864925749172 0.07357596866098878
0.05958744694940389 -0.043809968928997564 0.07425066164410836
0.06937567907705587 -0.03969128860050341 0.07492535462722792
0.07916391120470785 -0.03557260827200925 0.07560004761034748
0.08895214333235983 -0.0314539279435151 0.07627474059346706
0.09874037546001183 -0.02733524761502094 0.07694943357658662
0.1085286075876638 -0.02321656728652678 0.0776241265597062
0.020434518438795957 -0.06028469024297419 0.07155188971163008
0.02855532025289823 -0.05406133454112738 0.07447603884581562
0.0366761220670005 -0.047837978839280565 0.07740018798000114
0.04479692388110277 -0.041614623137433755 0.08032433711418668
0.05291772569520505 -0.03539126743558694 0.08324848624837222
0.061038527509307314 -0.029167911733740132 0.08617263538255775
0.06915932932340958 -0.022944556031893323 0.08909678451674329
0.07728013113751185 -0.016721200330046506 0.09202093365092881
0.08540093295161415 -0.010497844628199688 0.09494508278511435
0.0935217347657164 -0.004274488926352872 0.09786923191929987
0.020434518438795957 -0.06028469024297419 0.07155188971163008
0.026007875055567415 -0.05263105632338301 0.07640861806534384
0.03158123167233887 -0.04497742240379182 0.08126534641905758
0.03715458828911033 -0.03732378848420064 0.08612207477277134
0.04272794490588179 -0.029670154564609457 0.0909788031264851
0.04830130152265325 -0.022016520645018283 0.09583553148019884
0.0538746581394247 -0.014362886725427093 0.1006922598339126
0.05944801475619617 -0.0067092528058359064 0.10554898818762636
0.06502137137296762 0.0009443811137552816 0.1104057165413401
0.07059472798973909 0.008598015033346456 0.11526244489505386
0.020434518438795957 -0.06028469024297419 0.07155188971163008
0.02285647018927121 -0.052030168099192704 0.07781489540784216
0.025278421939746464 -0.04377564595541122 0.08407790110405423
0.02770037369022172 -0.03552112381162973 0.09034090680026631
0.030122325440696974 -0.02726660166784824 0.09660391249647839
0.03254427719117223 -0.019012079524066753 0.10286691819269048
0.034966228941647484 -0.010757557380285271 0.10912992388890255
0.03738818069212273 -0.0025030352365037712 0.11539292958511463
0.03981013244259799 0.005751486907277716 0.1216559352813267
0.042232084193073234 0.014006009051059204 0.12791894097753878
0.020434518438795957 -0.06028469024297419 0.07155188971163008
0.019442609270357552 -0.05232378543138894 0.07854247890260967
0.018450700101919147 -0.044362880619803695 0.08553306809358927
0.017458790933480746 -0.03640197580821845 0.09252365728456885
0.01646688176504234 -0.028441070996633195 0.09951424647554845
0.015474972596603935 -0.020480166185047947 0.10650483566652803
0.014483063428165533 -0.012519261373462704 0.11349542485750762
0.013491154259727132 -0.004558356561877456 0.1204860140484872
0.012499245091288724 0.0034025482497078057 0.1274766032394668
0.011507335922850326 0.011363453061293055 0.1344671924304464
0.020434518438795957 -0.06028469024297419 0.07155188971163008
0.01613623710090074 -0.05348009032608594 0.07851252358836718
0.011837955763005522 -0.04667549040919768 0.08547315746510427
0.0075396744251103095 -0.03987089049230943 0.09243379134184136
0.00324139308721509 -0.03306629057542117 0.09939442521857847
-0.001056888250680123 -0.026261690658532916 0.10635505909531555
-0.005355169588575336 -0.01945709074164467 0.11331569297205264
-0.009653450926470556 -0.012652490824756413 0.12027632684878975
-0.013951732264365775 -0.005847890907868146 0.12723696072552684
-0.018250013602260987 0.0009567090090200947 0.13419759460226394
0.020434518438795957 -0.06028469024297419 0.07155188971163008
0.013295650409111627 -0.0553737792060242 0.07772827558821745
0.006156782379427298 -0.05046286816907422 0.0839046614648048
-0.0009820856502570274 -0.04555195713212423 0.09008104734139216
-0.008120953679941359 -0.040641046095174244 0.09625743321797953
-0.015259821709625686 -0.035730135058224255 0.10243381909456689
-0.02239868973931001 -0.030819224021274277 0.10861020497115424
-0.02953755776899434 -0.025908312984324288 0.11478659084774159
-0.03667642579867867 -0.020997401947374292 0.12096297672432897
-0.043815293828362994 -0.01608649091042431 0.12713936260091632
0.020434518438795957 -0.06028469024297419 0.07155188971163008
0.011228670839289417 -0.05779964149745197 0.07627472034183821
0.0020228232397828797 -0.05531459275192974 0.08099755097204635
-0.0071830243597236585 -0.05282954400640752 0.08572038160225448
-0.016388871959230195 -0.050344495260885296 0.09044321223246261
-0.025594719558736732 -0.04785944651536307 0.09516604286267075
-0.03480056715824327 -0.04537439776984085 0.09988887349287888
-0.0440064147577498 -0.04288934902431862 0.10461170412308701
-0.053212262357256346 -0.04040430027879639 0.10933453475329515
-0.06241810995676288 -0.037919251533274176 0.11405736538350328
0.020434518438795957 -0.06028469024297419 0.07155188971163008
0.010159287700316919 -0.060494797379961274 0.07430937311440818
-0.00011594303816211756 -0.060704904516948356 0.07706685651718627
-0.010391173776641153 -0.06091501165393544 0.07982433991996436
-0.02066640451512019 -0.06112511879092252 0.08258182332274244
-0.03094163525359922 -0.061335225927909603 0.08533930672552054
-0.04121686599207826 -0.061545333064896686 0.08809679012829863
-0.051492096730557296 -0.061755440201883775 0.09085427353107672
-0.061767327469036334 -0.06196554733887085 0.09361175693385482
-0.07204255820751537 -0.06217565447585793 0.09636924033663291
0.020434518438795957 -0.06028469024297419 0.07155188971163008
0.010203385248490859 -0.06316718489402989 0.07204520977352366
-2.774794181423725e-05 -0.0660496795450856 0.07253852983541724
-0.010258881132119336 -0.0689321741961413 0.07303184989731082
-0.02049001432242443 -0.071814668847197 0.0735251699592044
-0.03072114751272953 -0.0746971634982527 0.07401849002109796
-0.040952280703034624 -0.07757965814930841 0.07451181008299154
-0.05118341389333973 -0.08046215280036412 0.07500513014488512
-0.06141454708364481 -0.08334464745141981 0.0754984502067787
-0.07164568027394994 -0.08622714210247552 0.07599177026867228
0.020434518438795957 -0.06028469024297419 0.07155188971163008
0.011356184830222627 -0.06552720938614379 0.06972758754928353
0.002277851221649299 -0.07076972852931339 0.06790328538693698
-0.006800482386924033 -0.07601224767248298 0.06607898322459042
-0.015878815995497356 -0.08125476681565257 0.06425468106224387
-0.024957149604070687 -0.08649728595882217 0.06243037889989732
-0.03403548321264402 -0.09173980510199176 0.060606076737550765
-0.04311381682121734 -0.09698232424516136 0.05878177457520421
-0.05219215042979067 -0.10222484338833095 0.05695747241285766
-0.061270484038364006 -0.10746736253150055 0.05513317025051111
0.020434518438795957 -0.06028469024297419 0.07155188971163008
0.013492762723303065 -0.06731912558302937 0.06760765677129826
0.0065510070078101754 -0.07435356092308455 0.06366342383096645
-0.0003907487076827157 -0.08138799626313972 0.05971919089063463
-0.007332504423175604 -0.0884224316031949 0.05577495795030281
-0.014274260138668499 -0.09545686694325009 0.051830725009971
-0.021216015854161385 -0.10249130228330526 0.04788649206963918
-0.028157771569654273 -0.10952573762336044 0.04394225912930737
-0.03509952728514716 -0.11656017296341561 0.03999802618897554
-0.042041283000640056 -0.1235946083034708 0.036053793248643724
0.020434518438795957 -0.06028469024297419 0.07155188971163008
0.016381587560595077 -0.0683487515603095 0.06591514483347778
0.012328656682394195 -0.07641281287764483 0.060278399955325496
0.008275725804193319 -0.08447687419498014 0.0546416550771732
0.004222794925992436 -0.09254093551231546 0.04900491019902091
0.00016986404779155968 -0.10060499682965077 0.043368165320868624
-0.0038830668304093165 -0.10866905814698608 0.03773142044271633
-0.007935997708610204 -0.11673311946432138 0.03209467556456404
-0.011988928586811083 -0.12479718078165672 0.026457930686411744
-0.016041859465011958 -0.13286124209899203 0.02082118580825945
0.020434518438795957 -0.06028469024297419 0.07155188971163008
0.019709610346242273 -0.06850451136705277 0.06483346166631353
0.018984702253688594 -0.07672433249113134 0.058115033620996986
0.018259794161134917 -0.0849441536152099 0.05139660557568044
0.017534886068581234 -0.09316397473928847 0.04467817753036389
0.01680997797602756 -0.10138379586336704 0.03795974948504735
0.016085069883473878 -0.10960361698744561 0.031241321439730803
0.015360161790920196 -0.11782343811152418 0.024522893394414255
0.014635253698366513 -0.12604325923560275 0.017804465349097708
0.01391034560581284 -0.13426308035968132 0.011086037303781158
0.020434518438795957 -0.06028469024297419 0.07155188971163008
0.023116188171825657 -0.06776952601133608 0.0644798244250114
0.025797857904855358 -0.07525436177969798 0.05740775913839273
0.02847952763788506 -0.08273919754805988 0.05033569385177406
0.031161197370914762 -0.09022403331642177 0.04326362856515538
0.03384286710394446 -0.09770886908478366 0.03619156327853671
0.03652453683697416 -0.10519370485314555 0.029119497991918042
0.03920620657000386 -0.11267854062150744 0.022047432705299366
0.04188787630303357 -0.12016337638986935 0.014975367418680682
0.044569546036063265 -0.12764821215823122 0.007903302132062
0.020434518438795957 -0.06028469024297419 0.07155188971163008
0.026232165471442092 -0.06622344256092422 0.06489255519191366
0.03202981250408823 -0.07216219487887424 0.058233220672197245
0.037827459536734366 -0.07810094719682426 0.05157388615248082
0.043625106569380505 -0.08403969951477427 0.04491455163276441
0.049422753602026644 -0.08997845183272431 0.03825521711304799
0.05522040063467278 -0.09591720415067433 0.03159588259333156
0.061018047667318914 -0.10185595646862435 0.02493654807361515
0.06681569469996505 -0.10779470878657436 0.018277213553898733
0.07261334173261119 -0.11373346110452438 0.011617879034182313
0.020434518438795957 -0.06028469024297419 0.07155188971163008
0.028719877755308734 -0.06403380314762579 0.06602692818424874
0.03700523707182151 -0.06778291605227738 0.06050196665686741
0.04529059638833429 -0.07153202895692895 0.054977005129486084
0.053575955704847064 -0.07528114186158054 0.04945204360210474
0.061861315021359845 -0.07903025476623213 0.043927082074723414
0.07014667433787262 -0.08277936767088372 0.038402120547342086
0.07843203365438539 -0.0865284805755353 0.03287715901996075
0.08671739297089817 -0.0902775934801869 0.02735219749257941
0.09500275228741095 -0.09402670638483848 0.02182723596519808
0.020434518438795957 -0.06028469024297419 0.07155188971163008
0.03030974279663536 -0.06143788917762781 0.06776001648668663
0.04018496715447476 -0.06259108811228142 0.06396814326174316
0.05006019151231417 -0.06374428704693505 0.060176270036799706
0.059935415870153566 -0.06489748598158866 0.056384396811856245
0.06981064022799298 -0.06605068491624227 0.05259252358691279
0.07968586458583238 -0.06720388385089589 0.04880065036196933
0.08956108894367178 -0.0683570827855495 0.04500877713702588
0.09943631330151118 -0.06951028172020314 0.041216903912082416
0.10931153765935059 -0.07066348065485674 0.03742503068713896
0.020434518438795957 -0.06028469024297419 0.07155188971163008
0.030829474048896355 -0.058717008209334995 0.0699040130900224
0.04122442965899675 -0.05714932617569579 0.0682561364684147
0.05161938526909714 -0.055581644142056595 0.06660825984680702
0.06201434087919755 -0.05401396210841739 0.06496038322519933
0.07240929648929793 -0.052446280074778195 0.06331250660359164
0.08280425209939832 -0.050878598041139 0.061664629981983944
0.09319920770949873 -0.04931091600749979 0.060016753360376256
0.10359416331959914 -0.04774323397386059 0.05836887673876856
0.11398911892969953 -0.04617555194022139 0.05672100011716087
0.020434518438795957 -0.06028469024297419 0.07155188971163008
0.03022275056644794 -0.056166009914480036 0.07222658269474964
0.040010982694099924 -0.05204732958598588 0.0729012756778692
0.04979921482175191 -0.047928649257491726 0.07357596866098878
0.05958744694940389 -0.04380996892899757 0.07425066164410835
0.06937567907705589 -0.039691288600503416 0.07492535462722791
0.07916391120470787 -0.03557260827200926 0.07560004761034748
0.08895214333235983 -0.03145392794351511 0.07627474059346705
0.09874037546001183 -0.027335247615020954 0.07694943357658661
0.10852860758766382 -0.023216567286526792 0.07762412655970619
