# .PCD v0.7 - Point Cloud Data file format
VERSION 0.7
FIELDS x y z
SIZE 4 4 4
TYPE F F F
COUNT 1 1 1
WIDTH 600
HEIGHT 1
VIEWPOINT 0 0 0 1 0 0 0
POINTS 600
DATA ascii
-0.06202410052418751 0.016960244577175664 -0.22558682901499094
-0.05679812912511027 0.04021201612808722 -0.20720776139720834
-0.05157215772603305 0.0634637876789988 -0.18882869377942568
-0.04634618632695582 0.08671555922991035 -0.17044962616164303
-0.04112021492787858 0.10996733078082192 -0.1520705585438604
-0.03589424352880134 0.13321910233173348 -0.13369149092607774
-0.030668272129724106 0.15647087388264505 -0.1153124233082951
-0.02544230073064688 0.17972264543355662 -0.09693335569051244
-0.02021632933156964 0.2029744169844682 -0.07855428807272978
-0.0149903579324924 0.22622618853537974 -0.06017522045494715
-0.07826164115440078 0.0035937441840626755 -0.20405952715568065
-0.07303566975532354 0.02684551573497423 -0.18568045953789805
-0.06780969835624631 0.05009728728588581 -0.1673013919201154
-0.06258372695716909 0.07334905883679736 -0.14892232430233274
-0.05735775555809184 0.09660083038770893 -0.1305432566845501
-0.0521317841590146 0.11985260193862049 -0.11216418906676745
-0.04690581275993736 0.14310437348953206 -0.0937851214489848
-0.041679841360860136 0.16635614504044363 -0.07540605383120216
-0.036453869961782896 0.1896079165913552 -0.0570269862134195
-0.03122789856270566 0.21285968814226675 -0.03864791859563687
-0.09449918178461404 -0.009772756209050317 -0.18253222529637037
-0.0892732103855368 0.01347901534186124 -0.16415315767858776
-0.08404723898645958 0.036730786892772815 -0.1457740900608051
-0.07882126758738235 0.059982558443684365 -0.12739502244302245
-0.07359529618830511 0.08323432999459594 -0.1090159548252398
-0.06836932478922787 0.1064861015455075 -0.09063688720745715
-0.06314335339015063 0.12973787309641907 -0.07225781958967452
-0.0579173819910734 0.15298964464733064 -0.05387875197189186
-0.05269141059199616 0.1762414161982422 -0.035499684354109204
-0.04746543919291892 0.19949318774915376 -0.017120616736326574
-0.1107367224148273 -0.023139256602163302 -0.16100492343706008
-0.10551075101575005 0.00011251494874825377 -0.14262585581927748
-0.10028477961667283 0.023364286499659832 -0.12424678820149482
-0.0950588082175956 0.04661605805057138 -0.10586772058371217
-0.08983283681851836 0.06986782960148295 -0.08748865296592953
-0.08460686541944112 0.09311960115239451 -0.06910958534814687
-0.07938089402036388 0.11637137270330607 -0.05073051773036423
-0.07415492262128666 0.13962314425421765 -0.03235145011258158
-0.06892895122220942 0.16287491580512922 -0.013972382494798924
-0.06370297982313218 0.18612668735604077 0.004406685122983704
-0.12697426304504056 -0.0365057569952763 -0.1394776215777498
-0.12174829164596332 -0.01325398544436474 -0.12109855395996717
-0.1165223202468861 0.009997786106546837 -0.10271948634218452
-0.11129634884780887 0.033249557657458385 -0.08434041872440187
-0.10607037744873163 0.056501329208369956 -0.06596135110661923
-0.10084440604965439 0.07975310075928152 -0.04758228348883657
-0.09561843465057715 0.10300487231019308 -0.02920321587105394
-0.09039246325149992 0.12625664386110466 -0.010824148253271286
-0.08516649185242268 0.14950841541201623 0.007554919364511371
-0.07994052045334545 0.17276018696292778 0.025933986982294
-0.14321180367525382 -0.04987225738838929 -0.1179503197184395
-0.13798583227617658 -0.026620485837477732 -0.09957125210065688
-0.13275986087709934 -0.003368714286566156 -0.08119218448287423
-0.12753388947802213 0.019883057264345395 -0.06281311686509158
-0.1223079180789449 0.043134828815256966 -0.04443404924730894
-0.11708194667986765 0.06638660036616853 -0.02605498162952628
-0.11185597528079042 0.08963837191708009 -0.007675914011743645
-0.10663000388171319 0.11289014346799166 0.010703153606039005
-0.10140403248263595 0.13614191501890324 0.029082221223821664
-0.09617806108355871 0.15939368656981479 0.04746128884160429
-0.1594493443054671 -0.06323875778150227 -0.09642301785912921
-0.15422337290638985 -0.03998698623059072 -0.0780439502413466
-0.1489974015073126 -0.01673521467967914 -0.059664882623563946
-0.1437714301082354 0.006516556871232409 -0.0412858150057813
-0.13854545870915816 0.02976832842214398 -0.02290674738799866
-0.13331948731008092 0.05302009997305554 -0.004527679770216
-0.12809351591100368 0.0762718715239671 0.013851387847566636
-0.12286754451192644 0.09952364307487867 0.032230455465349285
-0.1176415731128492 0.12277541462579025 0.05060952308313194
-0.11241560171377196 0.1460271861767018 0.06898859070091458
-0.17568688493568035 -0.07660525817461528 -0.07489571599981892
-0.17046091353660311 -0.05335348662370371 -0.05651664838203631
-0.16523494213752588 -0.030101715072792135 -0.03813758076425365
-0.16000897073844866 -0.0068499435218805855 -0.019758513146471007
-0.15478299933937142 0.016401828029030986 -0.001379445528688363
-0.14955702794029418 0.03965359957994255 0.016999622089094293
-0.14433105654121695 0.0629053711308541 0.03537868970687693
-0.1391050851421397 0.08615714268176568 0.05375775732465958
-0.13387911374306247 0.10940891423267726 0.07213682494244224
-0.12865314234398523 0.1326606857835888 0.09051589256022487
-0.19192442556589362 -0.08997175856772827 -0.05336841414050863
-0.18669845416681638 -0.06671998701681671 -0.03498934652272601
-0.18147248276773914 -0.04346821546590513 -0.016610278904943356
-0.17624651136866193 -0.020216443914993578 0.0017687887128392881
-0.1710205399695847 0.0030353276359179914 0.02014785633062193
-0.16579456857050745 0.026287099186829557 0.03852692394840459
-0.1605685971714302 0.04953887073774111 0.056905991566187225
-0.15534262577235297 0.07279064228865269 0.07528505918396988
-0.15011665437327573 0.09604241383956427 0.09366412680175254
-0.1448906829741985 0.11929418539047582 0.11204319441953517
-0.20816196619610686 -0.10333825896084126 -0.03184111228119835
-0.20293599479702962 -0.0800864874099297 -0.013462044663415728
-0.1977100233979524 -0.056834715859018115 0.004917022954366929
-0.19248405199887517 -0.033582944308106565 0.023296090572149573
-0.18725808059979793 -0.010331172757194997 0.04167515818993221
-0.1820321092007207 0.012920598793716567 0.06005422580771487
-0.17680613780164345 0.03617237034462813 0.07843329342549751
-0.17158016640256624 0.0594241418955397 0.09681236104328016
-0.166354195003489 0.08267591344645128 0.11519142866106281
-0.16112822360441176 0.10592768499736283 0.13357049627884546
0.16112822360441176 -0.10592768499736283 -0.13357049627884546
0.166354195003489 -0.08267591344645128 -0.11519142866106281
0.17158016640256624 -0.0594241418955397 -0.09681236104328016
0.17680613780164345 -0.03617237034462814 -0.07843329342549751
0.1820321092007207 -0.012920598793716567 -0.06005422580771487
0.18725808059979793 0.010331172757194997 -0.04167515818993221
0.19248405199887517 0.033582944308106544 -0.023296090572149573
0.1977100233979524 0.056834715859018115 -0.004917022954366929
0.20293599479702962 0.0800864874099297 0.013462044663415728
0.20816196619610686 0.10333825896084126 0.03184111228119835
0.1448906829741985 -0.11929418539047582 -0.11204319441953517
0.15011665437327573 -0.09604241383956427 -0.09366412680175254
0.15534262577235297 -0.07279064228865269 -0.07528505918396988
0.1605685971714302 -0.049538870737741124 -0.05690599156618724
0.16579456857050745 -0.026287099186829557 -0.03852692394840459
0.1710205399695847 -0.0030353276359179914 -0.02014785633062193
0.17624651136866193 0.020216443914993557 -0.0017687887128392881
0.18147248276773914 0.04346821546590513 0.016610278904943356
0.18669845416681638 0.06671998701681671 0.03498934652272601
0.19192442556589362 0.08997175856772827 0.05336841414050863
0.12865314234398523 -0.1326606857835888 -0.09051589256022487
0.13387911374306247 -0.10940891423267726 -0.07213682494244224
0.1391050851421397 -0.08615714268176568 -0.05375775732465958
0.14433105654121695 -0.06290537113085412 -0.035378689706876944
0.14955702794029418 -0.03965359957994255 -0.016999622089094293
0.15478299933937142 -0.016401828029030986 0.001379445528688363
0.16000897073844866 0.006849943521880565 0.019758513146471007
0.16523494213752588 0.030101715072792135 0.03813758076425365
0.17046091353660311 0.05335348662370371 0.05651664838203631
0.17568688493568035 0.07660525817461528 0.07489571599981892
0.11241560171377198 -0.1460271861767018 -0.06898859070091459
0.11764157311284922 -0.12277541462579025 -0.050609523083131956
0.12286754451192645 -0.09952364307487867 -0.0322304554653493
0.12809351591100368 -0.07627187152396711 -0.01385138784756666
0.13331948731008092 -0.05302009997305553 0.004527679770215985
0.13854545870915816 -0.02976832842214397 0.022906747387998642
0.1437714301082354 -0.00651655687123242 0.04128581500578129
0.14899740150731264 0.01673521467967915 0.05966488262356393
0.15422337290638985 0.03998698623059073 0.07804395024134658
0.1594493443054671 0.06323875778150229 0.0964230178591292
0.09617806108355871 -0.15939368656981479 -0.04746128884160429
0.10140403248263595 -0.13614191501890324 -0.029082221223821664
0.10663000388171319 -0.11289014346799166 -0.010703153606039005
0.11185597528079042 -0.0896383719170801 0.0076759140117436345
0.11708194667986765 -0.06638660036616853 0.02605498162952628
0.1223079180789449 -0.043134828815256966 0.04443404924730894
0.12753388947802213 -0.019883057264345416 0.06281311686509158
0.13275986087709934 0.003368714286566156 0.08119218448287423
0.13798583227617658 0.026620485837477732 0.09957125210065688
0.14321180367525382 0.04987225738838929 0.1179503197184395
0.07994052045334545 -0.17276018696292778 -0.025933986982294
0.08516649185242268 -0.14950841541201623 -0.007554919364511371
0.09039246325149992 -0.12625664386110466 0.010824148253271286
0.09561843465057715 -0.10300487231019309 0.029203215871053928
0.10084440604965439 -0.07975310075928152 0.04758228348883657
0.10607037744873163 -0.056501329208369956 0.06596135110661923
0.11129634884780887 -0.033249557657458406 0.08434041872440187
0.1165223202468861 -0.009997786106546837 0.10271948634218452
0.12174829164596332 0.01325398544436474 0.12109855395996717
0.12697426304504056 0.0365057569952763 0.1394776215777498
0.0637029798231322 -0.18612668735604077 -0.004406685122983719
0.06892895122220943 -0.16287491580512922 0.01397238249479891
0.07415492262128667 -0.13962314425421762 0.032351450112581566
0.0793808940203639 -0.11637137270330608 0.05073051773036421
0.08460686541944114 -0.09311960115239451 0.06910958534814686
0.08983283681851838 -0.06986782960148294 0.08748865296592952
0.09505880821759562 -0.046616058050571396 0.10586772058371216
0.10028477961667284 -0.023364286499659822 0.1242467882014948
0.10551075101575007 -0.00011251494874824452 0.14262585581927745
0.11073672241482731 0.023139256602163313 0.16100492343706008
0.04746543919291892 -0.19949318774915376 0.017120616736326574
0.05269141059199616 -0.1762414161982422 0.035499684354109204
0.0579173819910734 -0.15298964464733064 0.05387875197189186
0.06314335339015063 -0.12973787309641907 0.0722578195896745
0.06836932478922787 -0.1064861015455075 0.09063688720745715
0.07359529618830511 -0.08323432999459594 0.1090159548252398
0.07882126758738235 -0.059982558443684386 0.12739502244302245
0.08404723898645958 -0.036730786892772815 0.1457740900608051
0.0892732103855368 -0.01347901534186124 0.16415315767858776
0.09449918178461404 0.009772756209050317 0.18253222529637037
0.03122789856270566 -0.21285968814226675 0.03864791859563687
0.036453869961782896 -0.1896079165913552 0.0570269862134195
0.041679841360860136 -0.16635614504044363 0.07540605383120216
0.04690581275993736 -0.14310437348953206 0.09378512144898479
0.0521317841590146 -0.11985260193862049 0.11216418906676745
0.05735775555809184 -0.09660083038770893 0.1305432566845501
0.06258372695716909 -0.07334905883679738 0.14892232430233274
0.06780969835624631 -0.05009728728588581 0.1673013919201154
0.07303566975532354 -0.02684551573497423 0.18568045953789805
0.07826164115440078 -0.0035937441840626755 0.20405952715568065
0.0149903579324924 -0.22622618853537974 0.06017522045494715
0.02021632933156964 -0.2029744169844682 0.07855428807272978
0.02544230073064688 -0.17972264543355662 0.09693335569051244
0.030668272129724106 -0.15647087388264505 0.11531242330829508
0.03589424352880134 -0.13321910233173348 0.13369149092607774
0.04112021492787858 -0.10996733078082192 0.1520705585438604
0.04634618632695582 -0.08671555922991037 0.17044962616164303
0.05157215772603305 -0.0634637876789988 0.18882869377942568
0.05679812912511027 -0.04021201612808722 0.20720776139720834
0.06202410052418751 -0.016960244577175664 0.22558682901499094
-0.06202410052418751 0.016960244577175664 -0.22558682901499094
-0.03722939784323205 0.003306030180004724 -0.21536279204430814
-0.012434695162276565 -0.010348184217166222 -0.20513875507362528
0.012360007518678896 -0.02400239861433717 -0.19491471810294247
0.03715471019963438 -0.03765661301150812 -0.18469068113225962
0.06194941288058985 -0.05131082740867905 -0.17446664416157678
0.08674411556154532 -0.06496504180585 -0.16424260719089395
0.11153881824250081 -0.07861925620302093 -0.15401857022021112
0.13633352092345627 -0.09227347060019189 -0.1437945332495283
0.16112822360441176 -0.10592768499736283 -0.13357049627884546
-0.07826164115440078 0.0035937441840626755 -0.20405952715568065
-0.05346693847344531 -0.010060470213108264 -0.19383549018499785
-0.028672235792489825 -0.023714684610279212 -0.183611453214315
-0.0038775331115343628 -0.037368899007450156 -0.1733874162436322
0.020917169569421117 -0.0510231134046211 -0.16316337927294933
0.045711872250376595 -0.06467732780179204 -0.1529393423022665
0.07050657493133207 -0.07833154219896299 -0.14271530533158366
0.09530127761228754 -0.09198575659613392 -0.13249126836090083
0.12009598029324302 -0.10563997099330488 -0.122267231390218
0.1448906829741985 -0.11929418539047582 -0.11204319441953517
-0.09449918178461404 -0.009772756209050317 -0.18253222529637037
-0.06970447910365858 -0.02342697060622126 -0.17230818832568756
-0.044909776422703086 -0.037081185003392206 -0.1620841513550047
-0.02011507374174763 -0.05073539940056315 -0.1518601143843219
0.004679628939207853 -0.0643896137977341 -0.14163607741363904
0.029474331620163333 -0.07804382819490503 -0.1314120404429562
0.0542690343011188 -0.09169804259207598 -0.12118800347227338
0.07906373698207428 -0.10535225698924691 -0.11096396650159054
0.10385843966302975 -0.11900647138641787 -0.1007399295309077
0.12865314234398523 -0.1326606857835888 -0.09051589256022487
-0.1107367224148273 -0.023139256602163302 -0.16100492343706008
-0.08594201973387183 -0.03679347099933424 -0.15078088646637727
-0.061147317052916345 -0.05044768539650519 -0.1405568494956944
-0.036352614371960884 -0.06410189979367614 -0.1303328125250116
-0.011557911691005403 -0.07775611419084709 -0.12010877555432876
0.013236790989950077 -0.09141032858801802 -0.10988473858364593
0.038031493670905546 -0.10506454298518897 -0.0996607016129631
0.06282619635186103 -0.1187187573823599 -0.08943666464228026
0.0876208990328165 -0.13237297177953086 -0.07921262767159742
0.11241560171377198 -0.1460271861767018 -0.06898859070091459
-0.12697426304504056 -0.0365057569952763 -0.1394776215777498
-0.1021795603640851 -0.05015997139244724 -0.12925358460706698
-0.07738485768312961 -0.06381418578961819 -0.11902954763638413
-0.05259015500217415 -0.07746840018678913 -0.10880551066570131
-0.027795452321218668 -0.09112261458396008 -0.09858147369501846
-0.003000749640263189 -0.10477682898113101 -0.08835743672433563
0.021793953040692277 -0.11843104337830196 -0.0781333997536528
0.04658865572164776 -0.1320852577754729 -0.06790936278296997
0.07138335840260324 -0.14573947217264385 -0.05768532581228712
0.09617806108355871 -0.15939368656981479 -0.04746128884160429
-0.14321180367525382 -0.04987225738838929 -0.1179503197184395
-0.11841710099429836 -0.06352647178556023 -0.10772628274775668
-0.09362239831334287 -0.07718068618273118 -0.09750224577707384
-0.06882769563238741 -0.09083490057990212 -0.08727820880639102
-0.04403299295143193 -0.10448911497707307 -0.07705417183570817
-0.019238290270476452 -0.118143329374244 -0.06683013486502534
0.005556412410479013 -0.13179754377141495 -0.05660609789434251
0.030351115091434497 -0.14545175816858588 -0.04638206092365967
0.05514581777238997 -0.15910597256575684 -0.036158023952976834
0.07994052045334545 -0.17276018696292778 -0.025933986982294
-0.1594493443054671 -0.06323875778150227 -0.09642301785912921
-0.13465464162451163 -0.07689297217867322 -0.0861989808884464
-0.10985993894355613 -0.09054718657584417 -0.07597494391776355
-0.08506523626260067 -0.10420140097301511 -0.06575090694708073
-0.06027053358164519 -0.11785561537018606 -0.05552686997639789
-0.03547583090068971 -0.13150982976735698 -0.04530283300571506
-0.010681128219734243 -0.14516404416452794 -0.03507879603503223
0.014113574461221242 -0.15881825856169887 -0.02485475906434939
0.03890827714217671 -0.17247247295886983 -0.01463072209366655
0.0637029798231322 -0.18612668735604077 -0.004406685122983719
-0.17568688493568035 -0.07660525817461528 -0.07489571599981892
-0.1508921822547249 -0.09025947257178621 -0.0646716790291361
-0.1260974795737694 -0.10391368696895716 -0.05444764205845326
-0.10130277689281393 -0.1175679013661281 -0.04422360508777044
-0.07650807421185846 -0.13122211576329906 -0.0339995681170876
-0.051713371530902975 -0.14487633016047 -0.023775531146404766
-0.026918668849947508 -0.15853054455764093 -0.013551494175721934
-0.0021239661689920236 -0.17218475895481186 -0.003327457205039095
0.02267073651196345 -0.18583897335198282 0.006896579765643744
0.04746543919291892 -0.19949318774915376 0.017120616736326574
-0.19192442556589362 -0.08997175856772827 -0.05336841414050863
-0.16712972288493816 -0.1036259729648992 -0.04314437716982581
-0.14233502020398267 -0.11728018736207015 -0.032920340199142965
-0.1175403175230272 -0.1309344017592411 -0.022696303228460148
-0.09274561484207172 -0.14458861615641205 -0.012472266257777302
-0.06795091216111623 -0.15824283055358299 -0.0022482292870944706
-0.04315620948016077 -0.17189704495075392 0.007975807683588361
-0.01836150679920529 -0.18555125934792485 0.0181998446542712
0.006433195881750185 -0.1992054737450958 0.028423881624954038
0.03122789856270566 -0.21285968814226675 0.03864791859563687
-0.20816196619610686 -0.10333825896084126 -0.03184111228119835
-0.1833672635151514 -0.11699247335801219 -0.021617075310515526
-0.1585725608341959 -0.13064668775518315 -0.01139303833983268
-0.13377785815324045 -0.14430090215235408 -0.0011690013691498628
-0.10898315547228497 -0.15795511654952504 0.009055035601532983
-0.0841884527913295 -0.17160933094669598 0.019279072572215814
-0.05939375011037403 -0.1852635453438669 0.029503109542898646
-0.03459904742941855 -0.19891775974103784 0.03972714651358148
-0.009804344748463074 -0.2125719741382088 0.04995118348426432
0.0149903579324924 -0.22622618853537974 0.06017522045494715
-0.0149903579324924 0.22622618853537974 -0.06017522045494715
0.009804344748463074 0.2125719741382088 -0.04995118348426432
0.03459904742941855 0.19891775974103784 -0.03972714651358148
0.05939375011037401 0.1852635453438669 -0.02950310954289866
0.0841884527913295 0.17160933094669598 -0.019279072572215814
0.10898315547228497 0.15795511654952504 -0.009055035601532983
0.13377785815324045 0.14430090215235408 0.001169001369149849
0.1585725608341959 0.13064668775518315 0.01139303833983268
0.1833672635151514 0.11699247335801219 0.021617075310515526
0.20816196619610686 0.10333825896084126 0.03184111228119835
-0.03122789856270566 0.21285968814226675 -0.03864791859563687
-0.006433195881750185 0.1992054737450958 -0.028423881624954038
0.01836150679920529 0.18555125934792485 -0.0181998446542712
0.04315620948016075 0.17189704495075392 -0.007975807683588375
0.06795091216111623 0.15824283055358299 0.0022482292870944706
0.09274561484207172 0.14458861615641205 0.012472266257777302
0.11754031752302718 0.1309344017592411 0.022696303228460134
0.14233502020398267 0.11728018736207015 0.032920340199142965
0.16712972288493816 0.1036259729648992 0.04314437716982581
0.19192442556589362 0.08997175856772827 0.05336841414050863
-0.04746543919291892 0.19949318774915376 -0.017120616736326574
-0.02267073651196345 0.18583897335198282 -0.006896579765643744
0.0021239661689920236 0.17218475895481186 0.003327457205039095
0.026918668849947487 0.15853054455764093 0.01355149417572192
0.051713371530902975 0.14487633016047 0.023775531146404766
0.07650807421185846 0.13122211576329906 0.0339995681170876
0.10130277689281392 0.1175679013661281 0.04422360508777043
0.1260974795737694 0.10391368696895716 0.05444764205845326
0.1508921822547249 0.09025947257178621 0.0646716790291361
0.17568688493568035 0.07660525817461528 0.07489571599981892
-0.06370297982313218 0.18612668735604077 0.004406685122983704
-0.038908277142176706 0.17247247295886983 0.014630722093666537
-0.014113574461221232 0.15881825856169887 0.024854759064349374
0.010681128219734232 0.14516404416452794 0.0350787960350322
0.03547583090068972 0.131509829767357 0.04530283300571505
0.0602705335816452 0.11785561537018606 0.05552686997639788
0.08506523626260067 0.10420140097301511 0.0657509069470807
0.10985993894355614 0.09054718657584417 0.07597494391776353
0.13465464162451163 0.07689297217867322 0.08619898088844638
0.1594493443054671 0.06323875778150229 0.0964230178591292
-0.07994052045334545 0.17276018696292778 0.025933986982294
-0.05514581777238997 0.15910597256575684 0.036158023952976834
-0.030351115091434497 0.14545175816858588 0.04638206092365967
-0.005556412410479034 0.13179754377141495 0.0566060978943425
0.019238290270476452 0.118143329374244 0.06683013486502534
0.04403299295143193 0.10448911497707307 0.07705417183570817
0.0688276956323874 0.09083490057990212 0.087278208806391
0.09362239831334287 0.07718068618273118 0.09750224577707384
0.11841710099429836 0.06352647178556023 0.10772628274775668
0.14321180367525382 0.04987225738838929 0.1179503197184395
-0.09617806108355871 0.15939368656981479 0.04746128884160429
-0.07138335840260324 0.14573947217264385 0.05768532581228712
-0.04658865572164776 0.1320852577754729 0.06790936278296997
-0.021793953040692298 0.11843104337830196 0.07813339975365279
0.003000749640263189 0.10477682898113101 0.08835743672433563
0.027795452321218668 0.09112261458396008 0.09858147369501846
0.052590155002174135 0.07746840018678913 0.1088055106657013
0.07738485768312961 0.06381418578961819 0.11902954763638413
0.1021795603640851 0.05015997139244724 0.12925358460706698
0.12697426304504056 0.0365057569952763 0.1394776215777498
-0.11241560171377196 0.1460271861767018 0.06898859070091458
-0.08762089903281649 0.13237297177953086 0.07921262767159741
-0.06282619635186101 0.1187187573823599 0.08943666464228024
-0.03803149367090555 0.10506454298518897 0.09966070161296307
-0.013236790989950066 0.09141032858801802 0.10988473858364592
0.011557911691005413 0.07775611419084709 0.12010877555432875
0.03635261437196088 0.06410189979367614 0.13033281252501158
0.06114731705291635 0.050447685396505196 0.1405568494956944
0.08594201973387185 0.03679347099933425 0.15078088646637725
0.11073672241482731 0.023139256602163313 0.16100492343706008
-0.12865314234398523 0.1326606857835888 0.09051589256022487
-0.10385843966302975 0.11900647138641787 0.1007399295309077
-0.07906373698207428 0.10535225698924691 0.11096396650159054
-0.05426903430111882 0.09169804259207598 0.12118800347227336
-0.029474331620163333 0.07804382819490503 0.1314120404429562
-0.004679628939207853 0.0643896137977341 0.14163607741363904
0.020115073741747615 0.05073539940056315 0.15186011438432187
0.044909776422703086 0.037081185003392206 0.1620841513550047
0.06970447910365858 0.02342697060622126 0.17230818832568756
0.09449918178461404 0.009772756209050317 0.18253222529637037
-0.1448906829741985 0.11929418539047582 0.11204319441953517
-0.12009598029324302 0.10563997099330488 0.122267231390218
-0.09530127761228754 0.09198575659613392 0.13249126836090083
-0.07050657493133208 0.07833154219896299 0.14271530533158366
-0.045711872250376595 0.06467732780179204 0.1529393423022665
-0.020917169569421117 0.0510231134046211 0.16316337927294933
0.003877533111534349 0.037368899007450156 0.17338741624363216
0.028672235792489825 0.023714684610279212 0.183611453214315
0.05346693847344531 0.010060470213108264 0.19383549018499785
0.07826164115440078 -0.0035937441840626755 0.20405952715568065
-0.16112822360441176 0.10592768499736283 0.13357049627884546
-0.13633352092345627 0.09227347060019189 0.1437945332495283
-0.11153881824250081 0.07861925620302093 0.15401857022021112
-0.08674411556154535 0.06496504180585 0.16424260719089395
-0.06194941288058985 0.05131082740867905 0.17446664416157678
-0.03715471019963438 0.03765661301150812 0.18469068113225962
-0.01236000751867891 0.02400239861433717 0.19491471810294245
0.012434695162276565 0.010348184217166222 0.20513875507362528
0.03722939784323205 -0.003306030180004724 0.21536279204430814
0.06202410052418751 -0.016960244577175664 0.22558682901499094
-0.06202410052418751 0.016960244577175664 -0.22558682901499094
-0.03722939784323205 0.003306030180004724 -0.21536279204430814
-0.012434695162276565 -0.010348184217166222 -0.20513875507362528
0.012360007518678896 -0.02400239861433717 -0.19491471810294247
0.03715471019963438 -0.03765661301150812 -0.18469068113225962
0.06194941288058985 -0.05131082740867905 -0.17446664416157678
0.08674411556154532 -0.06496504180585 -0.16424260719089395
0.11153881824250081 -0.07861925620302093 -0.15401857022021112
0.13633352092345627 -0.09227347060019189 -0.1437945332495283
0.16112822360441176 -0.10592768499736283 -0.13357049627884546
-0.05679812912511027 0.04021201612808722 -0.20720776139720834
-0.03200342644415481 0.02655780173091628 -0.1969837244265255
-0.007208723763199326 0.012903587333745335 -0.18675968745584265
0.017585978917756127 -0.0007506270634256059 -0.17653565048515985
0.04238068159871162 -0.014404841460596559 -0.16631161351447699
0.06717538427966709 -0.028059055857767492 -0.15608757654379415
0.09197008696062256 -0.04171327025493844 -0.14586353957311132
0.11676478964157803 -0.05536748465210939 -0.1356395026024285
0.1415594923225335 -0.06902169904928032 -0.12541546563174566
0.166354195003489 -0.08267591344645128 -0.11519142866106281
-0.05157215772603305 0.0634637876789988 -0.18882869377942568
-0.026777455045077576 0.049809573281827856 -0.17860465680874285
-0.0019827523641221 0.03615535888465691 -0.16838061983806
0.02281195031683336 0.022501144487485972 -0.15815658286737716
0.04760665299778885 0.008846930090315026 -0.14793254589669433
0.07240135567874433 -0.004807284306855922 -0.1377085089260115
0.0971960583596998 -0.018461498704026854 -0.12748447195532867
0.12199076104065527 -0.03211571310119782 -0.11726043498464583
0.14678546372161075 -0.04576992749836875 -0.10703639801396299
0.17158016640256624 -0.0594241418955397 -0.09681236104328016
-0.04634618632695582 0.08671555922991035 -0.17044962616164303
-0.02155148364600035 0.0730613448327394 -0.1602255891909602
0.0032432190349551394 0.05940713043556846 -0.15000155222027736
0.0280379217159106 0.04575291603839752 -0.13977751524959453
0.05283262439686608 0.03209870164122657 -0.1295534782789117
0.07762732707782156 0.01844448724405563 -0.11932944130822885
0.10242202975877703 0.004790272846884688 -0.10910540433754602
0.1272167324397325 -0.008863941550286258 -0.09888136736686319
0.152011435120688 -0.022518155947457204 -0.08865733039618034
0.17680613780164345 -0.03617237034462814 -0.07843329342549751
-0.04112021492787858 0.10996733078082192 -0.1520705585438604
-0.01632551224692311 0.09631311638365098 -0.14184652157317756
0.00846919043403238 0.08265890198648003 -0.1316224846024947
0.033263893114987834 0.0690046875893091 -0.12139844763181189
0.05805859579594332 0.05535047319213815 -0.11117441066112904
0.0828532984768988 0.0416962587949672 -0.10095037369044621
0.10764800115785426 0.02804204439779626 -0.09072633671976338
0.13244270383880974 0.014387830000625313 -0.08050229974908053
0.15723740651976523 0.0007336156034543656 -0.0702782627783977
0.1820321092007207 -0.012920598793716567 -0.06005422580771487
-0.03589424352880134 0.13321910233173348 -0.13369149092607774
-0.01109954084784587 0.11956488793456255 -0.12346745395539489
0.013695161833109612 0.1059106735373916 -0.11324341698471206
0.038489864514065074 0.09225645914022067 -0.10301938001402923
0.06328456719502056 0.0786022447430497 -0.0927953430433464
0.08807926987597603 0.06494803034587877 -0.08257130607266355
0.1128739725569315 0.05129381594870783 -0.07234726910198072
0.13766867523788698 0.03763960155153688 -0.06212323213129789
0.16246337791884247 0.023985387154365937 -0.051899195160615044
0.18725808059979793 0.010331172757194997 -0.04167515818993221
-0.030668272129724106 0.15647087388264505 -0.1153124233082951
-0.005873569448768645 0.1428166594854741 -0.10508838633761226
0.018921133232186842 0.12916244508830316 -0.09486434936692942
0.043715835913142306 0.11550823069113221 -0.08464031239624659
0.0685105385940978 0.10185401629396126 -0.07441627542556375
0.09330524127505327 0.08819980189679032 -0.06419223845488092
0.11809994395600873 0.07454558749961938 -0.053968201484198085
0.14289464663696422 0.06089137310244843 -0.043744164513515246
0.16768934931791968 0.047237158705277484 -0.0335201275428324
0.19248405199887517 0.033582944308106544 -0.023296090572149573
-0.02544230073064688 0.17972264543355662 -0.09693335569051244
-0.0006475980496914053 0.16606843103638566 -0.0867093187198296
0.024147104631264082 0.15241421663921473 -0.07648528174914677
0.04894180731221954 0.1387600022420438 -0.06626124477846394
0.07373650999317502 0.12510578784487283 -0.0560372078077811
0.09853121267413051 0.11145157344770189 -0.045813170837098266
0.12332591535508597 0.09779735905053095 -0.035589133866415434
0.14812061803604146 0.08414314465336001 -0.025365096895732606
0.17291532071699692 0.07048893025618906 -0.01514105992504976
0.1977100233979524 0.056834715859018115 -0.004917022954366929
-0.02021632933156964 0.2029744169844682 -0.07855428807272978
0.004578373349385834 0.18932020258729723 -0.06833025110204695
0.029373076030341314 0.1756659881901263 -0.05810621413136411
0.05416777871129678 0.16201177379295537 -0.04788217716068128
0.07896248139225226 0.1483575593957844 -0.03765814018999844
0.10375718407320773 0.13470334499861347 -0.027434103219315612
0.1285518867541632 0.12104913060144253 -0.01721006624863278
0.15334658943511867 0.10739491620427158 -0.006986029277949949
0.17814129211607416 0.09374070180710063 0.0032380076927328964
0.20293599479702962 0.0800864874099297 0.013462044663415728
-0.0149903579324924 0.22622618853537974 -0.06017522045494715
0.009804344748463074 0.2125719741382088 -0.04995118348426432
0.03459904742941855 0.19891775974103784 -0.03972714651358148
0.05939375011037401 0.1852635453438669 -0.02950310954289866
0.0841884527913295 0.17160933094669598 -0.019279072572215814
0.10898315547228497 0.15795511654952504 -0.009055035601532983
0.13377785815324045 0.14430090215235408 0.001169001369149849
0.1585725608341959 0.13064668775518315 0.01139303833983268
0.1833672635151514 0.11699247335801219 0.021617075310515526
0.20816196619610686 0.10333825896084126 0.03184111228119835
-0.20816196619610686 -0.10333825896084126 -0.03184111228119835
-0.1833672635151514 -0.11699247335801219 -0.021617075310515526
-0.1585725608341959 -0.13064668775518315 -0.01139303833983268
-0.13377785815324045 -0.14430090215235408 -0.0011690013691498628
-0.10898315547228497 -0.15795511654952504 0.009055035601532983
-0.0841884527913295 -0.17160933094669598 0.019279072572215814
-0.05939375011037403 -0.1852635453438669 0.029503109542898646
-0.03459904742941855 -0.19891775974103784 0.03972714651358148
-0.009804344748463074 -0.2125719741382088 0.04995118348426432
0.0149903579324924 -0.22622618853537974 0.06017522045494715
-0.20293599479702962 -0.0800864874099297 -0.013462044663415728
-0.17814129211607416 -0.09374070180710063 -0.0032380076927328964
-0.15334658943511867 -0.10739491620427158 0.006986029277949949
-0.12855188675416324 -0.12104913060144253 0.017210066248632767
-0.10375718407320773 -0.13470334499861347 0.027434103219315612
-0.07896248139225226 -0.1483575593957844 0.03765814018999844
-0.0541677787112968 -0.16201177379295537 0.04788217716068127
-0.029373076030341314 -0.1756659881901263 0.05810621413136411
-0.004578373349385834 -0.18932020258729723 0.06833025110204695
0.02021632933156964 -0.2029744169844682 0.07855428807272978
-0.1977100233979524 -0.056834715859018115 0.004917022954366929
-0.17291532071699692 -0.07048893025618906 0.01514105992504976
-0.14812061803604146 -0.08414314465336001 0.025365096895732606
-0.123325915355086 -0.09779735905053094 0.03558913386641543
-0.09853121267413051 -0.11145157344770189 0.045813170837098266
-0.07373650999317502 -0.12510578784487283 0.0560372078077811
-0.04894180731221956 -0.13876000224204377 0.06626124477846393
-0.024147104631264082 -0.15241421663921473 0.07648528174914677
0.0006475980496914053 -0.16606843103638566 0.0867093187198296
0.02544230073064688 -0.17972264543355662 0.09693335569051244
-0.19248405199887517 -0.033582944308106565 0.023296090572149573
-0.1676893493179197 -0.047237158705277504 0.0335201275428324
-0.14289464663696422 -0.06089137310244845 0.04374416451351523
-0.11809994395600876 -0.0745455874996194 0.053968201484198064
-0.09330524127505327 -0.08819980189679034 0.06419223845488091
-0.0685105385940978 -0.10185401629396129 0.07441627542556374
-0.04371583591314233 -0.11550823069113222 0.08464031239624657
-0.018921133232186842 -0.12916244508830318 0.0948643493669294
0.005873569448768631 -0.14281665948547412 0.10508838633761225
0.030668272129724106 -0.15647087388264505 0.11531242330829508
-0.18725808059979793 -0.010331172757194997 0.04167515818993221
-0.16246337791884247 -0.023985387154365937 0.051899195160615044
-0.13766867523788698 -0.03763960155153688 0.06212323213129789
-0.11287397255693152 -0.05129381594870782 0.07234726910198072
-0.08807926987597603 -0.06494803034587877 0.08257130607266355
-0.06328456719502056 -0.0786022447430497 0.0927953430433464
-0.038489864514065095 -0.09225645914022065 0.10301938001402923
-0.013695161833109612 -0.1059106735373916 0.11324341698471206
0.01109954084784587 -0.11956488793456255 0.12346745395539489
0.03589424352880134 -0.13321910233173348 0.13369149092607774
-0.1820321092007207 0.012920598793716567 0.06005422580771487
-0.15723740651976523 -0.0007336156034543656 0.0702782627783977
-0.13244270383880974 -0.014387830000625313 0.08050229974908053
-0.10764800115785428 -0.028042044397796253 0.09072633671976336
-0.0828532984768988 -0.0416962587949672 0.10095037369044621
-0.05805859579594332 -0.05535047319213815 0.11117441066112904
-0.033263893114987855 -0.06900468758930908 0.12139844763181187
-0.00846919043403238 -0.08265890198648003 0.1316224846024947
0.01632551224692311 -0.09631311638365098 0.14184652157317756
0.04112021492787858 -0.10996733078082192 0.1520705585438604
-0.17680613780164345 0.03617237034462813 0.07843329342549751
-0.152011435120688 0.022518155947457177 0.08865733039618034
-0.1272167324397325 0.008863941550286244 0.09888136736686318
-0.10242202975877705 -0.004790272846884702 0.10910540433754601
-0.07762732707782156 -0.01844448724405565 0.11932944130822884
-0.05283262439686609 -0.03209870164122659 0.12955347827891167
-0.02803792171591062 -0.04575291603839753 0.1397775152495945
-0.0032432190349551394 -0.05940713043556848 0.15000155222027736
0.021551483646000336 -0.07306134483273943 0.1602255891909602
0.04634618632695582 -0.08671555922991037 0.17044962616164303
-0.17158016640256624 0.0594241418955397 0.09681236104328016
-0.14678546372161075 0.04576992749836875 0.10703639801396299
-0.12199076104065527 0.03211571310119782 0.11726043498464583
-0.09719605835969981 0.018461498704026868 0.12748447195532867
-0.07240135567874433 0.004807284306855922 0.1377085089260115
-0.04760665299778885 -0.008846930090315026 0.14793254589669433
-0.022811950316833387 -0.022501144487485965 0.15815658286737716
0.0019827523641221 -0.03615535888465691 0.16838061983806
0.026777455045077576 -0.049809573281827856 0.17860465680874285
0.05157215772603305 -0.0634637876789988 0.18882869377942568
-0.166354195003489 0.08267591344645128 0.11519142866106281
-0.1415594923225335 0.06902169904928032 0.12541546563174566
-0.11676478964157803 0.05536748465210939 0.1356395026024285
-0.09197008696062257 0.041713270254938456 0.14586353957311132
-0.06717538427966709 0.028059055857767492 0.15608757654379415
-0.04238068159871162 0.014404841460596559 0.16631161351447699
-0.017585978917756147 0.0007506270634256129 0.17653565048515982
0.007208723763199326 -0.012903587333745335 0.18675968745584265
0.03200342644415481 -0.02655780173091628 0.1969837244265255
0.05679812912511027 -0.04021201612808722 0.20720776139720834
-0.16112822360441176 0.10592768499736283 0.13357049627884546
-0.13633352092345627 0.09227347060019189 0.1437945332495283
-0.11153881824250081 0.07861925620302093 0.15401857022021112
-0.08674411556154535 0.06496504180585 0.16424260719089395
-0.06194941288058985 0.05131082740867905 0.17446664416157678
-0.03715471019963438 0.03765661301150812 0.18469068113225962
-0.01236000751867891 0.02400239861433717 0.19491471810294245
0.012434695162276565 0.010348184217166222 0.20513875507362528
0.03722939784323205 -0.003306030180004724 0.21536279204430814
0.06202410052418751 -0.016960244577175664 0.22558682901499094
