# .PCD v0.7 - Point Cloud Data file format
VERSION 0.7
FIELDS x y z
SIZE 4 4 4
TYPE F F F
COUNT 1 1 1
WIDTH 600
HEIGHT 1
VIEWPOINT 0 0 0 1 0 0 0
POINTS 600
DATA ascii
-0.10128523496652077 -0.005457507681240251 -0.04594886638826217
-0.09600086238961782 0.005819003309336567 -0.03894691404992267
-0.09071648981271488 0.017095514299913395 -0.03194496171158316
-0.08543211723581194 0.028372025290490214 -0.024943009373243664
-0.08014774465890899 0.03964853628106704 -0.01794105703490416
-0.07486337208200605 0.05092504727164387 -0.010939104696564655
-0.06957899950510311 0.062201558262220694 -0.003937152358225154
-0.06429462692820018 0.07347806925279753 0.0030647999801143543
-0.05901025435129723 0.08475458024337434 0.010066752318453862
-0.05372588177439429 0.09603109123395118 0.017068704656793356
-0.09640601841503532 -0.014116533767605442 -0.035686013798467295
-0.09112164583813237 -0.0028400227770286235 -0.028684061460127797
-0.08583727326122943 0.008436488213548206 -0.02168210912178829
-0.0805529006843265 0.019712999204125024 -0.014680156783448788
-0.07526852810742354 0.030989510194701853 -0.007678204445109283
-0.0699841555305206 0.042266021185278675 -0.0006762521067697787
-0.06469978295361767 0.0535425321758555 0.006325700231569723
-0.05941541037671473 0.06481904316643233 0.01332765256990923
-0.054131037799811786 0.07609555415700915 0.020329604908248738
-0.04884666522290884 0.08737206514758598 0.027331557246588232
-0.09152680186354988 -0.02277555985397063 -0.025423161208672423
-0.08624242928664692 -0.011499048863393814 -0.01842120887033292
-0.08095805670974399 -0.00022253787281698497 -0.011419256531993412
-0.07567368413284105 0.011053973117759833 -0.004417304193653912
-0.0703893115559381 0.02233048410833666 0.002584648144685593
-0.06510493897903516 0.03360699509891349 0.009586600483025098
-0.059820566402132215 0.04488350608949031 0.016588552821364597
-0.05453619382522928 0.05616001708006714 0.023590505159704105
-0.04925182124832633 0.06743652807064396 0.030592457498043613
-0.04396744867142339 0.07871303906122079 0.03759440983638311
-0.08664758531206443 -0.03143458594033582 -0.01516030861887755
-0.08136321273516148 -0.020158074949759 -0.00815835628053805
-0.07607884015825854 -0.008881563959182171 -0.0011564039421985415
-0.0707944675813556 0.002394947031394647 0.005845548396140959
-0.06551009500445265 0.013671458021971476 0.012847500734480464
-0.06022572242754971 0.024947969012548303 0.01984945307281997
-0.05494134985064677 0.03622448000312512 0.02685140541115947
-0.04965697727374383 0.047500990993701954 0.03385335774949898
-0.04437260469684089 0.05877750198427877 0.040855310087838485
-0.03908823211993794 0.0700540129748556 0.04785726242617798
-0.08176836876057898 -0.04009361202670101 -0.004897456029082673
-0.07648399618367603 -0.02881710103612419 0.0021044963092568284
-0.0711996236067731 -0.017540590045547363 0.009106448647596336
-0.06591525102987016 -0.006264079054970545 0.01610840098593584
-0.060630878452967205 0.005012431935606283 0.023110353324275343
-0.05534650587606427 0.01628894292618311 0.030112305662614847
-0.05006213329916132 0.027565453916759932 0.037114258000954345
-0.044777760722258385 0.03884196490733676 0.04411621033929385
-0.03949338814535544 0.05011847589791358 0.05111816267763336
-0.034209015568452496 0.06139498688849041 0.058120115015972855
-0.07688915220909352 -0.0487526381130662 0.005365396560712205
-0.07160477963219057 -0.037476127122489385 0.012367348899051707
-0.06632040705528763 -0.026199616131912556 0.019369301237391213
-0.0610360344783847 -0.014923105141335737 0.026371253575730714
-0.05575166190148176 -0.0036465941507589084 0.03337320591407022
-0.05046728932457882 0.007629916839817918 0.040375158252409726
-0.045182916747675876 0.01890642783039474 0.04737711059074923
-0.03989854417077294 0.030182938820971568 0.054379062929088735
-0.034614171593869994 0.041459449811548386 0.06138101526742824
-0.02932979901696705 0.05273596080212522 0.06838296760576773
-0.07200993565760809 -0.05741166419943139 0.015628249150507076
-0.06672556308070514 -0.04613515320885457 0.022630201488846577
-0.061441190503802194 -0.03485864221827774 0.029632153827186085
-0.056156817926899256 -0.023582131227700923 0.036634106165525586
-0.05087244534999631 -0.012305620237124094 0.04363605850386509
-0.045588072773093374 -0.0010291092465472681 0.050638010842204595
-0.04030370019619043 0.010247401744029555 0.057639963180544096
-0.03501932761928749 0.021523912734606382 0.0646419155188836
-0.029734955042384548 0.0328004237251832 0.07164386785722311
-0.024450582465481603 0.04407693471576003 0.0786458201955626
-0.06713071910612263 -0.06607069028579658 0.025891101740301955
-0.061846346529219685 -0.054794179295219764 0.03289305407864145
-0.05656197395231675 -0.04351766830464293 0.03989500641698096
-0.05127760137541381 -0.03224115731406611 0.04689695875532046
-0.045993228798510866 -0.020964646323489287 0.05389891109365997
-0.04070885622160793 -0.00968813533291246 0.06090086343199947
-0.035424483644704984 0.0015883756576643613 0.06790281577033898
-0.030140111067802042 0.01286488664824119 0.07490476810867848
-0.024855738490899098 0.024141397638818007 0.081906720447018
-0.019571365913996153 0.03541790862939484 0.08890867278535748
-0.062251502554637184 -0.07472971637216178 0.03615395433009683
-0.05696712997773423 -0.06345320538158496 0.04315590666843633
-0.051682757400831295 -0.052176694391008124 0.050157859006775836
-0.04639838482392836 -0.040900183400431306 0.05715981134511534
-0.04111401224702541 -0.029623672409854477 0.06416176368345484
-0.035829639670122475 -0.01834716141927765 0.07116371602179435
-0.030545267093219534 -0.0070706504287008295 0.07816566836013385
-0.025260894516316596 0.004205860561875999 0.08516762069847336
-0.01997652193941365 0.015482371552452818 0.09216957303681286
-0.014692149362510707 0.02675888254302965 0.09917152537515236
-0.05737228600315174 -0.08338874245852697 0.0464168069198917
-0.052087913426248786 -0.07211223146795015 0.0534187592582312
-0.04680354084934585 -0.06083572047737332 0.06042071159657071
-0.04151916827244291 -0.0495592094867965 0.06742266393491021
-0.036234795695539966 -0.038282698496219666 0.07442461627324971
-0.03095042311863703 -0.02700618750564284 0.08142656861158923
-0.025666050541734084 -0.01572967651506602 0.08842852094992873
-0.020381677964831146 -0.004453165524489191 0.09543047328826823
-0.015097305387928204 0.0068233454660876275 0.10243242562660775
-0.009812932811025259 0.01809985645666446 0.10943437796494723
0.009812932811025259 -0.01809985645666446 -0.10943437796494723
0.015097305387928204 -0.0068233454660876275 -0.10243242562660775
0.020381677964831146 0.004453165524489191 -0.09543047328826823
0.025666050541734084 0.015729676515066012 -0.08842852094992873
0.03095042311863703 0.02700618750564284 -0.08142656861158923
0.036234795695539966 0.038282698496219666 -0.07442461627324971
0.04151916827244291 0.04955920948679649 -0.06742266393491023
0.04680354084934585 0.06083572047737332 -0.06042071159657071
0.052087913426248786 0.07211223146795015 -0.0534187592582312
0.05737228600315174 0.08338874245852697 -0.0464168069198917
0.014692149362510707 -0.02675888254302965 -0.09917152537515236
0.01997652193941365 -0.015482371552452818 -0.09216957303681286
0.025260894516316596 -0.004205860561875999 -0.08516762069847336
0.030545267093219534 0.007070650428700823 -0.07816566836013386
0.035829639670122475 0.01834716141927765 -0.07116371602179435
0.04111401224702541 0.029623672409854477 -0.06416176368345484
0.04639838482392836 0.0409001834004313 -0.057159811345115344
0.051682757400831295 0.052176694391008124 -0.050157859006775836
0.05696712997773423 0.06345320538158496 -0.04315590666843633
0.062251502554637184 0.07472971637216178 -0.03615395433009683
0.019571365913996153 -0.03541790862939484 -0.08890867278535748
0.024855738490899098 -0.024141397638818007 -0.081906720447018
0.030140111067802042 -0.01286488664824119 -0.07490476810867848
0.035424483644704984 -0.0015883756576643682 -0.06790281577033898
0.04070885622160793 0.00968813533291246 -0.06090086343199947
0.045993228798510866 0.020964646323489287 -0.05389891109365997
0.05127760137541381 0.032241157314066106 -0.04689695875532047
0.05656197395231675 0.04351766830464293 -0.03989500641698096
0.061846346529219685 0.054794179295219764 -0.03289305407864145
0.06713071910612263 0.06607069028579658 -0.025891101740301955
0.0244505824654816 -0.044076934715760026 -0.07864582019556261
0.029734955042384544 -0.03280042372518319 -0.07164386785722311
0.03501932761928749 -0.021523912734606375 -0.06464191551888361
0.04030370019619043 -0.010247401744029555 -0.05763996318054411
0.045588072773093374 0.0010291092465472744 -0.0506380108422046
0.05087244534999631 0.012305620237124101 -0.043636058503865094
0.056156817926899256 0.023582131227700923 -0.0366341061655256
0.061441190503802194 0.034858642218277745 -0.029632153827186092
0.06672556308070512 0.04613515320885458 -0.022630201488846584
0.07200993565760808 0.057411664199431396 -0.015628249150507083
0.02932979901696705 -0.05273596080212522 -0.06838296760576773
0.034614171593869994 -0.041459449811548386 -0.06138101526742824
0.03989854417077294 -0.030182938820971568 -0.054379062929088735
0.045182916747675876 -0.018906427830394746 -0.047377110590749234
0.05046728932457882 -0.007629916839817918 -0.040375158252409726
0.05575166190148176 0.0036465941507589084 -0.03337320591407022
0.0610360344783847 0.01492310514133573 -0.02637125357573072
0.06632040705528763 0.026199616131912556 -0.019369301237391213
0.07160477963219057 0.037476127122489385 -0.012367348899051707
0.07688915220909352 0.0487526381130662 -0.005365396560712205
0.034209015568452496 -0.06139498688849041 -0.058120115015972855
0.03949338814535544 -0.05011847589791358 -0.05111816267763336
0.044777760722258385 -0.03884196490733676 -0.04411621033929385
0.05006213329916132 -0.02756545391675994 -0.03711425800095435
0.05534650587606427 -0.01628894292618311 -0.030112305662614847
0.060630878452967205 -0.005012431935606283 -0.023110353324275343
0.06591525102987016 0.006264079054970538 -0.016108400985935845
0.0711996236067731 0.017540590045547363 -0.009106448647596336
0.07648399618367603 0.02881710103612419 -0.0021044963092568284
0.08176836876057898 0.04009361202670101 0.004897456029082673
0.03908823211993794 -0.0700540129748556 -0.047857262426177986
0.04437260469684089 -0.058777501984278765 -0.04085531008783849
0.04965697727374383 -0.04750099099370195 -0.033853357749498984
0.05494134985064677 -0.03622448000312512 -0.026851405411159483
0.06022572242754971 -0.024947969012548296 -0.019849453072819975
0.06551009500445265 -0.013671458021971469 -0.01284750073448047
0.07079446758135559 -0.002394947031394648 -0.005845548396140974
0.07607884015825853 0.008881563959182178 0.0011564039421985341
0.08136321273516146 0.020158074949759006 0.008158356280538043
0.08664758531206442 0.031434585940335824 0.015160308618877544
0.04396744867142339 -0.07871303906122079 -0.03759440983638311
0.04925182124832633 -0.06743652807064396 -0.030592457498043613
0.05453619382522928 -0.05616001708006714 -0.023590505159704105
0.059820566402132215 -0.044883506089490315 -0.016588552821364604
0.06510493897903516 -0.03360699509891349 -0.009586600483025098
0.0703893115559381 -0.02233048410833666 -0.002584648144685593
0.07567368413284105 -0.01105397311775984 0.004417304193653905
0.08095805670974399 0.00022253787281698497 0.011419256531993412
0.08624242928664692 0.011499048863393814 0.01842120887033292
0.09152680186354988 0.02277555985397063 0.025423161208672423
0.04884666522290884 -0.08737206514758598 -0.027331557246588232
0.054131037799811786 -0.07609555415700915 -0.020329604908248738
0.05941541037671473 -0.06481904316643233 -0.01332765256990923
0.06469978295361767 -0.05354253217585551 -0.00632570023156973
0.0699841555305206 -0.042266021185278675 0.0006762521067697787
0.07526852810742354 -0.030989510194701853 0.007678204445109283
0.0805529006843265 -0.01971299920412503 0.014680156783448781
0.08583727326122943 -0.008436488213548206 0.02168210912178829
0.09112164583813237 0.0028400227770286235 0.028684061460127797
0.09640601841503532 0.014116533767605442 0.035686013798467295
0.05372588177439429 -0.09603109123395118 -0.017068704656793356
0.05901025435129723 -0.08475458024337434 -0.010066752318453862
0.06429462692820018 -0.07347806925279753 -0.0030647999801143543
0.06957899950510311 -0.0622015582622207 0.003937152358225147
0.07486337208200605 -0.05092504727164387 0.010939104696564655
0.08014774465890899 -0.03964853628106704 0.01794105703490416
0.08543211723581194 -0.02837202529049022 0.024943009373243657
0.09071648981271488 -0.017095514299913395 0.03194496171158316
0.09600086238961782 -0.005819003309336567 0.03894691404992267
0.10128523496652077 0.005457507681240251 0.04594886638826217
-0.10128523496652077 -0.005457507681240251 -0.04594886638826217
-0.08894099410234899 -0.006862213100731831 -0.053002812119004955
-0.0765967532381772 -0.008266918520223411 -0.06005675784974775
-0.06425251237400542 -0.00967162393971499 -0.06711070358049052
-0.05190827150983364 -0.01107632935920657 -0.07416464931123332
-0.03956403064566186 -0.012481034778698143 -0.08121859504197611
-0.027219789781490086 -0.013885740198189722 -0.08827254077271889
-0.014875548917318302 -0.015290445617681302 -0.09532648650346166
-0.0025313080531465196 -0.01669515103717288 -0.10238043223420445
0.009812932811025259 -0.01809985645666446 -0.10943437796494723
-0.09640601841503532 -0.014116533767605442 -0.035686013798467295
-0.08406177755086354 -0.015521239187097021 -0.04273995952921008
-0.07171753668669176 -0.0169259446065886 -0.04979390525995287
-0.059373295822519975 -0.01833065002608018 -0.05684785099069565
-0.04702905495834819 -0.01973535544557176 -0.06390179672143843
-0.03468481409417641 -0.021140060865063332 -0.07095574245218123
-0.022340573230004636 -0.02254476628455491 -0.078009688182924
-0.009996332365832854 -0.02394947170404649 -0.0850636339136668
0.002347908498338928 -0.02535417712353807 -0.09211757964440959
0.014692149362510707 -0.02675888254302965 -0.09917152537515236
-0.09152680186354988 -0.02277555985397063 -0.025423161208672423
-0.0791825609993781 -0.02418026527346221 -0.032477106939415204
-0.06683832013520631 -0.02558497069295379 -0.039531052670157996
-0.05449407927103452 -0.02698967611244537 -0.04658499840090077
-0.04214983840686275 -0.02839438153193695 -0.053638944131643565
-0.029805597542690965 -0.02979908695142852 -0.06069288986238635
-0.01746135667851919 -0.0312037923709201 -0.06774683559312913
-0.0051171158143474066 -0.03260849779041168 -0.07480078132387191
0.007227125049824376 -0.03401320320990326 -0.0818547270546147
0.019571365913996153 -0.03541790862939484 -0.08890867278535748
-0.08664758531206443 -0.03143458594033582 -0.01516030861887755
-0.07430334444789265 -0.0328392913598274 -0.022214254349620335
-0.06195910358372086 -0.034243996779318976 -0.029268200080363124
-0.049614862719549076 -0.035648702198810556 -0.036322145811105905
-0.0372706218553773 -0.037053407618302135 -0.04337609154184869
-0.02492638099120552 -0.03845811303779371 -0.05043003727259148
-0.012582140127033743 -0.03986281845728529 -0.05748398300333426
-0.00023789926286196098 -0.04126752387677687 -0.06453792873407704
0.012106341601309821 -0.042672229296268446 -0.07159187446481984
0.0244505824654816 -0.044076934715760026 -0.07864582019556261
-0.08176836876057898 -0.04009361202670101 -0.004897456029082673
-0.0694241278964072 -0.04149831744619259 -0.011951401759825458
-0.05707988703223541 -0.04290302286568417 -0.019005347490568245
-0.04473564616806363 -0.04430772828517575 -0.026059293221311026
-0.032391405303891854 -0.04571243370466733 -0.033113238952053814
-0.02004716443972007 -0.0471171391241589 -0.040167184682796606
-0.007702923575548294 -0.04852184454365048 -0.04722113041353938
0.004641317288623488 -0.04992654996314206 -0.05427507614428217
0.01698555815279527 -0.05133125538263364 -0.06132902187502496
0.02932979901696705 -0.05273596080212522 -0.06838296760576773
-0.07688915220909352 -0.0487526381130662 0.005365396560712205
-0.06454491134492174 -0.05015734353255778 -0.00168854917003058
-0.052200670480749965 -0.05156204895204936 -0.008742494900773367
-0.03985642961657818 -0.05296675437154094 -0.01579644063151615
-0.027512188752406404 -0.05437145979103252 -0.02285038636225894
-0.01516794788823462 -0.055776165210524094 -0.029904332093001727
-0.0028237070240628463 -0.05718087063001567 -0.0369582778237445
0.009520533840108937 -0.05858557604950725 -0.044012223554487286
0.021864774704280717 -0.05999028146899883 -0.05106616928523008
0.034209015568452496 -0.06139498688849041 -0.058120115015972855
-0.07200993565760809 -0.05741166419943139 0.015628249150507076
-0.0596656947934363 -0.05881636961892297 0.008574303419764291
-0.04732145392926452 -0.06022107503841455 0.0015203576890215024
-0.03497721306509274 -0.06162578045790613 -0.005533588041721279
-0.022632972200920958 -0.06303048587739771 -0.012587533772464066
-0.010288731336749176 -0.06443519129688928 -0.019641479503206855
0.0020555095274225987 -0.06583989671638085 -0.026695425233949632
0.014399750391594381 -0.06724460213587244 -0.03374937096469242
0.026743991255766163 -0.06864930755536401 -0.04080331669543521
0.03908823211993794 -0.0700540129748556 -0.047857262426177986
-0.06713071910612263 -0.06607069028579658 0.025891101740301955
-0.054786478241950855 -0.06747539570528815 0.01883715600955917
-0.04244223737777907 -0.06888010112477974 0.01178321027881638
-0.030097996513607287 -0.07028480654427131 0.0047292645480736
-0.01775375564943551 -0.0716895119637629 -0.0023246811826691887
-0.005409514785263727 -0.07309421738325447 -0.009378626913411977
0.006934726078908048 -0.07449892280274605 -0.016432572644154753
0.01927896694307983 -0.07590362822223763 -0.023486518374897538
0.03162320780725161 -0.0773083336417292 -0.03054046410564033
0.04396744867142339 -0.07871303906122079 -0.03759440983638311
-0.062251502554637184 -0.07472971637216178 0.03615395433009683
-0.0499072616904654 -0.07613442179165335 0.029100008599354046
-0.03756302082629362 -0.07753912721114493 0.022046062868611258
-0.02521877996212184 -0.0789438326306365 0.014992117137868476
-0.012874539097950062 -0.0803485380501281 0.007938171407125688
-0.0005302982337782796 -0.08175324346961967 0.0008842256763828994
0.011813942630393495 -0.08315794888911124 -0.006169720054359879
0.024158183494565277 -0.08456265430860282 -0.013223665785102662
0.03650242435873706 -0.0859673597280944 -0.020277611515845454
0.04884666522290884 -0.08737206514758598 -0.027331557246588232
-0.05737228600315174 -0.08338874245852697 0.0464168069198917
-0.045028045138979955 -0.08479344787801854 0.03936286118914892
-0.03268380427480817 -0.08619815329751013 0.03230891545840613
-0.02033956341063639 -0.0876028587170017 0.025254969727663352
-0.007995322546464614 -0.08900756413649329 0.018201023996920564
0.004348918317707168 -0.09041226955598486 0.011147078266177776
0.016693159181878945 -0.09181697497547643 0.004093132535434998
0.029037400046050727 -0.09322168039496802 -0.002960813195307787
0.041381640910222506 -0.09462638581445959 -0.010014758926050579
0.05372588177439429 -0.09603109123395118 -0.017068704656793356
-0.05372588177439429 0.09603109123395118 0.017068704656793356
-0.041381640910222506 0.09462638581445959 0.010014758926050579
-0.029037400046050727 0.09322168039496802 0.002960813195307787
-0.016693159181878952 0.09181697497547643 -0.004093132535434991
-0.004348918317707168 0.09041226955598486 -0.011147078266177776
0.007995322546464614 0.08900756413649329 -0.018201023996920564
0.02033956341063639 0.0876028587170017 -0.025254969727663345
0.03268380427480817 0.08619815329751013 -0.03230891545840613
0.045028045138979955 0.08479344787801854 -0.03936286118914892
0.05737228600315174 0.08338874245852697 -0.0464168069198917
-0.04884666522290884 0.08737206514758598 0.027331557246588232
-0.03650242435873706 0.0859673597280944 0.020277611515845454
-0.024158183494565277 0.08456265430860282 0.013223665785102662
-0.011813942630393502 0.08315794888911124 0.006169720054359886
0.0005302982337782796 0.08175324346961967 -0.0008842256763828994
0.012874539097950062 0.0803485380501281 -0.007938171407125688
0.02521877996212184 0.0789438326306365 -0.01499211713786847
0.03756302082629362 0.07753912721114493 -0.022046062868611258
0.0499072616904654 0.07613442179165335 -0.029100008599354046
0.062251502554637184 0.07472971637216178 -0.03615395433009683
-0.04396744867142339 0.07871303906122079 0.03759440983638311
-0.03162320780725161 0.0773083336417292 0.03054046410564033
-0.01927896694307983 0.07590362822223763 0.023486518374897538
-0.006934726078908055 0.07449892280274605 0.01643257264415476
0.005409514785263727 0.07309421738325447 0.009378626913411977
0.01775375564943551 0.0716895119637629 0.0023246811826691887
0.030097996513607287 0.07028480654427131 -0.004729264548073593
0.04244223737777907 0.06888010112477974 -0.01178321027881638
0.054786478241950855 0.06747539570528815 -0.01883715600955917
0.06713071910612263 0.06607069028579658 -0.025891101740301955
-0.03908823211993794 0.0700540129748556 0.04785726242617798
-0.026743991255766167 0.06864930755536403 0.0408033166954352
-0.014399750391594385 0.06724460213587244 0.03374937096469241
-0.0020555095274226096 0.06583989671638087 0.026695425233949632
0.010288731336749173 0.06443519129688928 0.019641479503206848
0.022632972200920955 0.06303048587739771 0.01258753377246406
0.03497721306509274 0.061625780457906135 0.005533588041721278
0.04732145392926452 0.060221075038414555 -0.0015203576890215097
0.0596656947934363 0.058816369618922976 -0.008574303419764298
0.07200993565760808 0.057411664199431396 -0.015628249150507083
-0.034209015568452496 0.06139498688849041 0.058120115015972855
-0.021864774704280717 0.05999028146899883 0.05106616928523008
-0.009520533840108937 0.05858557604950725 0.044012223554487286
0.0028237070240628393 0.05718087063001567 0.03695827782374451
0.01516794788823462 0.055776165210524094 0.029904332093001727
0.027512188752406404 0.05437145979103252 0.02285038636225894
0.03985642961657818 0.05296675437154094 0.015796440631516157
0.052200670480749965 0.05156204895204936 0.008742494900773367
0.06454491134492174 0.05015734353255778 0.00168854917003058
0.07688915220909352 0.0487526381130662 -0.005365396560712205
-0.02932979901696705 0.05273596080212522 0.06838296760576773
-0.01698555815279527 0.05133125538263364 0.06132902187502496
-0.004641317288623488 0.04992654996314206 0.05427507614428217
0.007702923575548287 0.04852184454365048 0.04722113041353939
0.02004716443972007 0.0471171391241589 0.040167184682796606
0.032391405303891854 0.04571243370466733 0.033113238952053814
0.04473564616806363 0.04430772828517575 0.026059293221311033
0.05707988703223541 0.04290302286568417 0.019005347490568245
0.0694241278964072 0.04149831744619259 0.011951401759825458
0.08176836876057898 0.04009361202670101 0.004897456029082673
-0.024450582465481603 0.04407693471576003 0.0786458201955626
-0.012106341601309824 0.04267222929626845 0.07159187446481982
0.00023789926286195743 0.041267523876776874 0.06453792873407703
0.012582140127033733 0.039862818457285294 0.05748398300333426
0.024926380991205515 0.038458113037793715 0.050430037272591474
0.037270621855377294 0.03705340761830214 0.04337609154184868
0.049614862719549076 0.03564870219881056 0.036322145811105905
0.06195910358372086 0.03424399677931898 0.029268200080363117
0.07430334444789263 0.032839291359827404 0.02221425434962033
0.08664758531206442 0.031434585940335824 0.015160308618877544
-0.019571365913996153 0.03541790862939484 0.08890867278535748
-0.007227125049824376 0.03401320320990326 0.0818547270546147
0.0051171158143474066 0.03260849779041168 0.07480078132387191
0.017461356678519183 0.0312037923709201 0.06774683559312913
0.029805597542690965 0.02979908695142852 0.06069288986238635
0.04214983840686275 0.02839438153193695 0.053638944131643565
0.05449407927103452 0.02698967611244537 0.04658499840090078
0.06683832013520631 0.02558497069295379 0.039531052670157996
0.0791825609993781 0.02418026527346221 0.032477106939415204
0.09152680186354988 0.02277555985397063 0.025423161208672423
-0.014692149362510707 0.02675888254302965 0.09917152537515236
-0.002347908498338928 0.02535417712353807 0.09211757964440959
0.009996332365832854 0.02394947170404649 0.0850636339136668
0.02234057323000463 0.02254476628455491 0.07800968818292402
0.03468481409417641 0.021140060865063332 0.07095574245218123
0.04702905495834819 0.01973535544557176 0.06390179672143843
0.059373295822519975 0.01833065002608018 0.056847850990695656
0.07171753668669176 0.0169259446065886 0.04979390525995287
0.08406177755086354 0.015521239187097021 0.04273995952921008
0.09640601841503532 0.014116533767605442 0.035686013798467295
-0.009812932811025259 0.01809985645666446 0.10943437796494723
0.0025313080531465196 0.01669515103717288 0.10238043223420445
0.014875548917318302 0.015290445617681302 0.09532648650346166
0.02721978978149008 0.013885740198189722 0.08827254077271889
0.03956403064566186 0.012481034778698143 0.08121859504197611
0.05190827150983364 0.01107632935920657 0.07416464931123332
0.06425251237400542 0.00967162393971499 0.06711070358049054
0.0765967532381772 0.008266918520223411 0.06005675784974775
0.08894099410234899 0.006862213100731831 0.053002812119004955
0.10128523496652077 0.005457507681240251 0.04594886638826217
-0.10128523496652077 -0.005457507681240251 -0.04594886638826217
-0.08894099410234899 -0.006862213100731831 -0.053002812119004955
-0.0765967532381772 -0.008266918520223411 -0.06005675784974775
-0.06425251237400542 -0.00967162393971499 -0.06711070358049052
-0.05190827150983364 -0.01107632935920657 -0.07416464931123332
-0.03956403064566186 -0.012481034778698143 -0.08121859504197611
-0.027219789781490086 -0.013885740198189722 -0.08827254077271889
-0.014875548917318302 -0.015290445617681302 -0.09532648650346166
-0.0025313080531465196 -0.01669515103717288 -0.10238043223420445
0.009812932811025259 -0.01809985645666446 -0.10943437796494723
-0.09600086238961782 0.005819003309336567 -0.03894691404992267
-0.08365662152544603 0.004414297889844995 -0.046000859780665454
-0.07131238066127425 0.0030095924703534152 -0.053054805511408246
-0.058968139797102484 0.0016048870508618357 -0.06010875124215102
-0.0466238989329307 0.00020018163137025617 -0.06716269697289382
-0.03427965806875892 -0.0012045237881213164 -0.07421664270363659
-0.021935417204587145 -0.002609229207612896 -0.08127058843437938
-0.00959117634041536 -0.004013934627104475 -0.08832453416512216
0.0027530645237564214 -0.005418640046596055 -0.09537847989586495
0.015097305387928204 -0.0068233454660876275 -0.10243242562660775
-0.09071648981271488 0.017095514299913395 -0.03194496171158316
-0.0783722489485431 0.01569080888042182 -0.038998907442325946
-0.06602800808437131 0.01428610346093024 -0.04605285317306874
-0.05368376722019954 0.01288139804143866 -0.053106798903811515
-0.04133952635602776 0.011476692621947084 -0.06016074463455431
-0.028995285491855975 0.010071987202455505 -0.06721469036529709
-0.0166510446276842 0.008667281782963929 -0.07426863609603987
-0.004306803763512416 0.00726257636347235 -0.08132258182678266
0.008037437100659366 0.0058578709439807706 -0.08837652755752545
0.020381677964831146 0.004453165524489191 -0.09543047328826823
-0.08543211723581194 0.028372025290490214 -0.024943009373243664
-0.07308787637164016 0.026967319870998638 -0.031996955103986445
-0.06074363550746838 0.02556261445150706 -0.03905090083472924
-0.0483993946432966 0.024157909032015482 -0.046104846565472014
-0.03605515377912482 0.022753203612523903 -0.053158792296214806
-0.023710912914953038 0.021348498193032323 -0.06021273802695759
-0.01136667205078126 0.019943792773540747 -0.06726668375770037
0.0009775688133905214 0.018539087354049168 -0.07432062948844316
0.013321809677562304 0.017134381934557588 -0.08137457521918595
0.025666050541734084 0.015729676515066012 -0.08842852094992873
-0.08014774465890899 0.03964853628106704 -0.01794105703490416
-0.06780350379473721 0.03824383086157546 -0.024995002765646944
-0.05545926293056543 0.036839125442083884 -0.03204894849638973
-0.04311502206639366 0.03543442002259231 -0.03910289422713251
-0.03077078120222188 0.03402971460310073 -0.0461568399578753
-0.018426540338050093 0.03262500918360915 -0.05321078568861808
-0.00608229947387832 0.031220303764117576 -0.06026473141936087
0.0062619413902934625 0.029815598344625997 -0.06731867715010366
0.018606182254465246 0.028410892925134417 -0.07437262288084644
0.03095042311863703 0.02700618750564284 -0.08142656861158923
-0.07486337208200605 0.05092504727164387 -0.010939104696564655
-0.06251913121783427 0.049520341852152296 -0.017993050427307436
-0.05017489035366249 0.048115636432660716 -0.025046996158050224
-0.03783064948949071 0.04671093101316914 -0.032100941888793005
-0.025486408625318934 0.04530622559367756 -0.03915488761953579
-0.01314216776114715 0.04390152017418598 -0.04620883335027858
-0.0007979268969753752 0.042496814754694405 -0.05326277908102136
0.011546313967196404 0.041092109335202825 -0.060316724811764144
0.023890554831368184 0.039687403915711246 -0.06737067054250694
0.036234795695539966 0.038282698496219666 -0.07442461627324971
-0.06957899950510311 0.062201558262220694 -0.003937152358225154
-0.05723475864093133 0.060796852842729114 -0.010991098088967938
-0.04489051777675955 0.059392147423237535 -0.018045043819710723
-0.032546276912587775 0.057987442003745955 -0.025098989550453508
-0.020202036048415997 0.05658273658425438 -0.03215293528119629
-0.007857795184244213 0.0551780311647628 -0.03920688101193908
0.0044864456799275625 0.053773325745271223 -0.04626082674268186
0.016830686544099346 0.052368620325779644 -0.05331477247342465
0.02917492740827113 0.050963914906288064 -0.060368718204167435
0.04151916827244291 0.04955920948679649 -0.06742266393491023
-0.06429462692820018 0.07347806925279753 0.0030647999801143543
-0.051950386064028395 0.07207336383330594 -0.0039891457506284304
-0.03960614519985661 0.07066865841381437 -0.011043091481371215
-0.027261904335684834 0.06926395299432278 -0.018097037212114
-0.014917663471513052 0.06785924757483121 -0.025150982942856788
-0.0025734226073412716 0.06645454215533962 -0.03220492867359957
0.009770818256830504 0.06504983673584805 -0.03925887440434236
0.022115059121002284 0.06364513131635648 -0.04631282013508514
0.034459299985174066 0.06224042589686489 -0.05336676586582793
0.04680354084934585 0.06083572047737332 -0.06042071159657071
-0.05901025435129723 0.08475458024337434 0.010066752318453862
-0.04666601348712545 0.08334987482388277 0.0030128065877110775
-0.03432177262295367 0.08194516940439119 -0.004041139143031714
-0.021977531758781893 0.08054046398489961 -0.011095084873774492
-0.00963329089461011 0.07913575856540803 -0.01814903060451728
0.002710949969561673 0.07773105314591645 -0.025202976335260065
0.015055190833733448 0.07632634772642488 -0.03225692206600285
0.02739943169790523 0.0749216423069333 -0.039310867796745634
0.03974367256207701 0.07351693688744172 -0.04636481352748842
0.052087913426248786 0.07211223146795015 -0.0534187592582312
-0.05372588177439429 0.09603109123395118 0.017068704656793356
-0.041381640910222506 0.09462638581445959 0.010014758926050579
-0.029037400046050727 0.09322168039496802 0.002960813195307787
-0.016693159181878952 0.09181697497547643 -0.004093132535434991
-0.004348918317707168 0.09041226955598486 -0.011147078266177776
0.007995322546464614 0.08900756413649329 -0.018201023996920564
0.02033956341063639 0.0876028587170017 -0.025254969727663345
0.03268380427480817 0.08619815329751013 -0.03230891545840613
0.045028045138979955 0.08479344787801854 -0.03936286118914892
0.05737228600315174 0.08338874245852697 -0.0464168069198917
-0.05737228600315174 -0.08338874245852697 0.0464168069198917
-0.045028045138979955 -0.08479344787801854 0.03936286118914892
-0.03268380427480817 -0.08619815329751013 0.03230891545840613
-0.02033956341063639 -0.0876028587170017 0.025254969727663352
-0.007995322546464614 -0.08900756413649329 0.018201023996920564
0.004348918317707168 -0.09041226955598486 0.011147078266177776
0.016693159181878945 -0.09181697497547643 0.004093132535434998
0.029037400046050727 -0.09322168039496802 -0.002960813195307787
0.041381640910222506 -0.09462638581445959 -0.010014758926050579
0.05372588177439429 -0.09603109123395118 -0.017068704656793356
-0.052087913426248786 -0.07211223146795015 0.0534187592582312
-0.03974367256207701 -0.07351693688744172 0.04636481352748842
-0.02739943169790523 -0.0749216423069333 0.039310867796745634
-0.015055190833733455 -0.07632634772642488 0.03225692206600285
-0.002710949969561673 -0.07773105314591645 0.025202976335260065
0.00963329089461011 -0.07913575856540803 0.01814903060451728
0.021977531758781886 -0.08054046398489961 0.011095084873774499
0.03432177262295367 -0.08194516940439119 0.004041139143031714
0.04666601348712545 -0.08334987482388277 -0.0030128065877110775
0.05901025435129723 -0.08475458024337434 -0.010066752318453862
-0.04680354084934585 -0.06083572047737332 0.06042071159657071
-0.034459299985174066 -0.06224042589686489 0.05336676586582793
-0.022115059121002284 -0.06364513131635648 0.04631282013508514
-0.00977081825683051 -0.06504983673584805 0.03925887440434236
0.0025734226073412716 -0.06645454215533962 0.03220492867359957
0.014917663471513052 -0.06785924757483121 0.025150982942856788
0.027261904335684827 -0.06926395299432278 0.018097037212114007
0.03960614519985661 -0.07066865841381437 0.011043091481371215
0.051950386064028395 -0.07207336383330594 0.0039891457506284304
0.06429462692820018 -0.07347806925279753 -0.0030647999801143543
-0.04151916827244291 -0.0495592094867965 0.06742266393491021
-0.02917492740827113 -0.05096391490628807 0.06036871820416743
-0.016830686544099346 -0.05236862032577965 0.05331477247342464
-0.004486445679927573 -0.05377332574527123 0.04626082674268186
0.00785779518424421 -0.05517803116476281 0.039206881011939074
0.020202036048415993 -0.05658273658425439 0.03215293528119629
0.03254627691258777 -0.05798744200374596 0.025098989550453508
0.04489051777675955 -0.05939214742323754 0.01804504381971072
0.05723475864093133 -0.06079685284272912 0.010991098088967931
0.06957899950510311 -0.0622015582622207 0.003937152358225147
-0.036234795695539966 -0.038282698496219666 0.07442461627324971
-0.023890554831368184 -0.039687403915711246 0.06737067054250694
-0.011546313967196404 -0.041092109335202825 0.060316724811764144
0.0007979268969753682 -0.0424968147546944 0.053262779081021366
0.01314216776114715 -0.04390152017418598 0.04620883335027858
0.025486408625318934 -0.04530622559367756 0.03915488761953579
0.037830649489490706 -0.04671093101316914 0.03210094188879301
0.05017489035366249 -0.048115636432660716 0.025046996158050224
0.06251913121783427 -0.049520341852152296 0.017993050427307436
0.07486337208200605 -0.05092504727164387 0.010939104696564655
-0.03095042311863703 -0.02700618750564284 0.08142656861158923
-0.018606182254465246 -0.028410892925134417 0.07437262288084644
-0.0062619413902934625 -0.029815598344625997 0.06731867715010366
0.006082299473878313 -0.031220303764117573 0.060264731419360874
0.018426540338050093 -0.03262500918360915 0.05321078568861808
0.03077078120222188 -0.03402971460310073 0.0461568399578753
0.04311502206639365 -0.03543442002259231 0.03910289422713252
0.05545926293056543 -0.036839125442083884 0.03204894849638973
0.06780350379473721 -0.03824383086157546 0.024995002765646944
0.08014774465890899 -0.03964853628106704 0.01794105703490416
-0.025666050541734084 -0.01572967651506602 0.08842852094992873
-0.013321809677562304 -0.017134381934557595 0.08137457521918594
-0.000977568813390525 -0.018539087354049175 0.07432062948844316
0.01136667205078125 -0.019943792773540754 0.06726668375770037
0.023710912914953034 -0.02134849819303233 0.060212738026957584
0.03605515377912481 -0.02275320361252391 0.0531587922962148
0.04839939464329659 -0.024157909032015486 0.046104846565472014
0.06074363550746838 -0.025562614451507065 0.03905090083472923
0.07308787637164016 -0.026967319870998645 0.031996955103986445
0.08543211723581194 -0.02837202529049022 0.024943009373243657
-0.020381677964831146 -0.004453165524489191 0.09543047328826823
-0.008037437100659366 -0.0058578709439807706 0.08837652755752545
0.004306803763512416 -0.00726257636347235 0.08132258182678266
0.016651044627684193 -0.008667281782963929 0.07426863609603988
0.028995285491855975 -0.010071987202455505 0.06721469036529709
0.04133952635602776 -0.011476692621947084 0.06016074463455431
0.05368376722019953 -0.01288139804143866 0.05310679890381152
0.06602800808437131 -0.01428610346093024 0.04605285317306874
0.0783722489485431 -0.01569080888042182 0.038998907442325946
0.09071648981271488 -0.017095514299913395 0.03194496171158316
-0.015097305387928204 0.0068233454660876275 0.10243242562660775
-0.0027530645237564214 0.005418640046596055 0.09537847989586495
0.00959117634041536 0.004013934627104475 0.08832453416512216
0.021935417204587138 0.002609229207612896 0.08127058843437938
0.03427965806875892 0.0012045237881213164 0.07421664270363659
0.0466238989329307 -0.00020018163137025617 0.06716269697289382
0.05896813979710248 -0.0016048870508618357 0.06010875124215103
0.07131238066127425 -0.0030095924703534152 0.053054805511408246
0.08365662152544603 -0.004414297889844995 0.046000859780665454
0.09600086238961782 -0.005819003309336567 0.03894691404992267
-0.009812932811025259 0.01809985645666446 0.10943437796494723
0.0025313080531465196 0.01669515103717288 0.10238043223420445
0.014875548917318302 0.015290445617681302 0.09532648650346166
0.02721978978149008 0.013885740198189722 0.08827254077271889
0.03956403064566186 0.012481034778698143 0.08121859504197611
0.05190827150983364 0.01107632935920657 0.07416464931123332
0.06425251237400542 0.00967162393971499 0.06711070358049054
0.0765967532381772 0.008266918520223411 0.06005675784974775
0.08894099410234899 0.006862213100731831 0.053002812119004955
0.10128523496652077 0.005457507681240251 0.04594886638826217
