# .PCD v0.7 - Point Cloud Data file format
VERSION 0.7
FIELDS x y z
SIZE 4 4 4
TYPE F F F
COUNT 1 1 1
WIDTH 600
HEIGHT 1
VIEWPOINT 0 0 0 1 0 0 0
POINTS 600
DATA ascii
-0.023557523915625066 -0.07550119474254205 -0.04181001931298829
-0.03066889707417633 -0.06688090982343628 -0.03919022152253063
-0.037780270232727585 -0.05826062490433052 -0.03657042373207296
-0.044891643391278845 -0.04964033998522475 -0.033950625941615305
-0.052003016549830104 -0.04102005506611898 -0.03133082815115764
-0.059114389708381364 -0.03239977014701321 -0.02871103036069998
-0.06622576286693262 -0.023779485227907446 -0.026091232570242318
-0.07333713602548389 -0.015159200308801676 -0.023471434779784656
-0.08044850918403514 -0.006538915389695906 -0.020851636989326995
-0.08755988234258641 0.0020813695294098636 -0.01823183919886933
-0.01895852047630476 -0.07489797794387892 -0.03131099185285927
-0.026069893634856022 -0.06627769302477315 -0.028691194062401608
-0.03318126679340728 -0.057657408105667385 -0.026071396271943947
-0.04029263995195854 -0.049037123186561615 -0.023451598481486285
-0.0474040131105098 -0.040416838267455846 -0.020831800691028624
-0.05451538626906106 -0.031796553348350076 -0.01821200290057096
-0.06162675942761231 -0.023176268429244314 -0.015592205110113297
-0.06873813258616358 -0.014555983510138546 -0.012972407319655635
-0.07584950574471483 -0.005935698591032776 -0.010352609529197974
-0.0829608789032661 0.0026845863280729933 -0.007732811738740309
-0.014359517036984456 -0.0742947611452158 -0.02081196439273026
-0.02147089019553572 -0.06567447622611003 -0.0181921666022726
-0.028582263354086975 -0.05705419130700426 -0.015572368811814936
-0.03569363651263824 -0.04843390638789849 -0.012952571021357275
-0.0428050096711895 -0.03981362146879272 -0.010332773230899614
-0.04991638282974076 -0.031193336549686947 -0.007712975440441948
-0.05702775598829201 -0.022573051630581185 -0.005093177649984287
-0.06413912914684328 -0.013952766711475415 -0.0024733798595266256
-0.07125050230539452 -0.0053324817923696465 0.00014641793093103544
-0.0783618754639458 0.003287803126736123 0.0027662157213887003
-0.009760513597664153 -0.07369154434655266 -0.010312936932601248
-0.016871886756215416 -0.06507125942744689 -0.007693139142143585
-0.023983259914766672 -0.05645097450834113 -0.005073341351685922
-0.03109463307331793 -0.04783068958923536 -0.002453543561228261
-0.03820600623186919 -0.03921040467012959 0.00016625422922940004
-0.04531737939042045 -0.03059011975102382 0.0027860520196870647
-0.052428752548971704 -0.021969834831918056 0.005405849810144726
-0.05954012570752297 -0.013349549912812286 0.008025647600602388
-0.06665149886607422 -0.004729264993706517 0.010645445391060049
-0.07376287202462549 0.003891019925399253 0.013265243181517714
-0.005161510158343846 -0.07308832754788953 0.0001860905275277694
-0.01227288331689511 -0.06446804262878376 0.0028058883179854326
-0.019384256475446365 -0.055847757709677995 0.0054256861084430955
-0.026495629633997625 -0.047227472790572225 0.008045483898900757
-0.033607002792548885 -0.038607187871466456 0.010665281689358418
-0.040718375951100144 -0.02998690295236069 0.013285079479816083
-0.0478297491096514 -0.021366618033254927 0.015904877270273742
-0.05494112226820266 -0.012746333114149156 0.018524675060731403
-0.062052495426753916 -0.004126048195043387 0.021144472851189065
-0.06916386858530518 0.0044942367240623825 0.02376427064164673
-0.0005625067190235399 -0.07248511074922641 0.010685117987656785
-0.0076738798775748025 -0.06386482583012064 0.013304915778114448
-0.014785253036126059 -0.05524454091101487 0.015924713568572113
-0.02189662619467732 -0.0466242559919091 0.018544511359029774
-0.029007999353228578 -0.03800397107280333 0.021164309149487436
-0.03611937251177984 -0.029383686153697557 0.0237841069399451
-0.04323074567033109 -0.020763401234591795 0.02640390473040276
-0.05034211882888236 -0.012143116315486027 0.029023702520860423
-0.05745349198743361 -0.003522831396380257 0.03164350031131808
-0.06456486514598489 0.005097453522725513 0.034263298101775745
0.004036496720296763 -0.07188189395056328 0.021184145447785793
-0.0030748764382545007 -0.06326160903145751 0.023803943238243457
-0.010186249596805757 -0.05464132411235174 0.02642374102870112
-0.017297622755357015 -0.04602103919324597 0.02904353881915878
-0.024408995913908275 -0.0374007542741402 0.03166333660961644
-0.03152036907245954 -0.02878046935503443 0.034283134400074106
-0.03863174223101079 -0.020160184435928666 0.03690293219053177
-0.04574311538956206 -0.011539899516822896 0.03952272998098943
-0.05285448854811331 -0.002919614597717127 0.04214252777144709
-0.05996586170666458 0.005700670321388642 0.04476232556190476
0.00863550015961707 -0.07127867715190014 0.031683172907914815
0.0015241270010658066 -0.06265839223279437 0.03430297069837247
-0.00558724615748545 -0.054038107313688605 0.03692276848883014
-0.012698619316036708 -0.045417822394582835 0.0395425662792878
-0.019809992474587968 -0.036797537475477066 0.04216236406974546
-0.026921365633139228 -0.0281772525563713 0.044782161860203125
-0.034032738791690484 -0.019556967637265537 0.04740195965066079
-0.04114411195024175 -0.010936682718159767 0.05002175744111845
-0.048255485108793 -0.002316397799053997 0.05264155523157611
-0.05536685826734428 0.0063038871200517725 0.05526135302203378
0.013234503598937374 -0.07067546035323702 0.04218220036804383
0.006123130440386111 -0.06205517543413125 0.04480199815850149
-0.000988242718165145 -0.05343489051502548 0.04742179594895915
-0.008099615876716405 -0.04481460559591971 0.050041593739416815
-0.015210989035267665 -0.03619432067681394 0.05266139152987447
-0.022322362193818925 -0.02757403575770817 0.05528118932033214
-0.029433735352370177 -0.018953750838602408 0.0579009871107898
-0.036545108510921444 -0.010333465919496637 0.06052078490124746
-0.043656481669472696 -0.0017131810003908675 0.06314058269170512
-0.05076785482802397 0.006907103918714902 0.06576038048216279
0.01783350703825768 -0.0700722435545739 0.05268122782817285
0.010722133879706419 -0.06145195863546812 0.05530102561863051
0.0036107607211551622 -0.05283167371636235 0.05792082340908817
-0.0035006124373960974 -0.04421138879725658 0.060540621199545834
-0.010611985595947357 -0.03559110387815081 0.06316041899000349
-0.017723358754498618 -0.02697081895904504 0.06578021678046116
-0.02483473191304987 -0.018350534039939276 0.06840001457091882
-0.03194610507160114 -0.009730249120833506 0.07101981236137649
-0.03905747823015239 -0.0011099642017277373 0.07363961015183414
-0.04616885138870366 0.007510320717378032 0.0762594079422918
0.04616885138870366 -0.007510320717378032 -0.0762594079422918
0.03905747823015239 0.0011099642017277373 -0.07363961015183414
0.03194610507160114 0.009730249120833503 -0.07101981236137649
0.024834731913049878 0.01835053403993927 -0.06840001457091882
0.017723358754498618 0.02697081895904504 -0.06578021678046116
0.010611985595947357 0.03559110387815081 -0.06316041899000349
0.003500612437396101 0.04421138879725657 -0.060540621199545834
-0.0036107607211551622 0.05283167371636234 -0.05792082340908817
-0.010722133879706419 0.06145195863546812 -0.05530102561863051
-0.01783350703825768 0.0700722435545739 -0.05268122782817285
0.05076785482802397 -0.006907103918714902 -0.06576038048216279
0.043656481669472696 0.0017131810003908675 -0.06314058269170512
0.036545108510921444 0.010333465919496633 -0.06052078490124746
0.029433735352370184 0.0189537508386024 -0.0579009871107898
0.022322362193818925 0.02757403575770817 -0.05528118932033214
0.015210989035267665 0.03619432067681394 -0.05266139152987447
0.008099615876716409 0.0448146055959197 -0.050041593739416815
0.000988242718165145 0.05343489051502547 -0.04742179594895915
-0.006123130440386111 0.06205517543413125 -0.04480199815850149
-0.013234503598937374 0.07067546035323702 -0.04218220036804383
0.05536685826734427 -0.0063038871200517725 -0.05526135302203378
0.048255485108792996 0.002316397799053997 -0.05264155523157611
0.041144111950241744 0.010936682718159764 -0.050021757441118454
0.034032738791690484 0.01955696763726553 -0.04740195965066079
0.026921365633139228 0.0281772525563713 -0.04478216186020313
0.019809992474587968 0.036797537475477066 -0.04216236406974547
0.012698619316036712 0.04541782239458283 -0.0395425662792878
0.005587246157485448 0.0540381073136886 -0.036922768488830145
-0.0015241270010658082 0.06265839223279437 -0.03430297069837248
-0.00863550015961707 0.07127867715190014 -0.031683172907914815
0.059965861706664576 -0.005700670321388643 -0.044762325561904764
0.0528544885481133 0.0029196145977171267 -0.0421425277714471
0.04574311538956205 0.011539899516822893 -0.03952272998098944
0.03863174223101079 0.02016018443592866 -0.03690293219053178
0.03152036907245953 0.02878046935503443 -0.03428313440007412
0.02440899591390827 0.0374007542741402 -0.031663336609616455
0.017297622755357015 0.04602103919324596 -0.029043538819158794
0.010186249596805752 0.05464132411235173 -0.02642374102870113
0.0030748764382544963 0.06326160903145751 -0.023803943238243468
-0.004036496720296766 0.07188189395056328 -0.021184145447785803
0.06456486514598489 -0.005097453522725513 -0.034263298101775745
0.05745349198743361 0.003522831396380257 -0.03164350031131808
0.05034211882888236 0.012143116315486023 -0.029023702520860423
0.0432307456703311 0.020763401234591788 -0.02640390473040276
0.03611937251177984 0.029383686153697557 -0.0237841069399451
0.029007999353228578 0.03800397107280333 -0.021164309149487436
0.021896626194677322 0.04662425599190909 -0.018544511359029774
0.014785253036126059 0.05524454091101486 -0.015924713568572113
0.0076738798775748025 0.06386482583012064 -0.013304915778114448
0.0005625067190235399 0.07248511074922641 -0.010685117987656785
0.06916386858530518 -0.0044942367240623825 -0.02376427064164673
0.062052495426753916 0.004126048195043387 -0.021144472851189065
0.05494112226820266 0.012746333114149152 -0.018524675060731403
0.047829749109651404 0.02136661803325492 -0.015904877270273742
0.040718375951100144 0.02998690295236069 -0.013285079479816083
0.033607002792548885 0.038607187871466456 -0.010665281689358418
0.02649562963399763 0.04722747279057222 -0.008045483898900758
0.019384256475446365 0.05584775770967799 -0.0054256861084430955
0.01227288331689511 0.06446804262878376 -0.0028058883179854326
0.005161510158343846 0.07308832754788953 -0.0001860905275277694
0.07376287202462549 -0.0038910199253992532 -0.013265243181517722
0.06665149886607422 0.004729264993706516 -0.010645445391060058
0.05954012570752296 0.013349549912812283 -0.008025647600602396
0.052428752548971704 0.02196983483191805 -0.005405849810144736
0.045317379390420444 0.03059011975102382 -0.0027860520196870743
0.038206006231869184 0.03921040467012959 -0.00016625422922940958
0.03109463307331793 0.04783068958923535 0.00245354356122825
0.02398325991476667 0.05645097450834112 0.0050733413516859125
0.016871886756215412 0.06507125942744689 0.0076931391421435754
0.009760513597664148 0.07369154434655266 0.01031293693260124
0.0783618754639458 -0.003287803126736123 -0.0027662157213887034
0.07125050230539452 0.0053324817923696465 -0.00014641793093103861
0.06413912914684328 0.013952766711475412 0.0024733798595266226
0.05702775598829201 0.022573051630581178 0.005093177649984284
0.04991638282974075 0.031193336549686947 0.0077129754404419455
0.04280500967118949 0.03981362146879272 0.01033277323089961
0.03569363651263824 0.04843390638789848 0.01295257102135727
0.028582263354086975 0.05705419130700425 0.015572368811814933
0.02147089019553572 0.06567447622611003 0.018192166602272596
0.014359517036984456 0.0742947611452158 0.020811964392730257
0.0829608789032661 -0.0026845863280729933 0.007732811738740309
0.07584950574471483 0.005935698591032776 0.010352609529197974
0.06873813258616358 0.014555983510138542 0.012972407319655635
0.06162675942761232 0.023176268429244307 0.015592205110113297
0.05451538626906106 0.031796553348350076 0.01821200290057096
0.0474040131105098 0.040416838267455846 0.020831800691028624
0.040292639951958545 0.04903712318656161 0.023451598481486282
0.03318126679340728 0.05765740810566738 0.026071396271943947
0.026069893634856022 0.06627769302477315 0.028691194062401608
0.01895852047630476 0.07489797794387892 0.03131099185285927
0.08755988234258641 -0.0020813695294098636 0.01823183919886933
0.08044850918403514 0.006538915389695906 0.020851636989326995
0.07333713602548389 0.015159200308801673 0.023471434779784656
0.06622576286693263 0.02377948522790744 0.026091232570242318
0.059114389708381364 0.03239977014701321 0.02871103036069998
0.052003016549830104 0.04102005506611898 0.03133082815115764
0.04489164339127885 0.04964033998522474 0.033950625941615305
0.037780270232727585 0.05826062490433051 0.03657042373207296
0.03066889707417633 0.06688090982343628 0.03919022152253063
0.023557523915625066 0.07550119474254205 0.04181001931298829
-0.023557523915625066 -0.07550119474254205 -0.04181001931298829
-0.015810148881810763 -0.06794665318419048 -0.045637729160688686
-0.008062773847996465 -0.060392111625838935 -0.049465439008389074
-0.0003153988141821619 -0.052837570067487384 -0.05329314885608946
0.007431976219632141 -0.04528302850913582 -0.057120858703789856
0.015179351253446443 -0.03772848695078426 -0.060948568551490244
0.022926726287260744 -0.03017394539243271 -0.06477627839919063
0.03067410132107505 -0.022619403834081148 -0.06860398824689103
0.03842147635488935 -0.015064862275729594 -0.0724316980945914
0.04616885138870366 -0.007510320717378032 -0.0762594079422918
-0.01895852047630476 -0.07489797794387892 -0.03131099185285927
-0.011211145442490456 -0.06734343638552735 -0.03513870170055967
-0.0034637704086761577 -0.0597888948271758 -0.038966411548260055
0.004283604625138145 -0.05223435326882425 -0.04279412139596044
0.012030979658952449 -0.04467981171047269 -0.04662183124366084
0.01977835469276675 -0.03712527015212113 -0.050449541091361225
0.02752572972658105 -0.029570728593769576 -0.05427725093906161
0.03527310476039536 -0.022016187035418015 -0.05810496078676201
0.04302047979420966 -0.014461645477066463 -0.061932670634462395
0.05076785482802397 -0.006907103918714902 -0.06576038048216279
-0.014359517036984456 -0.0742947611452158 -0.02081196439273026
-0.006612142003170154 -0.06674021958686423 -0.024639674240430655
0.0011352330306441455 -0.05918567802851268 -0.028467384088131042
0.00888260806445845 -0.051631136470161126 -0.03229509393583143
0.016629983098272752 -0.04407659491180956 -0.036122803783531825
0.024377358132087055 -0.036522053353458005 -0.03995051363123221
0.03212473316590135 -0.028967511795106447 -0.04377822347893261
0.03987210819971566 -0.021412970236754886 -0.047605933326632995
0.047619483233529956 -0.013858428678403333 -0.05143364317433338
0.05536685826734427 -0.0063038871200517725 -0.05526135302203378
-0.009760513597664153 -0.07369154434655266 -0.010312936932601248
-0.0020131385638498494 -0.06613700278820109 -0.01414064678030164
0.00573423646996445 -0.058582461229849545 -0.01796835662800203
0.013481611503778752 -0.051027919671497994 -0.021796066475702418
0.021228986537593055 -0.04347337811314643 -0.025623776323402812
0.028976361571407358 -0.03591883655479487 -0.029451486171103203
0.03672373660522166 -0.02836429499644332 -0.033279196018803595
0.044471111639035964 -0.020809753438091758 -0.03710690586650398
0.05221848667285026 -0.013255211879740204 -0.04093461571420437
0.059965861706664576 -0.005700670321388643 -0.044762325561904764
-0.005161510158343846 -0.07308832754788953 0.0001860905275277694
0.002585864875470457 -0.06553378598953796 -0.0036416193201726232
0.010333239909284756 -0.05797924443118641 -0.007469329167873011
0.01808061494309906 -0.05042470287283486 -0.011297039015573402
0.025827989976913362 -0.0428701613144833 -0.015124748863273793
0.033575365010727665 -0.03531561975613174 -0.018952458710974184
0.041322740044541964 -0.02776107819778019 -0.022780168558674575
0.04907011507835627 -0.02020653663942863 -0.026607878406374966
0.05681749011217057 -0.012651995081077073 -0.030435588254075354
0.06456486514598489 -0.005097453522725513 -0.034263298101775745
-0.0005625067190235399 -0.07248511074922641 0.010685117987656785
0.007184868314790763 -0.06493056919087484 0.0068574081399563926
0.014932243348605063 -0.05737602763252329 0.003029698292256005
0.022679618382419366 -0.049821486074171736 -0.0007980115554443851
0.03042699341623367 -0.04226694451582017 -0.004625721403144777
0.03817436845004797 -0.034712402957468615 -0.008453431250845168
0.04592174348386227 -0.027157861399117057 -0.012281141098545558
0.05366911851767658 -0.019603319840765496 -0.016108850946245947
0.061416493551490876 -0.012048778282413944 -0.019936560793946335
0.06916386858530518 -0.0044942367240623825 -0.02376427064164673
0.004036496720296763 -0.07188189395056328 0.021184145447785793
0.011783871754111065 -0.06432735239221171 0.0173564356000854
0.019531246787925366 -0.056772810833860154 0.013528725752385014
0.02727862182173967 -0.049218269275508604 0.009701015904684623
0.03502599685555397 -0.04166372771715704 0.005873306056984231
0.04277337188936827 -0.03410918615880548 0.00204559620928384
0.05052074692318257 -0.02655464460045393 -0.0017821136384165493
0.05826812195699688 -0.019000103042102368 -0.005609823486116941
0.06601549699081118 -0.011445561483750814 -0.009437533333817328
0.07376287202462549 -0.0038910199253992532 -0.013265243181517722
0.00863550015961707 -0.07127867715190014 0.031683172907914815
0.016382875193431373 -0.06372413559354857 0.02785546306021442
0.024130250227245673 -0.05616959403519702 0.024027753212514033
0.03187762526105997 -0.04861505247684547 0.020200043364813642
0.03962500029487428 -0.04106051091849391 0.01637233351711325
0.04737237532868858 -0.03350596936014235 0.01254462366941286
0.05511975036250288 -0.0259514278017908 0.00871691382171247
0.06286712539631718 -0.01839688624343924 0.004889203974012079
0.07061450043013148 -0.010842344685087685 0.0010614941263116912
0.0783618754639458 -0.003287803126736123 -0.0027662157213887034
0.013234503598937374 -0.07067546035323702 0.04218220036804383
0.020981878632751676 -0.06312091879488545 0.03835449052034343
0.028729253666565976 -0.0555663772365339 0.034526780672643045
0.03647662870038028 -0.048011835678182346 0.030699070824942654
0.044224003734194585 -0.04045729411983078 0.026871360977242263
0.051971378768008884 -0.032902752561479225 0.023043651129541872
0.059718753801823184 -0.02534821100312767 0.019215941281841484
0.06746612883563749 -0.01779366944477611 0.015388231434141092
0.07521350386945179 -0.010239127886424554 0.011560521586440704
0.0829608789032661 -0.0026845863280729933 0.007732811738740309
0.01783350703825768 -0.0700722435545739 0.05268122782817285
0.025580882072071983 -0.06251770199622232 0.04885351798047245
0.033328257105886286 -0.054963160437870764 0.045025808132772065
0.041075632139700585 -0.047408618879519214 0.04119809828507168
0.04882300717351489 -0.03985407732116765 0.03737038843737128
0.05657038220732919 -0.03229953576281609 0.033542678589670895
0.0643177572411435 -0.02474499420446454 0.029714968741970504
0.0720651322749578 -0.017190452646112978 0.025887258894270113
0.0798125073087721 -0.009635911087761424 0.022059549046569725
0.08755988234258641 -0.0020813695294098636 0.01823183919886933
-0.08755988234258641 0.0020813695294098636 -0.01823183919886933
-0.0798125073087721 0.009635911087761424 -0.022059549046569725
-0.0720651322749578 0.017190452646112978 -0.025887258894270113
-0.0643177572411435 0.02474499420446453 -0.0297149687419705
-0.05657038220732919 0.03229953576281609 -0.033542678589670895
-0.04882300717351489 0.03985407732116765 -0.03737038843737128
-0.04107563213970059 0.0474086188795192 -0.04119809828507167
-0.033328257105886286 0.054963160437870764 -0.045025808132772065
-0.025580882072071983 0.06251770199622232 -0.04885351798047245
-0.01783350703825768 0.0700722435545739 -0.05268122782817285
-0.0829608789032661 0.0026845863280729933 -0.007732811738740309
-0.07521350386945179 0.010239127886424554 -0.011560521586440704
-0.06746612883563749 0.01779366944477611 -0.015388231434141092
-0.05971875380182319 0.025348211003127664 -0.01921594128184148
-0.051971378768008884 0.032902752561479225 -0.023043651129541872
-0.044224003734194585 0.04045729411983078 -0.026871360977242263
-0.036476628700380286 0.04801183567818233 -0.03069907082494265
-0.02872925366656598 0.0555663772365339 -0.034526780672643045
-0.020981878632751676 0.06312091879488545 -0.03835449052034343
-0.013234503598937374 0.07067546035323702 -0.04218220036804383
-0.0783618754639458 0.003287803126736123 0.0027662157213887003
-0.07061450043013148 0.010842344685087685 -0.0010614941263116945
-0.06286712539631718 0.01839688624343924 -0.004889203974012082
-0.05511975036250289 0.025951427801790793 -0.00871691382171247
-0.047372375328688585 0.03350596936014235 -0.012544623669412863
-0.03962500029487428 0.04106051091849391 -0.016372333517113254
-0.031877625261059986 0.04861505247684546 -0.020200043364813642
-0.024130250227245676 0.05616959403519702 -0.024027753212514033
-0.016382875193431373 0.06372413559354857 -0.027855463060214424
-0.00863550015961707 0.07127867715190014 -0.031683172907914815
-0.07376287202462549 0.003891019925399253 0.013265243181517714
-0.06601549699081118 0.011445561483750814 0.009437533333817319
-0.058268121956996884 0.019000103042102368 0.005609823486116931
-0.050520746923182584 0.02655464460045392 0.0017821136384165433
-0.04277337188936828 0.03410918615880548 -0.0020455962092838496
-0.03502599685555397 0.04166372771715704 -0.00587330605698424
-0.02727862182173968 0.04921826927550859 -0.00970101590468463
-0.019531246787925373 0.056772810833860154 -0.01352872575238502
-0.01178387175411107 0.06432735239221171 -0.017356435600085412
-0.004036496720296766 0.07188189395056328 -0.021184145447785803
-0.06916386858530518 0.0044942367240623825 0.02376427064164673
-0.061416493551490876 0.012048778282413944 0.019936560793946335
-0.05366911851767658 0.019603319840765496 0.016108850946245947
-0.04592174348386228 0.02715786139911705 0.012281141098545561
-0.03817436845004797 0.034712402957468615 0.008453431250845168
-0.03042699341623367 0.04226694451582017 0.004625721403144777
-0.022679618382419373 0.04982148607417172 0.0007980115554443886
-0.014932243348605066 0.05737602763252329 -0.003029698292256003
-0.007184868314790763 0.06493056919087484 -0.0068574081399563926
0.0005625067190235399 0.07248511074922641 -0.010685117987656785
-0.06456486514598489 0.005097453522725513 0.034263298101775745
-0.05681749011217057 0.012651995081077073 0.030435588254075354
-0.04907011507835627 0.02020653663942863 0.026607878406374966
-0.04132274004454197 0.027761078197780183 0.02278016855867458
-0.033575365010727665 0.03531561975613174 0.018952458710974184
-0.025827989976913362 0.0428701613144833 0.015124748863273793
-0.018080614943099066 0.05042470287283485 0.011297039015573405
-0.01033323990928476 0.05797924443118641 0.007469329167873013
-0.002585864875470457 0.06553378598953796 0.0036416193201726232
0.005161510158343846 0.07308832754788953 -0.0001860905275277694
-0.05996586170666458 0.005700670321388642 0.04476232556190476
-0.05221848667285027 0.013255211879740204 0.04093461571420436
-0.04447111163903597 0.020809753438091758 0.037106905866503975
-0.03672373660522167 0.02836429499644331 0.03327919601880359
-0.02897636157140736 0.03591883655479487 0.029451486171103193
-0.02122898653759306 0.04347337811314643 0.025623776323402802
-0.013481611503778764 0.05102791967149798 0.021796066475702414
-0.005734236469964457 0.058582461229849545 0.01796835662800202
0.002013138563849845 0.06613700278820109 0.014140646780301632
0.009760513597664148 0.07369154434655266 0.01031293693260124
-0.05536685826734428 0.0063038871200517725 0.05526135302203378
-0.04761948323352996 0.013858428678403333 0.05143364317433338
-0.039872108199715664 0.021412970236754886 0.047605933326632995
-0.032124733165901365 0.02896751179510644 0.04377822347893261
-0.024377358132087055 0.036522053353458005 0.03995051363123221
-0.016629983098272752 0.04407659491180956 0.03612280378353182
-0.008882608064458456 0.05163113647016111 0.03229509393583143
-0.0011352330306441504 0.05918567802851268 0.02846738408813104
0.006612142003170152 0.06674021958686423 0.02463967424043065
0.014359517036984456 0.0742947611452158 0.020811964392730257
-0.05076785482802397 0.006907103918714902 0.06576038048216279
-0.04302047979420966 0.014461645477066463 0.061932670634462395
-0.03527310476039536 0.022016187035418015 0.05810496078676201
-0.027525729726581058 0.02957072859376957 0.05427725093906162
-0.01977835469276675 0.03712527015212113 0.050449541091361225
-0.012030979658952449 0.04467981171047269 0.04662183124366084
-0.004283604625138152 0.05223435326882424 0.04279412139596044
0.0034637704086761542 0.0597888948271758 0.038966411548260055
0.011211145442490456 0.06734343638552735 0.03513870170055967
0.01895852047630476 0.07489797794387892 0.03131099185285927
-0.04616885138870366 0.007510320717378032 0.0762594079422918
-0.03842147635488935 0.015064862275729594 0.0724316980945914
-0.03067410132107505 0.022619403834081148 0.06860398824689103
-0.02292672628726075 0.0301739453924327 0.06477627839919063
-0.015179351253446443 0.03772848695078426 0.060948568551490244
-0.007431976219632141 0.04528302850913582 0.057120858703789856
0.00031539881418215496 0.05283757006748737 0.05329314885608946
0.008062773847996462 0.060392111625838935 0.049465439008389074
0.015810148881810763 0.06794665318419048 0.045637729160688686
0.023557523915625066 0.07550119474254205 0.04181001931298829
-0.023557523915625066 -0.07550119474254205 -0.04181001931298829
-0.015810148881810763 -0.06794665318419048 -0.045637729160688686
-0.008062773847996465 -0.060392111625838935 -0.049465439008389074
-0.0003153988141821619 -0.052837570067487384 -0.05329314885608946
0.007431976219632141 -0.04528302850913582 -0.057120858703789856
0.015179351253446443 -0.03772848695078426 -0.060948568551490244
0.022926726287260744 -0.03017394539243271 -0.06477627839919063
0.03067410132107505 -0.022619403834081148 -0.06860398824689103
0.03842147635488935 -0.015064862275729594 -0.0724316980945914
0.04616885138870366 -0.007510320717378032 -0.0762594079422918
-0.03066889707417633 -0.06688090982343628 -0.03919022152253063
-0.022921522040362026 -0.059326368265084715 -0.04301793137023102
-0.015174147006547728 -0.051771826706733165 -0.04684564121793141
-0.007426771972733425 -0.044217285148381615 -0.0506733510656318
0.00032060306108087786 -0.03666274359003005 -0.05450106091333219
0.008067978094895184 -0.029108202031678493 -0.05832877076103258
0.015815353128709478 -0.02155366047332694 -0.06215648060873297
0.02356272816252379 -0.013999118914975378 -0.06598419045643336
0.03131010319633809 -0.006444577356623823 -0.06981190030413376
0.03905747823015239 0.0011099642017277373 -0.07363961015183414
-0.037780270232727585 -0.05826062490433052 -0.03657042373207296
-0.030032895198913282 -0.05070608334597895 -0.04039813357977336
-0.022285520165098983 -0.0431515417876274 -0.044225843427473745
-0.014538145131284682 -0.035597000229275845 -0.04805355327517414
-0.006790770097470376 -0.028042458670924284 -0.05188126312287453
0.000956604936343928 -0.020487917112572727 -0.05570897297057492
0.008703979970158223 -0.012933375554221173 -0.05953668281827531
0.01645135500397253 -0.005378833995869611 -0.0633643926659757
0.02419873003778683 0.0021757075624819428 -0.06719210251367609
0.03194610507160114 0.009730249120833503 -0.07101981236137649
-0.044891643391278845 -0.04964033998522475 -0.033950625941615305
-0.03714426835746454 -0.04208579842687319 -0.0377783357893157
-0.029396893323650242 -0.03453125686852163 -0.04160604563701609
-0.02164951828983594 -0.02697671531017008 -0.045433755484716475
-0.013902143256021635 -0.019422173751818518 -0.04926146533241687
-0.006154768222207331 -0.01186763219346696 -0.05308917518011726
0.0015926068116069642 -0.004313090635115406 -0.056916885027817644
0.00933998184542127 0.003241450923236155 -0.06074459487551804
0.017087356879235578 0.010795992481587708 -0.06457230472321843
0.024834731913049878 0.01835053403993927 -0.06840001457091882
-0.052003016549830104 -0.04102005506611898 -0.03133082815115764
-0.044255641516015805 -0.033465513507767414 -0.035158537998858035
-0.036508266482201505 -0.025910971949415863 -0.03898624784655842
-0.0287608914483872 -0.01835643039106431 -0.04281395769425881
-0.021013516414572896 -0.010801888832712749 -0.046641667541959204
-0.013266141380758592 -0.00324734727436119 -0.05046937738965959
-0.005518766346944295 0.004307194283990364 -0.05429708723735999
0.002228608686870011 0.011861735842341924 -0.058124797085060374
0.009975983720684313 0.019416277400693478 -0.06195250693276076
0.017723358754498618 0.02697081895904504 -0.06578021678046116
-0.059114389708381364 -0.03239977014701321 -0.02871103036069998
-0.051367014674567064 -0.024845228588661648 -0.03253874020840037
-0.043619639640752765 -0.017290687030310094 -0.03636645005610076
-0.03587226460693846 -0.00973614547195854 -0.04019415990380115
-0.028124889573124156 -0.0021816039136069785 -0.04402186975150154
-0.020377514539309853 0.005372937644744579 -0.047849579599201934
-0.012630139505495555 0.012927479203096132 -0.05167728944690232
-0.004882764471681248 0.020482020761447693 -0.05550499929460272
0.002864610562133054 0.028036562319799247 -0.059332709142303104
0.010611985595947357 0.03559110387815081 -0.06316041899000349
-0.06622576286693262 -0.023779485227907446 -0.026091232570242318
-0.05847838783311832 -0.016224943669555885 -0.029918942417942712
-0.05073101279930402 -0.008670402111204331 -0.0337466522656431
-0.04298363776548972 -0.0011158605528527766 -0.03757436211334349
-0.03523626273167541 0.0064386810054987845 -0.04140207196104388
-0.02748888769786111 0.013993222563850341 -0.04522978180874427
-0.01974151266404681 0.021547764122201895 -0.04905749165644466
-0.011994137630232505 0.029102305680553456 -0.05288520150414505
-0.0042467625964182016 0.036656847238905006 -0.05671291135184544
0.003500612437396101 0.04421138879725657 -0.060540621199545834
-0.07333713602548389 -0.015159200308801676 -0.023471434779784656
-0.06558976099166958 -0.007604658750450115 -0.027299144627485047
-0.05784238595785528 -5.011719209856092e-05 -0.031126854475185435
-0.05009501092404098 0.007504424366252993 -0.03495456432288582
-0.04234763589022668 0.015058965924604553 -0.03878227417058622
-0.03460026085641237 0.02261350748295611 -0.04260998401828661
-0.026852885822598073 0.03016804904130766 -0.046437693865987
-0.019105510788783767 0.037722590599659225 -0.05026540371368739
-0.011358135754969466 0.045277132158010776 -0.05409311356138778
-0.0036107607211551622 0.05283167371636234 -0.05792082340908817
-0.08044850918403514 -0.006538915389695906 -0.020851636989326995
-0.07270113415022084 0.0010156261686556547 -0.024679346837027386
-0.06495375911640654 0.008570167727007208 -0.028507056684727774
-0.05720638408259224 0.016124709285358762 -0.032334766532428165
-0.04945900904877793 0.023679250843710323 -0.03616247638012855
-0.041711634014963625 0.03123379240206188 -0.03999018622782895
-0.03396425898114933 0.03878833396041343 -0.043817896075529335
-0.026216883947335023 0.046342875518764995 -0.04764560592322973
-0.01846950891352072 0.053897417077116545 -0.05147331577093012
-0.010722133879706419 0.06145195863546812 -0.05530102561863051
-0.08755988234258641 0.0020813695294098636 -0.01823183919886933
-0.0798125073087721 0.009635911087761424 -0.022059549046569725
-0.0720651322749578 0.017190452646112978 -0.025887258894270113
-0.0643177572411435 0.02474499420446453 -0.0297149687419705
-0.05657038220732919 0.03229953576281609 -0.033542678589670895
-0.04882300717351489 0.03985407732116765 -0.03737038843737128
-0.04107563213970059 0.0474086188795192 -0.04119809828507167
-0.033328257105886286 0.054963160437870764 -0.045025808132772065
-0.025580882072071983 0.06251770199622232 -0.04885351798047245
-0.01783350703825768 0.0700722435545739 -0.05268122782817285
0.01783350703825768 -0.0700722435545739 0.05268122782817285
0.025580882072071983 -0.06251770199622232 0.04885351798047245
0.033328257105886286 -0.054963160437870764 0.045025808132772065
0.041075632139700585 -0.047408618879519214 0.04119809828507168
0.04882300717351489 -0.03985407732116765 0.03737038843737128
0.05657038220732919 -0.03229953576281609 0.033542678589670895
0.0643177572411435 -0.02474499420446454 0.029714968741970504
0.0720651322749578 -0.017190452646112978 0.025887258894270113
0.0798125073087721 -0.009635911087761424 0.022059549046569725
0.08755988234258641 -0.0020813695294098636 0.01823183919886933
0.010722133879706419 -0.06145195863546812 0.05530102561863051
0.01846950891352072 -0.053897417077116545 0.05147331577093012
0.02621688394733502 -0.046342875518764995 0.04764560592322973
0.033964258981149326 -0.038788333960413444 0.043817896075529335
0.041711634014963625 -0.03123379240206188 0.03999018622782895
0.04945900904877793 -0.023679250843710323 0.03616247638012855
0.057206384082592224 -0.01612470928535877 0.032334766532428165
0.06495375911640654 -0.008570167727007208 0.028507056684727777
0.07270113415022084 -0.0010156261686556547 0.024679346837027386
0.08044850918403514 0.006538915389695906 0.020851636989326995
0.0036107607211551622 -0.05283167371636235 0.05792082340908817
0.011358135754969466 -0.04527713215801078 0.054093113561387775
0.019105510788783763 -0.03772259059965923 0.05026540371368739
0.026852885822598066 -0.030168049041307675 0.046437693865987
0.03460026085641237 -0.022613507482956114 0.042609984018286605
0.04234763589022668 -0.015058965924604557 0.03878227417058622
0.05009501092404097 -0.007504424366253004 0.03495456432288583
0.05784238595785528 5.0117192098557454e-05 0.03112685447518544
0.06558976099166958 0.007604658750450111 0.027299144627485047
0.07333713602548389 0.015159200308801673 0.023471434779784656
-0.0035006124373960974 -0.04421138879725658 0.060540621199545834
0.0042467625964182085 -0.03665684723890502 0.05671291135184544
0.011994137630232507 -0.029102305680553463 0.05288520150414505
0.01974151266404681 -0.02154776412220191 0.049057491656444664
0.027488887697861113 -0.013993222563850348 0.04522978180874427
0.03523626273167542 -0.0064386810054987914 0.041402071961043875
0.04298363776548971 0.0011158605528527627 0.03757436211334349
0.05073101279930402 0.008670402111204324 0.0337466522656431
0.058478387833118324 0.016224943669555878 0.02991894241794271
0.06622576286693263 0.02377948522790744 0.026091232570242318
-0.010611985595947357 -0.03559110387815081 0.06316041899000349
-0.002864610562133054 -0.028036562319799247 0.059332709142303104
0.004882764471681245 -0.020482020761447693 0.05550499929460272
0.012630139505495548 -0.01292747920309614 0.05167728944690232
0.020377514539309853 -0.005372937644744579 0.047849579599201934
0.028124889573124156 0.0021816039136069785 0.04402186975150154
0.03587226460693845 0.009736145471958533 0.04019415990380115
0.04361963964075276 0.017290687030310094 0.036366450056100764
0.051367014674567064 0.024845228588661648 0.03253874020840037
0.059114389708381364 0.03239977014701321 0.02871103036069998
-0.017723358754498618 -0.02697081895904504 0.06578021678046116
-0.009975983720684313 -0.019416277400693478 0.06195250693276076
-0.0022286086868700144 -0.011861735842341924 0.058124797085060374
0.005518766346944288 -0.004307194283990371 0.05429708723735999
0.013266141380758592 0.00324734727436119 0.05046937738965959
0.021013516414572896 0.010801888832712749 0.046641667541959204
0.028760891448387192 0.018356430391064302 0.04281395769425882
0.0365082664822015 0.025910971949415863 0.03898624784655842
0.044255641516015805 0.033465513507767414 0.035158537998858035
0.052003016549830104 0.04102005506611898 0.03133082815115764
-0.02483473191304987 -0.018350534039939276 0.06840001457091882
-0.01708735687923557 -0.010795992481587715 0.06457230472321843
-0.00933998184542127 -0.003241450923236162 0.06074459487551804
-0.0015926068116069677 0.004313090635115392 0.056916885027817644
0.006154768222207336 0.011867632193466954 0.05308917518011726
0.01390214325602164 0.01942217375181851 0.04926146533241686
0.021649518289835936 0.026976715310170065 0.045433755484716475
0.029396893323650242 0.034531256868521626 0.04160604563701609
0.037144268357464545 0.042085798426873176 0.03777833578931569
0.04489164339127885 0.04964033998522474 0.033950625941615305
-0.03194610507160114 -0.009730249120833506 0.07101981236137649
-0.02419873003778683 -0.0021757075624819463 0.06719210251367609
-0.01645135500397253 0.005378833995869608 0.0633643926659757
-0.00870397997015823 0.012933375554221162 0.05953668281827531
-0.000956604936343928 0.020487917112572723 0.05570897297057492
0.006790770097470376 0.02804245867092428 0.05188126312287453
0.014538145131284675 0.03559700022927583 0.04805355327517414
0.02228552016509898 0.043151541787627395 0.044225843427473745
0.030032895198913282 0.050706083345978946 0.04039813357977336
0.037780270232727585 0.05826062490433051 0.03657042373207296
-0.03905747823015239 -0.0011099642017277373 0.07363961015183414
-0.03131010319633809 0.006444577356623823 0.06981190030413376
-0.02356272816252379 0.013999118914975378 0.06598419045643336
-0.01581535312870949 0.021553660473326932 0.062156480608732974
-0.008067978094895184 0.029108202031678493 0.05832877076103258
-0.00032060306108087786 0.03666274359003005 0.05450106091333219
0.007426771972733418 0.0442172851483816 0.050673351065631804
0.015174147006547725 0.051771826706733165 0.04684564121793141
0.022921522040362026 0.059326368265084715 0.04301793137023102
0.03066889707417633 0.06688090982343628 0.03919022152253063
-0.04616885138870366 0.007510320717378032 0.0762594079422918
-0.03842147635488935 0.015064862275729594 0.0724316980945914
-0.03067410132107505 0.022619403834081148 0.06860398824689103
-0.02292672628726075 0.0301739453924327 0.06477627839919063
-0.015179351253446443 0.03772848695078426 0.060948568551490244
-0.007431976219632141 0.04528302850913582 0.057120858703789856
0.00031539881418215496 0.05283757006748737 0.05329314885608946
0.008062773847996462 0.060392111625838935 0.049465439008389074
0.015810148881810763 0.06794665318419048 0.045637729160688686
0.023557523915625066 0.07550119474254205 0.04181001931298829
