# .PCD v0.7 - Point Cloud Data file format
VERSION 0.7
FIELDS x y z
SIZE 4 4 4
TYPE F F F
COUNT 1 1 1
WIDTH 700
HEIGHT 1
VIEWPOINT 0 0 0 1 0 0 0
POINTS 700
DATA ascii
0.18217316658172505 0.07755620219459752 -0.04280452696541593
0.17233663557911535 0.10278011737607123 -0.027759433701491025
0.1569146161573818 0.12706959971067786 -0.01629032582684852
0.13662822480434123 0.1492889000002719 -0.0089334860787088
0.11242603063295716 0.16839906845829042 -0.006032912107154849
0.08543970134387667 0.18350653484706334 -0.007724231527340052
0.056931087701506414 0.19390489082899445 -0.013928360122943066
0.02823322079471534 0.19910792083531131 -0.024355199736227205
0.0006879809846767063 0.19887233696567105 -0.03851720293547516
-0.02441664692942723 0.19320915485998535 -0.05575217019102618
-0.045906798448122885 0.1823831786193413 -0.07525421358930096
-0.062777617970984 0.16690061886054297 -0.09611143925596065
-0.07424024472769071 0.14748542287028252 -0.11734858649997362
-0.07975869903089407 0.12504542363462406 -0.13797262991960366
-0.07907494409069772 0.1006298905775592 -0.15701921216652678
-0.07222095152816617 0.07538046688892017 -0.17359773622363264
-0.05951720641785782 0.050477787557668956 -0.18693300873171706
-0.04155772176193208 0.02708627419199468 -0.19640148716939285
-0.019182263102366537 0.006299687959076431 -0.20156043600837223
0.006562917982453689 -0.010910013471465776 -0.20216862853470438
0.034474005438716086 -0.023738123587949213 -0.19819762634181542
0.06324590783791144 -0.03158481421874744 -0.18983310907879292
0.09153328300152612 -0.034083182830934575 -0.17746619227636254
0.1180134447060689 -0.03111640848494204 -0.16167513921936513
0.14144821002082134 -0.022823214251855597 -0.143198321998251
0.16074179536553646 -0.009591380676790991 -0.122899696050772
0.17499205413277538 0.007960386408408546 -0.1017284025659299
0.1835326600606071 0.029011385882226983 -0.08067438769687331
0.18596426390804793 0.05257729640577423 -0.060722113779022306
0.18217316658172505 0.0775562021945975 -0.04280452696541595
0.17042124234397316 0.0591570802910675 -0.019640847147032788
0.16058471134136346 0.0843809954725412 -0.004595753883107882
0.1451626919196299 0.10867047780714784 0.006873353991534621
0.12487630056658933 0.13088977809674185 0.014230193739674343
0.10067410639520527 0.1499999465547604 0.017130767711228293
0.07368777710612479 0.1651074129435333 0.015439448291043092
0.04517916346375453 0.17550576892546443 0.009235319695440078
0.016481296556963454 0.18070879893178127 -0.0011915199178440619
-0.011063943253075177 0.180473215062141 -0.01535352311709202
-0.036168571167179114 0.17481003295645534 -0.03258849037264303
-0.05765872268587477 0.1639840567158113 -0.0520905337709178
-0.07452954220873588 0.14850149695701295 -0.0729477594375775
-0.0859921689654426 0.1290863009667525 -0.09418490668159048
-0.09151062326864595 0.10664630173109405 -0.11480895010122052
-0.0908268683284496 0.08223076867402916 -0.13385553234814365
-0.08397287576591805 0.05698134498539014 -0.1504340564052495
-0.0712691306556097 0.03207866565413893 -0.1637693289133339
-0.05330964599968396 0.008687152288464652 -0.1732378073510097
-0.03093418734011842 -0.012099433944453598 -0.17839675618998907
-0.005189006255298194 -0.029309135374995805 -0.17900494871632122
0.022722081200964202 -0.04213724549147924 -0.17503394652343227
0.051493983600159554 -0.049983936122277466 -0.16666942926040976
0.07978135876377423 -0.0524823047344646 -0.15430251245797938
0.10626152046831702 -0.04951553038847207 -0.138511459400982
0.12969628578306944 -0.041222336155385626 -0.12003464217986785
0.14898987112778458 -0.02799050258032102 -0.09973601623238885
0.1632401298950235 -0.010438735495121483 -0.07856472274754675
0.1717807358228552 0.010612263978696954 -0.05751070787849016
0.17421233967029603 0.034178174502244196 -0.03755843396063916
0.17042124234397316 0.05915708029106747 -0.01964084714703281
0.15866931810622129 0.04075795838753747 0.003522832671350357
0.14883278710361159 0.06598187356901118 0.018567925935275263
0.13341076768187804 0.0902713559036178 0.030037033809917766
0.11312437632883744 0.11249065619321183 0.03739387355805748
0.08892218215745339 0.13160082465123035 0.040294447529611435
0.0619358528683729 0.14670829104000327 0.03860312810942623
0.033427239226002645 0.1571066470219344 0.03239899951382322
0.004729372319211571 0.16230967702825125 0.021972159900539082
-0.02281586749082706 0.162074093158611 0.007810156701291124
-0.047920495404931 0.1564109110529253 -0.00942481055425989
-0.06941064692362665 0.14558493481228124 -0.02892685395253466
-0.08628146644648776 0.1301023750534829 -0.04978407961919436
-0.09774409320319448 0.11068717906322247 -0.07102122686320733
-0.10326254750639784 0.08824717982756401 -0.09164527028283738
-0.10257879256620149 0.06383164677049914 -0.11069185252976049
-0.09572480000366994 0.038582223081860115 -0.12727037658686635
-0.08302105489336159 0.013679543750608899 -0.14060564909495077
-0.06506157023743585 -0.00971196961506538 -0.15007412753262656
-0.042686111577870306 -0.030498555847983628 -0.15523307637160594
-0.016940930493050076 -0.04770825727852584 -0.1558412688979381
0.010970156963212319 -0.060536367395009276 -0.15187026670504913
0.03974205936240767 -0.06838305802580749 -0.14350574944202663
0.06802943452602235 -0.07088142663799463 -0.13113883263959625
0.09450959623056514 -0.0679146522920021 -0.11534777958259884
0.11794436154531755 -0.05962145805891566 -0.09687096236148471
0.13723794689003269 -0.046389624483851054 -0.07657233641400571
0.1514882056572716 -0.028837857398651513 -0.05540104292916361
0.16002881158510332 -0.007786857924833077 -0.03434702806010702
0.16246041543254416 0.01577905259871417 -0.014394754142256019
0.15866931810622129 0.040757958387537443 0.003522832671350336
0.1469173938684694 0.022358836484007445 0.026686512489733496
0.1370808628658597 0.04758275166548115 0.0417316057536584
0.12165884344412614 0.07187223400008778 0.0532007136283009
0.10137245209108556 0.0940915342896818 0.06055755337644062
0.0771702579197015 0.11320170274770033 0.06345812734799458
0.05018392863062102 0.12830916913647325 0.06176680792780937
0.021675314988250767 0.13870752511840437 0.055562679332206356
-0.00702255191854031 0.14391055512472123 0.04513583971892222
-0.03456779172857894 0.14367497125508097 0.030973836519674263
-0.059672419642682877 0.13801178914939527 0.013738869264123248
-0.08116257116137854 0.12718581290875122 -0.0057631741341515235
-0.09803339068423965 0.11170325314995289 -0.026620399800811215
-0.10949601744094636 0.09228805715969243 -0.04785754704482419
-0.11501447174414972 0.069848057924034 -0.06848159046445423
-0.11433071680395337 0.04543252486696911 -0.08752817271137736
-0.10747672424142182 0.020183101178330085 -0.10410669676848322
-0.09477297913111347 -0.004719578152921127 -0.11744196927656762
-0.07681349447518773 -0.028111091518595404 -0.12691044771424342
-0.054438035815622184 -0.04889767775151366 -0.1320693965532228
-0.028692854730801957 -0.06610737918205586 -0.13267758907955496
-0.0007817672745395618 -0.0789354892985393 -0.128706586886666
0.02799013512465579 -0.08678217992933752 -0.12034206962364348
0.056277510288270466 -0.08928054854152466 -0.1079751528212131
0.08275767199281325 -0.08631377419553213 -0.09218409976421571
0.10619243730756567 -0.07802057996244569 -0.07370728254310156
0.12548602265228082 -0.06478874638738108 -0.05340865659562258
0.13973628141951974 -0.04723697930218154 -0.03223736311078047
0.14827688734735142 -0.026185979828363102 -0.011183348241723876
0.15070849119479227 -0.002620069304815857 0.00876892567612712
0.1469173938684694 0.022358836484007414 0.026686512489733475
0.13516546963071752 0.003959714580477414 0.04985019230811664
0.12532893862810782 0.029183629761951123 0.06489528557204155
0.10990691920637426 0.05347311209655775 0.07636439344668405
0.08962052785333367 0.07569241238615176 0.08372123319482377
0.06541833368194962 0.0948025808441703 0.08662180716637773
0.03843200439286914 0.1099100472329432 0.08493048774619252
0.009923390750498882 0.12030840321487433 0.07872635915058951
-0.018774476156292193 0.12551143322119118 0.06829951953730537
-0.046319715966330825 0.12527584935155092 0.054137516338057405
-0.07142434388043477 0.11961266724586524 0.03690254908250639
-0.09291449539913042 0.10878669100522119 0.01740050568423162
-0.10978531492199153 0.09330413124642285 -0.0034567199824280725
-0.12124794167869825 0.0738889352561624 -0.024693867226441048
-0.1267663959819016 0.05144893602050396 -0.045317910646071095
-0.12608264104170525 0.027033402963439083 -0.06436449289299422
-0.11922864847917371 0.001783979274800056 -0.08094301695010007
-0.10652490336886536 -0.023118700056451155 -0.09427828945818448
-0.08856541871293962 -0.04651021342212543 -0.10374676789586026
-0.06618996005337408 -0.06729679965504369 -0.10890571673483965
-0.04044477896855384 -0.0845065010855859 -0.1095139092611718
-0.012533691512291445 -0.09733461120206933 -0.10554290706828284
0.016238210886903904 -0.10518130183286756 -0.09717838980526033
0.04452558605051858 -0.10767967044505469 -0.08481147300282996
0.07100574775506137 -0.10471289609906216 -0.06902041994583256
0.09444051306981378 -0.09641970186597572 -0.050543602724718424
0.11373409841452892 -0.08318786829091111 -0.030244976777239432
0.12798435718176784 -0.06563610120571158 -0.009073683292397326
0.13652496310959955 -0.04458510173189313 0.011980331576659268
0.1389565669570404 -0.021019191208345885 0.03193260549451026
0.13516546963071752 0.003959714580477385 0.04985019230811662
0.12341354539296563 -0.014439407323052615 0.07301387212649978
0.11357701439035593 0.010784507858421092 0.08805896539042468
0.09815499496862239 0.03507399019302772 0.09952807326506719
0.0778686036155818 0.05729329048262174 0.1068849130132069
0.05366640944419774 0.07640345894064028 0.10978548698476086
0.026680080155117254 0.09151092532941318 0.10809416756457566
-0.0018285334872530016 0.10190928131134432 0.10189003896897264
-0.030526400394044077 0.10711231131766116 0.0914631993556885
-0.05807164020408271 0.1068767274480209 0.07730119615644054
-0.08317626811818664 0.10121354534233522 0.060066228900889536
-0.1046664196368823 0.09038756910169117 0.040564185502614765
-0.1215372391597434 0.07490500934289283 0.019706959835955072
-0.13299986591645013 0.055489813352632374 -0.0015301874080579031
-0.1385183202196535 0.03304981411697393 -0.02215423082768795
-0.13783456527945714 0.008634281059909052 -0.04120081307461107
-0.1309805727169256 -0.016615142628729974 -0.057779337131716936
-0.11827682760661723 -0.04151782195998119 -0.07111460963980135
-0.10031734295069149 -0.06490933532565546 -0.08058308807747713
-0.07794188429112595 -0.08569592155857371 -0.08574203691645652
-0.052196703206305727 -0.10290562298911592 -0.08635022944278867
-0.02428561575004333 -0.11573373310559935 -0.08237922724989971
0.00448628664915202 -0.12358042373639758 -0.0740147099868772
0.0327736618127667 -0.1260787923485847 -0.06164779318444682
0.05925382351730949 -0.12311201800259218 -0.04585674012744942
0.08268858883206191 -0.11481882376950574 -0.02737992290633528
0.10198217417677705 -0.10158699019444113 -0.007081296958856288
0.11623243294401597 -0.0840352231092416 0.014089996525985816
0.12477303887184767 -0.06298422363542316 0.03514401139504241
0.1272046427192885 -0.039418313111875915 0.05509628531289341
0.12341354539296563 -0.014439407323052645 0.07301387212649976
0.11166162115521375 -0.03283852922658264 0.09617755194488292
0.10182509015260405 -0.00761461404510893 0.11122264520880783
0.0864030707308705 0.0166748682894977 0.12269175308345033
0.06611667937782992 0.03889416857909172 0.13004859283159004
0.04191448520644586 0.058004337037110255 0.132949166803144
0.014928155917365377 0.07311180342588315 0.1312578473829588
-0.01358045772500488 0.08351015940781428 0.12505371878735577
-0.042278324631795955 0.08871318941413113 0.11462687917407165
-0.06982356444183459 0.08847760554449087 0.10046487597482369
-0.09492819235593852 0.08281442343880518 0.08322990871927267
-0.11641834387463418 0.07198844719816114 0.0637278653209979
-0.1332891633974953 0.05650588743936281 0.042870639654338204
-0.144751790154202 0.037090691449102355 0.02163349241032523
-0.15027024445740536 0.014650692213443907 0.0010094489906951826
-0.14958648951720901 -0.00976484084362097 -0.01803713325622794
-0.14273249695467746 -0.035014264532259996 -0.034615657313333804
-0.13002875184436913 -0.05991694386351121 -0.04795092982141821
-0.11206926718844337 -0.08330845722918549 -0.057419408259093994
-0.08969380852887783 -0.10409504346210374 -0.06257835709807337
-0.0639486274440576 -0.12130474489264595 -0.06318654962440552
-0.03603753998779521 -0.1341328550091294 -0.05921554743151657
-0.007265637588599859 -0.1419795456399276 -0.050851030168494064
0.02102173757501482 -0.14447791425211473 -0.03848411336606369
0.04750189927955761 -0.1415111399061222 -0.022693060309066287
0.07093666459431003 -0.13321794567303577 -0.004216243087952146
0.09023024993902516 -0.11998611209797116 0.016082382859526845
0.10448050870626409 -0.10243434501277163 0.03725367634436895
0.11302111463409578 -0.08138334553895318 0.05830769121342554
0.11545271848153663 -0.05781743501540594 0.07825996513127655
0.11166162115521375 -0.03283852922658267 0.0961775519448829
0.09990969691746186 -0.051237651130112666 0.11934123176326605
0.09007316591485216 -0.026013735948638955 0.13438632502719097
0.07465114649311862 -0.001724253614032328 0.14585543290183348
0.05436475514007803 0.020495046675561693 0.1532122726499732
0.03016256096869398 0.03960521513358023 0.15611284662152713
0.003176231679613495 0.05471268152235313 0.15442152720134195
-0.02533238196275676 0.06511103750428426 0.14821739860573893
-0.05403024886954784 0.07031406751060111 0.1377905589924548
-0.08157548867958647 0.07007848364096085 0.12362855579320682
-0.10668011659369041 0.06441530153527517 0.1063935885376558
-0.12817026811238605 0.05358932529463112 0.08689154513938104
-0.14504108763524717 0.03810676553583278 0.06603431947272134
-0.15650371439195387 0.01869156954557233 0.04479717222870837
-0.16202216869515723 -0.003748429690086119 0.02417312880907832
-0.16133841375496089 -0.028163962747150995 0.005126546562155201
-0.15448442119242933 -0.05341338643579002 -0.011451977494950664
-0.141780676082121 -0.07831606576704124 -0.02478725000303507
-0.12382119142619526 -0.10170757913271551 -0.034255728440710856
-0.10144573276662971 -0.12249416536563376 -0.03941467727969024
-0.07570055168180949 -0.13970386679617597 -0.04002286980602239
-0.04778946422554709 -0.1525319769126594 -0.036051867613133434
-0.01901756182635174 -0.16037866754345764 -0.027687350350110926
0.009269813337262938 -0.16287703615564478 -0.015320433547680546
0.03574997504180573 -0.15991026180965223 0.00047061950931685207
0.059184740356558144 -0.1516170675765658 0.01894743673043099
0.07847832570127328 -0.13838523400150118 0.03924606267790998
0.0927285844685122 -0.12083346691630165 0.06041735616275209
0.1012691903963439 -0.09978246744248322 0.08147137103180868
0.10370079424378474 -0.07621655691893596 0.10142364494965968
0.09990969691746186 -0.051237651130112694 0.11934123176326604
0.08815777267970998 -0.0696367730336427 0.1425049115816492
0.07832124167710028 -0.044412857852168995 0.1575500048455741
0.06289922225536673 -0.020123375517562367 0.1690191127202166
0.04261283090232615 0.0020959247720316538 0.17637595246835633
0.018410636730942093 0.02120609323005019 0.1792765264399103
-0.008575692558138394 0.03631355961882309 0.17758520701972508
-0.03708430620050865 0.046711915600754224 0.17138107842412206
-0.06578217310729972 0.05191494560707107 0.16095423881083792
-0.09332741291733836 0.05167936173743081 0.14679223561158997
-0.11843204083144229 0.046016179631745126 0.12955726835603895
-0.13992219235013795 0.03519020339110108 0.1100552249577642
-0.15679301187299907 0.019707643632302742 0.0891979992911045
-0.16825563862970577 0.00029244764204228944 0.06796085204709153
-0.17377409293290913 -0.022147551593616158 0.04733680862746147
-0.17309033799271278 -0.046563084650681034 0.028290226380538356
-0.16623634543018123 -0.07181250833932006 0.011711702323432488
-0.1535326003198729 -0.09671518767057127 -0.0016235701846519144
-0.13557311566394714 -0.12010670103624554 -0.011092048622327702
-0.1131976570043816 -0.1408932872691638 -0.016250997461307082
-0.08745247591956137 -0.15810298869970602 -0.016859189987639234
-0.059541388463298976 -0.17093109881618945 -0.01288818779475028
-0.030769486064103627 -0.17877778944698766 -0.004523670531727771
-0.0024821109004889512 -0.1812761580591748 0.007843246270702606
0.023998050804053844 -0.17830938371318228 0.023634299327700007
0.04743281611880626 -0.17001618948009584 0.042111116548814144
0.06672640146352139 -0.15678435590503123 0.062409742496293136
0.08097666023076032 -0.1392325888198317 0.08358103598113524
0.08951726615859201 -0.11818158934601325 0.10463505085019184
0.09194887000603286 -0.094615678822466 0.12458732476804284
0.08815777267970998 -0.06963677303364273 0.14250491158164919
0.0764058484419581 -0.08803589493717273 0.16566859140003234
0.0665693174393484 -0.06281197975569902 0.18071368466395726
0.05114729801761485 -0.03852249742109239 0.19218279253859977
0.030860906664574264 -0.016303197131498377 0.1995396322867395
0.006658712493190208 0.0028069713265201604 0.20244020625829343
-0.020327616795890277 0.017914437715293063 0.20074888683810824
-0.04883623043826053 0.028312793697224194 0.19454475824250522
-0.07753409734505161 0.033515823703541045 0.18411791862922108
-0.10507933715509024 0.033280239833900785 0.16995591542997313
-0.1301839650691942 0.027617057728215096 0.1527209481744221
-0.15167411658788985 0.01679108148757105 0.13321890477614734
-0.16854493611075094 0.0013085217287727127 0.11236167910948765
-0.18000756286745767 -0.01810667426148774 0.09112453186547467
-0.18552601717066103 -0.040546673497146184 0.07050048844584463
-0.18484226223046468 -0.06496220655421106 0.0514539061989215
-0.17798826966793313 -0.09021163024285009 0.03487538214181563
-0.16528452455762477 -0.1151143095741013 0.02154010963373123
-0.14732503990169904 -0.1385058229397756 0.012071631196055442
-0.12494958124213348 -0.15929240917269383 0.0069126823570760595
-0.09920440015731326 -0.17650211060323603 0.006304489830743908
-0.07129331270105087 -0.18933022071971947 0.010275492023632864
-0.042521410301855515 -0.1971769113505177 0.018640009286655372
-0.014234035138240834 -0.19967527996270484 0.03100692608908575
0.01224612656630196 -0.1967085056167123 0.04679797914608315
0.035680891881054375 -0.18841531138362586 0.0652747963671973
0.05497447722576951 -0.17518347780856125 0.08557342231467628
0.06922473599300843 -0.1576317107233617 0.10674471579951839
0.07776534192084013 -0.13658071124954327 0.12779873066857497
0.08019694576828097 -0.11301480072599603 0.14775100458642598
0.0764058484419581 -0.08803589493717276 0.16566859140003234
0.052883659069883474 0.08279604856588513 -0.10423655918272415
0.06724915990453254 0.08221384341351984 -0.09741077782524545
0.08161466073918161 0.08163163826115455 -0.09058499646776676
0.09598016157383066 0.08104943310878926 -0.08375921511028807
0.11034566240847973 0.08046722795642397 -0.07693343375280938
0.1247111632431288 0.07988502280405868 -0.07010765239533069
0.13907666407777786 0.07930281765169339 -0.063281871037852
0.15344216491242693 0.0787206124993281 -0.056456089680373314
0.167807665747076 0.07813840734696281 -0.04963030832289462
0.18217316658172505 0.07755620219459752 -0.04280452696541593
0.052883659069883474 0.08279604856588513 -0.10423655918272415
0.06532725942576337 0.08645806868482804 -0.09501461323615461
0.07777085978164326 0.09012008880377095 -0.08579266728958507
0.09021446013752314 0.09378210892271387 -0.07657072134301553
0.10265806049340305 0.0974441290416568 -0.06734877539644599
0.11510166084928293 0.1011061491605997 -0.05812682944987644
0.12754526120516282 0.10476816927954262 -0.04890488350330691
0.13998886156104273 0.10843018939848552 -0.03968293755673736
0.15243246191692264 0.11209220951742845 -0.03046099161016782
0.16487606227280252 0.11575422963637136 -0.02123904566359828
0.052883659069883474 0.08279604856588513 -0.10423655918272415
0.06205690176608113 0.09030545725415205 -0.09361778958360933
0.07123014446227878 0.09781486594241898 -0.08299901998449452
0.08040338715847642 0.1053242746306859 -0.07238025038537971
0.08957662985467407 0.11283368331895283 -0.06176148078626489
0.09874987255087171 0.12034309200721975 -0.051142711187150074
0.10792311524706936 0.12785250069548668 -0.04052394158803526
0.11709635794326702 0.13536190938375361 -0.029905171988920447
0.12626960063946469 0.14287131807202053 -0.019286402389805633
0.1354428433356623 0.15038072676028746 -0.00866763279069082
0.052883659069883474 0.08279604856588513 -0.10423655918272415
0.05779248092273989 0.09333908487162103 -0.09337167438431503
0.06270130277559631 0.10388212117735691 -0.08250678958590592
0.06761012462845273 0.1144251574830928 -0.07164190478749681
0.07251894648130915 0.1249681937888287 -0.06077701998908768
0.07742776833416556 0.1355112300945646 -0.049912135190678567
0.08233659018702197 0.14605426640030048 -0.039047250392269466
0.08724541203987839 0.1565973027060364 -0.028182365593860344
0.09215423389273482 0.16714033901177228 -0.017317480795451222
0.09706305574559121 0.17768337531750816 -0.006452595997042114
0.052883659069883474 0.08279604856588513 -0.10423655918272415
0.05299611306342273 0.09523021091329975 -0.09430293803898603
0.053108567056961986 0.10766437326071436 -0.08436931689524792
0.05322102105050125 0.12009853560812897 -0.07443569575150981
0.0533334750440405 0.1325326979555436 -0.06450207460777169
0.05344592903757976 0.14496686030295822 -0.054568453464033564
0.05355838303111902 0.1574010226503728 -0.04463483232029546
0.053670837024658274 0.16983518499778746 -0.03470121117655734
0.05378329101819753 0.1822693473452021 -0.02476759003281922
0.05389574501173679 0.19470350969261668 -0.014833968889081096
0.052883659069883474 0.08279604856588513 -0.10423655918272415
0.0481875590690021 0.0957739025287284 -0.09631066368059428
0.04349145906812073 0.10875175649157168 -0.08838476817846443
0.038795359067239354 0.12172961045441495 -0.08045887267633456
0.03409925906635798 0.13470746441725823 -0.0725329771742047
0.02940315906547661 0.1476853183801015 -0.06460708167207484
0.02470705906459524 0.16066317234294478 -0.05668118616994498
0.020010959063713862 0.17364102630578804 -0.04875529066781511
0.01531485906283249 0.1866188802686313 -0.040829395165685255
0.010618759061951116 0.1995967342314746 -0.03290349966355539
0.052883659069883474 0.08279604856588513 -0.10423655918272415
0.043887900377176284 0.09491124229513066 -0.09917728308279838
0.034892141684469094 0.1070264360243762 -0.09411800698287263
0.0258963829917619 0.11914162975362173 -0.08905873088294688
0.016900624299054708 0.13125682348286727 -0.08399945478302114
0.007904865606347511 0.1433720172121128 -0.07894017868309539
-0.0010908930863596717 0.15548721094135834 -0.07388090258316964
-0.010086651779066869 0.16760240467060386 -0.06882162648324389
-0.01908241047177406 0.1797175983998494 -0.06376235038331812
-0.028078169164481248 0.19183279212909496 -0.05870307428339238
0.052883659069883474 0.08279604856588513 -0.10423655918272415
0.040563071723283196 0.09273571283436953 -0.10259215355318657
0.02824248437668292 0.10267537710285393 -0.100947747923649
0.015921897030082642 0.11261504137133833 -0.0993033422941114
0.0036013096834823653 0.12255470563982274 -0.09765893666457384
-0.008719277663117912 0.13249436990830715 -0.09601453103503625
-0.02103986500971819 0.14243403417679154 -0.09437012540549868
-0.033360452356318446 0.15237369844527596 -0.09272571977596111
-0.045681039702918744 0.16231336271376035 -0.09108131414642354
-0.058001627049519014 0.17225302698224476 -0.08943690851688596
0.052883659069883474 0.08279604856588513 -0.10423655918272415
0.03857336988200424 0.08948306652033614 -0.10618522088911744
0.024263080694125 0.09617008447478716 -0.10813388259551074
0.00995279150624577 0.10285710242923816 -0.11008254430190405
-0.004357497681633474 0.10954412038368917 -0.11203120600829734
-0.018667786869512717 0.11623113833814018 -0.11397986771469065
-0.032978076057391933 0.12291815629259119 -0.11592852942108395
-0.047288365245271205 0.1296051742470422 -0.11787719112747726
-0.06159865443315042 0.13629219220149322 -0.11982585283387055
-0.07590894362102966 0.14297921015594423 -0.12177451454026386
0.052883659069883474 0.08279604856588513 -0.10423655918272415
0.03813440992124704 0.08550577805116368 -0.10956712049255884
0.023385160772610606 0.08821550753644224 -0.11489768180239354
0.008635911623974174 0.09092523702172078 -0.12022824311222825
-0.0061133375246622615 0.09363496650699933 -0.12555880442206296
-0.02086258667329871 0.09634469599227788 -0.13088936573189766
-0.035611835821935126 0.09905442547755643 -0.13621992704173236
-0.05036108497057157 0.10176415496283499 -0.14155048835156706
-0.065110334119208 0.10447388444811354 -0.14688104966140178
-0.07985958326784447 0.10718361393339208 -0.15221161097123648
0.052883659069883474 0.08279604856588513 -0.10423655918272415
0.039293759963925215 0.0812348483464762 -0.1123713710658988
0.025703860857966956 0.07967364812706726 -0.12050618294907346
0.012113961752008698 0.07811244790765833 -0.12864099483224814
-0.0014759373539495605 0.07655124768824939 -0.1367758067154228
-0.015065836459907833 0.07499004746884047 -0.14491061859859747
-0.028655735565866078 0.07342884724943154 -0.1530454304817721
-0.04224563467182432 0.0718676470300226 -0.16118024236494677
-0.055835533777782595 0.07030644681061367 -0.16931505424812143
-0.06942543288374085 0.06874524659120473 -0.1774498661312961
0.052883659069883474 0.08279604856588513 -0.10423655918272415
0.04192578644374519 0.07713309891007901 -0.11429408854708505
0.030967913817606905 0.07147014925427289 -0.12435161791144596
0.020010041191468618 0.06580719959846677 -0.13440914727580686
0.009052168565330337 0.06014424994266066 -0.14446667664016777
-0.0019057040608079568 0.05448130028685454 -0.15452420600452868
-0.012863576686946238 0.048818350631048425 -0.1645817353688896
-0.023821449313084525 0.043155400975242314 -0.17463926473325048
-0.0347793219392228 0.037492451319436196 -0.1846967940976114
-0.0457371945653611 0.03182950166363008 -0.1947543234619723
0.052883659069883474 0.08279604856588513 -0.10423655918272415
0.045745268451519716 0.07364501793860587 -0.11512691666299542
0.038606877833155966 0.0644939873113266 -0.1260172741432667
0.031468487214792215 0.055342956684047345 -0.13690763162353797
0.02433009659642845 0.04619192605676809 -0.14779798910380926
0.0171917059780647 0.037040895429488824 -0.15868834658408051
0.010053315359700957 0.027889864802209566 -0.1695787040643518
0.0029149247413371997 0.018738834174930306 -0.18046906154462308
-0.004223465877026572 0.009587803547651059 -0.19135941902489434
-0.011361856495390316 0.0004367729203717838 -0.20224977650516562
0.052883659069883474 0.08279604856588513 -0.10423655918272415
0.05033830584633678 0.07114859312846865 -0.11477960556461134
0.047792952622790076 0.059501137691052156 -0.12532265194649855
0.04524759939924338 0.04785368225363566 -0.13586569832838574
0.042702246175696686 0.03620622681621918 -0.14640874471027296
0.04015689295214998 0.02455877137880268 -0.15695179109216015
0.037611539728603295 0.012911315941386201 -0.16749483747404734
0.03506618650505659 0.0012638605039697079 -0.17803788385593455
0.0325208332815099 -0.01038359493344677 -0.18858093023782174
0.029975480057963196 -0.022031050370863264 -0.19912397661970896
0.052883659069883474 0.08279604856588513 -0.10423655918272415
0.055207171758149716 0.06991435084386775 -0.11328979179852969
0.05753068444641596 0.057032653121850366 -0.12234302441433523
0.059854197134682194 0.044150955399832985 -0.13139625703014077
0.062177709822948436 0.031269257677815604 -0.1404494896459463
0.06450122251121468 0.01838755995579822 -0.14950272226175185
0.06682473519948091 0.005505862233780846 -0.1585559548775574
0.06914824788774716 -0.007375835488236556 -0.16760918749336293
0.0714717605760134 -0.020257533210253916 -0.17666242010916847
0.07379527326427965 -0.03313923093227132 -0.185715652724974
0.052883659069883474 0.08279604856588513 -0.10423655918272415
0.05982424901717498 0.07007604038758196 -0.11081891980314777
0.06676483896446649 0.05735603220927878 -0.11740128042357141
0.07370542891175799 0.044636024030975614 -0.12398364104399505
0.0806460188590495 0.03191601585267244 -0.13056600166441867
0.08758660880634099 0.019196007674369273 -0.1371483622848423
0.0945271987536325 0.0064759994960661045 -0.14373072290526595
0.10146778870092399 -0.00624400868223705 -0.1503130835256896
0.10840837864821551 -0.018964016860540247 -0.15689544414611323
0.115348968595507 -0.03168402503884342 -0.16347780476653687
0.052883659069883474 0.08279604856588513 -0.10423655918272415
0.06368920566106204 0.07161614018867807 -0.10763474689869452
0.0744947522522406 0.060436231811471015 -0.1110329346146649
0.08530029884341916 0.049256323434263956 -0.11443112233063528
0.09610584543459773 0.038076415057056896 -0.11782931004660567
0.1069113920257763 0.026896506679849833 -0.12122749776257605
0.11771693861695486 0.015716598302642788 -0.12462568547854642
0.12852248520813342 0.004536689925435742 -0.1280238731945168
0.139328031799312 -0.0066432184517713315 -0.1314220609104872
0.15013357839049057 -0.01782312682897839 -0.13482024862645756
0.052883659069883474 0.08279604856588513 -0.10423655918272415
0.06638321366646438 0.0743677565365967 -0.10408232762690067
0.07988276826304529 0.06593946450730828 -0.10392809607107721
0.0933823228596262 0.05751117247801985 -0.10377386451525375
0.1068818774562071 0.04908288044873142 -0.10361963295943029
0.12038143205278802 0.040654588419443 -0.10346540140360683
0.1338809866493689 0.03222629639015458 -0.10331116984778337
0.14738054124594982 0.023798004360866164 -0.10315693829195989
0.16088009584253074 0.01536971233157772 -0.10300270673613644
0.17437965043911166 0.006941420302289298 -0.10284847518031298
0.052883659069883474 0.08279604856588513 -0.10423655918272415
0.06761433546415546 0.07803270910431415 -0.10054662173732946
0.08234501185842746 0.07326936964274315 -0.0968566842919348
0.09707568825269944 0.06850603018117217 -0.09316674684654012
0.11180636464697145 0.06374269071960117 -0.08947680940114544
0.12653704104124344 0.05897935125803019 -0.08578687195575078
0.14126771743551542 0.0542160117964592 -0.08209693451035611
0.15599839382978745 0.04945267233488821 -0.07840699706496143
0.17072907022405942 0.04468933287331722 -0.07471705961956675
0.18545974661833142 0.03992599341174623 -0.07102712217417209
0.052883659069883474 0.08279604856588513 -0.10423655918272415
0.06724915990453254 0.08221384341351984 -0.09741077782524546
0.08161466073918161 0.08163163826115455 -0.09058499646776677
0.09598016157383066 0.08104943310878926 -0.08375921511028808
0.11034566240847973 0.08046722795642396 -0.0769334337528094
0.1247111632431288 0.07988502280405867 -0.0701076523953307
0.13907666407777786 0.07930281765169338 -0.06328187103785202
0.15344216491242693 0.07872061249932809 -0.05645608968037333
0.167807665747076 0.0781384073469628 -0.04963030832289463
0.18217316658172505 0.0775562021945975 -0.04280452696541595
-0.052883659069883474 -0.08279604856588513 0.10423655918272415
-0.03851815823523441 -0.08337825371825042 0.11106234054020284
-0.024152657400585344 -0.0839604588706157 0.11788812189768152
-0.009787156565936289 -0.084542664022981 0.12471390325516021
0.004578344268712786 -0.08512486917534628 0.1315396846126389
0.018943845103361848 -0.08570707432771157 0.1383654659701176
0.033309345938010895 -0.08628927948007686 0.14519124732759628
0.04767484677265997 -0.08687148463244215 0.15201702868507497
0.062040347607309046 -0.08745368978480744 0.15884281004255366
0.0764058484419581 -0.08803589493717273 0.16566859140003234
-0.052883659069883474 -0.08279604856588513 0.10423655918272415
-0.04044005871400358 -0.07913402844694221 0.11345850512929369
-0.027996458358123685 -0.0754720083279993 0.12268045107586323
-0.015552858002243805 -0.07180998820905639 0.13190239702243275
-0.0031092576463638976 -0.06814796809011348 0.1411243429690023
0.009334342709515983 -0.06448594797117056 0.15034628891557184
0.021777943065395863 -0.06082392785222764 0.15956823486214136
0.034221543421275785 -0.057161907733284736 0.16879018080871092
0.04666514377715568 -0.053499887614341816 0.17801212675528047
0.05910874413303556 -0.0498378674953989 0.18723407270185
-0.052883659069883474 -0.08279604856588513 0.10423655918272415
-0.04371041637368583 -0.0752866398776182 0.11485532878183896
-0.034537173677488174 -0.06777723118935128 0.12547409838095377
-0.02536393098129053 -0.06026782250108436 0.1360928679800686
-0.016190688285092875 -0.05275841381281743 0.1467116375791834
-0.007017445588895235 -0.045249005124550504 0.15733040717829821
0.0021557971073024105 -0.037739596436283586 0.16794917677741303
0.011329039803500071 -0.030230187748016658 0.17856794637652784
0.020502282499697724 -0.022720779059749733 0.18918671597564266
0.029675525195895364 -0.015211370371482808 0.19980548557475747
-0.052883659069883474 -0.08279604856588513 0.10423655918272415
-0.047974837217027055 -0.07225301226014924 0.11510144398113326
-0.04306601536417064 -0.06170997595441335 0.12596632877954236
-0.038157193511314226 -0.051166939648677454 0.13683121357795147
-0.0332483716584578 -0.04062390334294156 0.1476960983763606
-0.02833954980560139 -0.03008086703720567 0.15856098317476972
-0.023430727952744975 -0.019537830731469783 0.16942586797317882
-0.01852190609988856 -0.008994794425733883 0.18029075277158793
-0.013613084247032128 0.0015482418800020045 0.19115563756999707
-0.008704262394175738 0.012091278185737905 0.20202052236840617
-0.052883659069883474 -0.08279604856588513 0.10423655918272415
-0.05277120507634422 -0.07036188621847052 0.11417018032646226
-0.05265875108280496 -0.057927723871055894 0.12410380147020038
-0.052546297089265705 -0.045493561523641285 0.13403742261393847
-0.05243384309572645 -0.033059399176226655 0.1439710437576766
-0.05232138910218719 -0.02062523682881204 0.15390466490141472
-0.05220893510864793 -0.008191074481397446 0.16383828604515283
-0.05209648111510867 0.0042430878660171915 0.17377190718889093
-0.05198402712156942 0.016677250213431815 0.18370552833262907
-0.05187157312803016 0.029111412560846425 0.19363914947636718
-0.052883659069883474 -0.08279604856588513 0.10423655918272415
-0.05757975907076485 -0.06981819460304185 0.112162454684854
-0.06227585907164622 -0.056840340640198585 0.12008835018698387
-0.06697195907252759 -0.04386248667735531 0.1280142456891137
-0.07166805907340897 -0.030884632714512045 0.1359401411912436
-0.07636415907429034 -0.01790677875166877 0.14386603669337344
-0.08106025907517171 -0.004928924788825496 0.1517919321955033
-0.08575635907605308 0.00804892917401778 0.15971782769763318
-0.09045245907693446 0.02102678313686104 0.16764372319976303
-0.09514855907781583 0.03400463709970433 0.1755696187018929
-0.052883659069883474 -0.08279604856588513 0.10423655918272415
-0.06187941776259066 -0.07068085483663959 0.1092958352826499
-0.07087517645529785 -0.058565661107394064 0.11435511138257565
-0.07987093514800504 -0.04645046737814853 0.1194143874825014
-0.08886669384071225 -0.03433527364890299 0.12447366358242715
-0.09786245253341944 -0.02222007991965746 0.1295329396823529
-0.10685821122612663 -0.010104886190411933 0.13459221578227865
-0.11585396991883382 0.0020103075388336025 0.1396514918822044
-0.124849728611541 0.014125501268079137 0.14471076798213017
-0.1338454873042482 0.026240694997324687 0.1497700440820559
-0.052883659069883474 -0.08279604856588513 0.10423655918272415
-0.06520424641648376 -0.07285638429740073 0.10588096481226172
-0.07752483376308403 -0.06291672002891632 0.1075253704417993
-0.08984542110968431 -0.05297705576043192 0.10916977607133688
-0.10216600845628458 -0.04303739149194752 0.11081418170087445
-0.11448659580288487 -0.033097727223463116 0.11245858733041203
-0.12680718314948514 -0.023158062954978718 0.1141029929599496
-0.1391277704960854 -0.013218398686494316 0.11574739858948718
-0.1514483578426857 -0.003278734418009913 0.11739180421902476
-0.16376894518928597 0.006660929850474489 0.11903620984856234
-0.052883659069883474 -0.08279604856588513 0.10423655918272415
-0.06719394825776272 -0.07610903061143412 0.10228789747633084
-0.08150423744564195 -0.06942201265698311 0.10033923576993754
-0.09581452663352118 -0.0627349947025321 0.09839057406354423
-0.11012481582140042 -0.05604797674808108 0.09644191235715094
-0.12443510500927966 -0.049360958793630075 0.09449325065075764
-0.1387453941971589 -0.04267394083917907 0.09254458894436433
-0.15305568338503817 -0.03598692288472805 0.09059592723797102
-0.16736597257291738 -0.02929990493027704 0.08864726553157773
-0.18167626176079663 -0.022612886975826033 0.08669860382518443
-0.052883659069883474 -0.08279604856588513 0.10423655918272415
-0.0676329082185199 -0.08008631908060658 0.09890599787288944
-0.08238215736715634 -0.07737658959532803 0.09357543656305474
-0.09713140651579277 -0.07466686011004948 0.08824487525322003
-0.11188065566442922 -0.07195713062477092 0.08291431394338533
-0.12662990481306566 -0.06924740113949238 0.07758375263355063
-0.1413791539617021 -0.06653767165421383 0.07225319132371592
-0.15612840311033852 -0.06382794216893528 0.06692263001388123
-0.17087765225897494 -0.06111821268365673 0.061592068704046515
-0.18562690140761143 -0.05840848319837817 0.056261507394211804
-0.052883659069883474 -0.08279604856588513 0.10423655918272415
-0.06647355817584173 -0.08435724878529406 0.09610174729954948
-0.08006345728179999 -0.085918449004703 0.08796693541637482
-0.09365335638775825 -0.08747964922411193 0.07983212353320016
-0.10724325549371651 -0.08904084944352086 0.07169731165002549
-0.12083315459967478 -0.0906020496629298 0.06356249976685083
-0.13442305370563304 -0.09216324988233873 0.05542768788367617
-0.14801295281159127 -0.09372445010174767 0.047292876000501506
-0.16160285191754956 -0.0952856503211566 0.03915806411732684
-0.17519275102350781 -0.09684685054056553 0.031023252234152178
-0.052883659069883474 -0.08279604856588513 0.10423655918272415
-0.06384153169602176 -0.08845899822169125 0.09417902981836324
-0.07479940432216005 -0.09412194787749736 0.08412150045400234
-0.08575727694829834 -0.09978489753330348 0.07406397108964143
-0.09671514957443661 -0.1054478471891096 0.06400644172528053
-0.10767302220057491 -0.11111079684491572 0.05394891236091961
-0.11863089482671318 -0.11677374650072184 0.0438913829965587
-0.12958876745285147 -0.12243669615652794 0.0338338536321978
-0.14054664007898976 -0.12809964581233407 0.0237763242678369
-0.15150451270512805 -0.13376259546814018 0.013718794903475988
-0.052883659069883474 -0.08279604856588513 0.10423655918272415
-0.06002204968824723 -0.09194707919316439 0.09334620170245286
-0.06716044030661099 -0.10109810982044365 0.08245584422218159
-0.07429883092497473 -0.11024914044772291 0.07156548674191032
-0.0814372215433385 -0.11940017107500217 0.06067512926163904
-0.08857561216170225 -0.12855120170228143 0.04978477178136776
-0.09571400278006599 -0.1377022323295607 0.03889441430109649
-0.10285239339842975 -0.14685326295683995 0.028004056820825206
-0.10999078401679352 -0.1560042935841192 0.017113699340553935
-0.11712917463515726 -0.16515532421139847 0.006223341860282665
-0.052883659069883474 -0.08279604856588513 0.10423655918272415
-0.05542901229343017 -0.09444350400330162 0.09369351280083694
-0.05797436551697687 -0.1060909594407181 0.08315046641894974
-0.060519718740523566 -0.11773841487813459 0.07260742003706254
-0.06306507196407027 -0.12938587031555107 0.06206437365517534
-0.06561042518761696 -0.1410333257529676 0.051521327273288134
-0.06815577841116366 -0.15268078119038406 0.04097828089140094
-0.07070113163471035 -0.16432823662780055 0.030435234509513735
-0.07324648485825705 -0.17597569206521704 0.019892188127626532
-0.07579183808180376 -0.18762314750263354 0.00934914174573933
-0.052883659069883474 -0.08279604856588513 0.10423655918272415
-0.05056014638161723 -0.09567774628790252 0.09518332656691861
-0.048236633693350996 -0.10855944400991989 0.08613009395111307
-0.04591312100508475 -0.12144114173193728 0.07707686133530753
-0.04358960831681851 -0.13432283945395465 0.06802362871950199
-0.04126609562855227 -0.14720453717597204 0.058970396103696435
-0.03894258294028603 -0.16008623489798943 0.04991716348789091
-0.036619070252019784 -0.17296793262000681 0.04086393087208536
-0.03429555756375355 -0.18584963034202417 0.03181069825627982
-0.031972044875487306 -0.1987313280640416 0.02275746564047427
-0.052883659069883474 -0.08279604856588513 0.10423655918272415
-0.04594306912259197 -0.0955160567441883 0.09765419856230051
-0.03900247917530047 -0.10823606492249148 0.09107183794187687
-0.03206188922800896 -0.12095607310079465 0.08448947732145323
-0.025121299280717456 -0.13367608127909783 0.0779071167010296
-0.018180709333425957 -0.14639608945740099 0.07132475608060597
-0.01124011938613445 -0.15911609763570417 0.06474239546018233
-0.004299529438842958 -0.17183610581400732 0.0581600348397587
0.0026410605084485612 -0.1845561139923105 0.051577674219335054
0.009581650455740054 -0.1972761221706137 0.044995313598911416
-0.052883659069883474 -0.08279604856588513 0.10423655918272415
-0.04207811247870491 -0.09397595694309219 0.10083837146675376
-0.031272565887526346 -0.10515586532029925 0.09744018375078338
-0.020467019296347783 -0.1163357736975063 0.094041996034813
-0.009661472705169219 -0.12751568207471337 0.09064380831884261
0.0011440738860093583 -0.13869559045192043 0.08724562060287223
0.011949620477187908 -0.14987549882912748 0.08384743288690186
0.022755167068366472 -0.16105540720633452 0.08044924517093148
0.033560713659545036 -0.1722353155835416 0.07705105745496109
0.04436626025072361 -0.18341522396074866 0.07365286973899073
-0.052883659069883474 -0.08279604856588513 0.10423655918272415
-0.03938410447330257 -0.09122434059517355 0.10439079073854761
-0.02588454987672166 -0.09965263262446199 0.10454502229437107
-0.01238499528014076 -0.10808092465375041 0.10469925385019453
0.0011145593164401527 -0.11650921668303883 0.104853485406018
0.014614113913021073 -0.12493750871232726 0.10500771696184145
0.028113668509601952 -0.1333658007416157 0.10516194851766492
0.04161322310618287 -0.1417940927709041 0.10531618007348839
0.05511277770276378 -0.15022238480019254 0.10547041162931185
0.0686123322993447 -0.15865067682948097 0.10562464318513531
-0.052883659069883474 -0.08279604856588513 0.10423655918272415
-0.03815298267561148 -0.08755938802745612 0.10792649662811882
-0.023422306281339487 -0.0923227274890271 0.11161643407351349
-0.008691629887067509 -0.0970860669505981 0.11530637151890816
0.0060390465072045 -0.10184940641216908 0.11899630896430284
0.02076972290147648 -0.10661274587374008 0.12268624640969751
0.035500399295748455 -0.11137608533531106 0.12637618385509217
0.050231075690020485 -0.11613942479688205 0.13006612130048686
0.06496175208429247 -0.12090276425845303 0.13375605874588153
0.07969242847856446 -0.12566610372002404 0.1374459961912762
-0.052883659069883474 -0.08279604856588513 0.10423655918272415
-0.03851815823523441 -0.08337825371825042 0.11106234054020284
-0.024152657400585344 -0.08396045887061572 0.11788812189768152
-0.009787156565936289 -0.08454266402298101 0.1247139032551602
0.004578344268712786 -0.0851248691753463 0.1315396846126389
0.018943845103361848 -0.08570707432771159 0.1383654659701176
0.033309345938010895 -0.08628927948007688 0.14519124732759628
0.04767484677265997 -0.08687148463244218 0.15201702868507497
0.062040347607309046 -0.08745368978480747 0.15884281004255366
0.0764058484419581 -0.08803589493717276 0.16566859140003234
