# .PCD v0.7 - Point Cloud Data file format
VERSION 0.7
FIELDS x y z
SIZE 4 4 4
TYPE F F F
COUNT 1 1 1
WIDTH 700
HEIGHT 1
VIEWPOINT 0 0 0 1 0 0 0
POINTS 700
DATA ascii
0.05552682833860773 -0.015544634530853516 -0.05460811473294098
0.05725128348566407 -0.0035288971139118925 -0.05492493010585095
0.05635203925666212 0.008575008076763122 -0.05529762590589326
0.05287114331231183 0.02020111588697998 -0.05570877529167957
0.04697135847823305 0.03080580243702368 -0.056139153374890234
0.0389285521361274 0.039893204370076776 -0.05656863615468521
0.02911879697161454 0.04703840487167151 -0.05697714149361709
0.01800078623342731 0.051907302307673285 -0.05734556813605851
0.006094385746901904 0.05427223244536551 -0.05765668886168571
-0.006043674434225436 0.05402261377994076 -0.057895956011154215
-0.017845832106370127 0.05117011820276307 -0.058052181718481206
-0.02876023149393883 0.04584812523670015 -0.058118061043224485
-0.0382765274120525 0.03830548535787472 -0.05809051354137866
-0.04594974844018338 0.02889488402397858 -0.057970827303513196
-0.05142110329122872 0.018056350494252547 -0.05776459872508899
-0.0544347574933278 0.00629668255038176 -0.05748147082522654
-0.054849795925426555 -0.005834250804510547 -0.05713468234984936
-0.05264681185172211 -0.017769220609313668 -0.05674044874263839
-0.04792881435905996 -0.028950160940721212 -0.056317203928907614
-0.0409164117665194 -0.038854263455559195 -0.05588473836574427
-0.0319374962256019 -0.04701842332785315 -0.05546327366223092
-0.021411911847652915 -0.05306089351578658 -0.055072517039479484
-0.00983182325983851 -0.05669913482909498 -0.05473073984287501
0.002261297465819168 -0.057763027147582836 -0.05445392319427267
0.014301989444726703 -0.05620282404886906 -0.05425501073250149
0.025727243302218344 -0.052091478895808285 -0.05414330338319857
0.036002826866175404 -0.0456212336183257 -0.054124024457863504
0.04464826526963809 -0.037094629694435305 -0.05419807541761799
0.051259307421575195 -0.026910361646978527 -0.05436199372188563
0.05552682833860773 -0.01554463453085353 -0.05460811473294098
0.055273486087093905 -0.015179453656231606 -0.04213700225735145
0.056997941234150244 -0.003163716239289985 -0.04245381763026142
0.056098697005148294 0.008940188951385031 -0.042826513430303734
0.052617801060798004 0.020566296761601887 -0.043237662816090046
0.04671801622671922 0.031170983311645587 -0.04366804089930071
0.03867520988461357 0.040258385244698686 -0.044097523679095675
0.028865454720100714 0.04740358574629342 -0.04450602901802756
0.017747443981913483 0.052272483182295194 -0.04487445566046898
0.005841043495388075 0.05463741331998742 -0.04518557638609618
-0.006297016685739265 0.05438779465456267 -0.04542484353556468
-0.018099174357883954 0.05153529907738498 -0.04558106924289168
-0.02901357374545266 0.04621330611132206 -0.04564694856763496
-0.03852986966356633 0.03867066623249663 -0.045619401065789135
-0.04620309069169721 0.029260064898600485 -0.04549971482792367
-0.051674445542742545 0.018421531368874453 -0.04529348624949946
-0.05468809974484163 0.006661863425003667 -0.04501035834963701
-0.05510313817694038 -0.005469069929888639 -0.04466356987425983
-0.05290015410323594 -0.017404039734691762 -0.044269336267048855
-0.04818215661057379 -0.028584980066099306 -0.04384609145331808
-0.04116975401803323 -0.038489082580937285 -0.04341362589015474
-0.03219083847711573 -0.04665324245323124 -0.0429921611866414
-0.021665254099166743 -0.05269571264116467 -0.04260140456388996
-0.010085165511352339 -0.05633395395447307 -0.04225962736728549
0.0020079552143053396 -0.05739784627296093 -0.04198281071868314
0.014048647193212874 -0.05583764317424715 -0.04178389825691196
0.025473901050704517 -0.051726298021186376 -0.041672190907609034
0.03574948461466158 -0.04525605274370379 -0.04165291198227398
0.04439492301812426 -0.036729448819813396 -0.04172696294202846
0.05100596517006137 -0.02654518077235662 -0.0418908812462961
0.055273486087093905 -0.01517945365623162 -0.04213700225735145
0.05502014383558008 -0.014814272781609699 -0.029665889781761923
0.05674459898263642 -0.002798535364668077 -0.02998270515467189
0.05584535475363447 0.009305369826006939 -0.030355400954714205
0.05236445880928418 0.020931477636223796 -0.030766550340500517
0.046464673975205394 0.03153616418626749 -0.03119692842371118
0.038421867633099745 0.04062356611932059 -0.03162641120350615
0.028612112468586883 0.04776876662091532 -0.03203491654243803
0.017494101730399652 0.0526376640569171 -0.03240334318487945
0.005587701243874246 0.055002594194609324 -0.032714463910506655
-0.006550358937253094 0.054752975529184573 -0.03295373105997516
-0.018352516609397785 0.05190047995200688 -0.03310995676730215
-0.02926691599696649 0.04657848698594396 -0.03317583609204543
-0.038783211915080155 0.039035847107118535 -0.0331482885901996
-0.046456432943211036 0.029625245773222394 -0.03302860235233414
-0.05192778779425637 0.018786712243496363 -0.03282237377390993
-0.05494144199635546 0.007027044299625576 -0.03253924587404748
-0.05535648042845421 -0.005103889055266731 -0.0321924573986703
-0.053153496354749766 -0.017038858860069853 -0.03179822379145933
-0.04843549886208762 -0.028219799191477397 -0.031374978977728556
-0.04142309626954706 -0.03812390170631538 -0.030942513414565213
-0.032444180728629556 -0.04628806157860934 -0.030521048711051865
-0.021918596350680573 -0.052330531766542766 -0.030130292088300425
-0.010338507762866168 -0.05596877307985117 -0.029788514891695955
0.0017546129627915108 -0.057032665398339025 -0.02951169824309361
0.013795304941699045 -0.05547246229962525 -0.029312785781322428
0.025220558799190686 -0.051361117146564474 -0.029201078432019505
0.03549614236314775 -0.04489087186908189 -0.029181799506684446
0.044141580766610435 -0.03636426794519149 -0.029255850466438933
0.05075262291854754 -0.026179999897734712 -0.02941976877070657
0.05502014383558008 -0.014814272781609713 -0.02966588978176192
0.054766801584066244 -0.014449091906987791 -0.017194777306172394
0.05649125673112258 -0.002433354490046169 -0.017511592679082363
0.05559201250212063 0.009670550700628847 -0.017884288479124676
0.05211111655777034 0.021296658510845706 -0.018295437864910988
0.04621133172369156 0.0319013450608894 -0.01872581594812165
0.03816852538158591 0.0409887469939425 -0.019155298727916617
0.028358770217073056 0.04813394749553723 -0.019563804066848503
0.017240759478885825 0.053002844931539006 -0.019932230709289924
0.005334358992360418 0.05536777506923123 -0.020243351434917126
-0.006803701188766922 0.05511815640380648 -0.020482618584385628
-0.018605858860911612 0.05226566082662879 -0.020638844291712623
-0.029520258248480317 0.04694366786056587 -0.020704723616455898
-0.03903655416659399 0.039401027981740444 -0.020677176114610077
-0.04670977519472487 0.029990426647844303 -0.020557489876744613
-0.052181130045770206 0.019151893118118272 -0.0203512612983204
-0.05519478424786929 0.007392225174247483 -0.02006813339845795
-0.05560982267996804 -0.004738708180644823 -0.019721344923080773
-0.0534068386062636 -0.016673677985447943 -0.019327111315869797
-0.04868884111360145 -0.027854618316855487 -0.018903866502139027
-0.04167643852106089 -0.037758720831693474 -0.018471400938975684
-0.03269752298014339 -0.04592288070398743 -0.018049936235462336
-0.0221719386021944 -0.05196535089192086 -0.017659179612710896
-0.010591850014379997 -0.05560359220522926 -0.017317402416106426
0.0015012707112776822 -0.056667484523717115 -0.01704058576750408
0.013541962690185216 -0.05510728142500334 -0.0168416733057329
0.02496721654767686 -0.050995936271942564 -0.016729965956429976
0.035242800111633915 -0.04452569099445998 -0.016710687031094917
0.0438882385150966 -0.035999087070569584 -0.016784737990849403
0.05049928066703371 -0.025814819023112803 -0.01694865629511704
0.054766801584066244 -0.014449091906987805 -0.017194777306172394
0.054513459332552416 -0.014083911032365884 -0.004723664830582859
0.056237914479608755 -0.002068173615424261 -0.0050404802034928285
0.055338670250606806 0.010035731575250754 -0.005413176003535142
0.051857774306256516 0.02166183938546761 -0.005824325389321454
0.04595798947217773 0.03226652593551131 -0.006254703472532117
0.03791518313007208 0.04135392786856441 -0.0066841862523270845
0.028105427965559225 0.04849912837015914 -0.00709269159125897
0.016987417227371994 0.053368025806160915 -0.007461118233700391
0.005081016740846589 0.05573295594385314 -0.007772238959327591
-0.007057043440280751 0.05548333727842839 -0.008011506108796093
-0.018859201112425443 0.0526308417012507 -0.008167731816123089
-0.029773600499994148 0.04730884873518778 -0.008233611140866366
-0.03928989641810782 0.03976620885636235 -0.008206063639020543
-0.0469631174462387 0.03035560752246621 -0.008086377401155078
-0.052434472297284034 0.019517073992740178 -0.007880148822730866
-0.05544812649938312 0.007757406048869392 -0.007597020922868417
-0.05586316493148187 -0.004373527306022915 -0.00725023244749124
-0.05366018085777743 -0.016308497110826038 -0.006855998840280264
-0.04894218336511528 -0.02748943744223358 -0.006432754026549492
-0.04192978077257472 -0.037393539957071564 -0.00600028846338615
-0.03295086523165722 -0.04555769982936552 -0.005578823759872804
-0.02242528085370823 -0.05160017001729895 -0.005188067137121364
-0.010845192265893826 -0.05523841133060735 -0.004846289940516894
0.0012479284597638534 -0.056302303649095206 -0.004569473291914549
0.013288620438671387 -0.05474210055038143 -0.004370560830143366
0.02471387429616303 -0.050630755397320655 -0.004258853480840444
0.03498945786012009 -0.04416051011983807 -0.004239574555505384
0.04363489626358277 -0.035633906195947675 -0.004313625515259869
0.05024593841551988 -0.025449638148490897 -0.004477543819527509
0.054513459332552416 -0.014083911032365897 -0.004723664830582859
0.05426011708103859 -0.013718730157743974 0.007747447645006673
0.05598457222809493 -0.0017029927408023528 0.007430632272096704
0.05508532799909298 0.010400912449872663 0.00705793647205439
0.05160443205474269 0.02202702026008952 0.006646787086268078
0.045704647220663905 0.03263170681013322 0.006216409003057415
0.037661840878558256 0.041719108743186316 0.005786926223262448
0.027852085714045398 0.04886430924478105 0.005378420884330563
0.016734074975858167 0.053733206680782825 0.005009994241889142
0.00482767448933276 0.05609813681847505 0.004698873516261941
-0.00731038569179458 0.0558485181530503 0.004459606366793438
-0.01911254336393927 0.05299602257587261 0.004303380659466444
-0.030026942751507975 0.04767402960980969 0.004237501334723167
-0.039543238669621644 0.04013138973098426 0.00426504883656899
-0.047216459697752525 0.030720788397088118 0.004384735074434453
-0.05268781454879786 0.019882254867362087 0.004590963652858666
-0.055701468750896946 0.0081225869234913 0.004874091552721116
-0.0561165071829957 -0.004008346431401007 0.005220880028098293
-0.053913523109291255 -0.015943316236204128 0.005615113635309268
-0.049195525616629106 -0.027124256567611672 0.00603835844904004
-0.04218312302408855 -0.037028359082449655 0.006470824012203382
-0.033204207483171044 -0.04519251895474361 0.006892288715716729
-0.02267862310522206 -0.05123498914267704 0.007283045338468169
-0.011098534517407653 -0.05487323045598544 0.007624822535072638
0.0009945862082500244 -0.0559371227744733 0.007901639183674983
0.01303527818715756 -0.05437691967575952 0.008100551645446166
0.0244605320446492 -0.050265574522698746 0.008212258994749089
0.03473611560860626 -0.04379532924521616 0.008231537920084148
0.043381554012068946 -0.035268725321325765 0.008157486960329663
0.04999259616400605 -0.025084457273868987 0.007993568656062024
0.05426011708103859 -0.013718730157743988 0.007747447645006673
0.05400677482952476 -0.013353549283122067 0.020218560120596196
0.0557312299765811 -0.001337811866180445 0.019901744747686228
0.05483198574757915 0.010766093324494571 0.019529048947643915
0.05135108980322886 0.022392201134711427 0.019117899561857603
0.04545130496915008 0.03299688768475513 0.01868752147864694
0.03740849862704443 0.042084289617808225 0.01825803869885197
0.027598743462531567 0.04922949011940296 0.017849533359920088
0.016480732724344336 0.054098387555404734 0.017481106717478666
0.004574332237818932 0.05646331769309696 0.017169985991851464
-0.007563727943308408 0.05621369902767221 0.016930718842382963
-0.0193658856154531 0.05336120345049452 0.016774493135055968
-0.030280285003021806 0.0480392104844316 0.01670861381031269
-0.03979658092113547 0.04049657060560617 0.016736161312158514
-0.04746980194926635 0.031085969271710024 0.016855847550023978
-0.05294115680031169 0.020247435741983993 0.01706207612844819
-0.05595481100241077 0.008487767798113208 0.017345204028310638
-0.056369849434509525 -0.0036431655567790992 0.017691992503687817
-0.05416686536080508 -0.01557813536158222 0.01808622611089879
-0.04944886786814293 -0.026759075692989766 0.018509470924629564
-0.042436465275602374 -0.036663178207827746 0.018941936487792906
-0.03345754973468487 -0.0448273380801217 0.01936340119130625
-0.02293196535673589 -0.05086980826805513 0.01975415781405769
-0.011351876768921482 -0.05450804958136353 0.02009593501066216
0.0007412439567361958 -0.05557194189985139 0.020372751659264506
0.01278193593564373 -0.05401173880113761 0.02057166412103569
0.02420718979313537 -0.049900393648076836 0.02068337147033861
0.03448277335709243 -0.04343014837059425 0.02070265039567367
0.04312821176055512 -0.034903544446703856 0.020628599435919187
0.049739253912492225 -0.02471927639924708 0.020464681131651546
0.05400677482952476 -0.01335354928312208 0.020218560120596196
0.05375343257801093 -0.01298836840850016 0.03268967259618573
0.05547788772506727 -0.0009726309915585369 0.03237285722327576
0.05457864349606532 0.011131274199116479 0.03200016142323345
0.05109774755171503 0.022757382009333336 0.031589012037447135
0.04519796271763624 0.03336206855937704 0.031158633954236473
0.037155156375530594 0.042449470492430134 0.030729151174441503
0.02734540121101774 0.04959467099402487 0.030320645835509617
0.01622739047283051 0.05446356843002664 0.029952219193068196
0.004320989986305103 0.05682849856771887 0.029641098467440997
-0.007817070194822237 0.05657887990229412 0.029401831317972495
-0.01961922786696693 0.05372638432511643 0.0292456056106455
-0.030533627254535633 0.04840439135905351 0.02917972628590222
-0.040049923172649306 0.04086175148022808 0.029207273787748046
-0.047723144200780186 0.03145115014633194 0.02932696002561351
-0.05319449905182552 0.020612616616605902 0.02953318860403772
-0.05620815325392461 0.008852948672735115 0.02981631650390017
-0.05662319168602336 -0.0032779846821571913 0.030163104979277346
-0.054420207612318916 -0.015212954486960313 0.030557338586488323
-0.04970221011965677 -0.026393894818367857 0.030980583400219096
-0.04268980752711621 -0.036297997333205836 0.031413048963382435
-0.033710891986198706 -0.04446215720549979 0.03183451366689578
-0.023185307608249717 -0.05050462739343322 0.03222527028964722
-0.011605219020435311 -0.05414286870674162 0.03256704748625169
0.0004879017052223671 -0.05520676102522948 0.03284386413485404
0.012528593684129901 -0.0536465579265157 0.033042776596625224
0.023953847541621543 -0.04953521277345493 0.03315448394592815
0.0342294311055786 -0.04306496749597234 0.0331737628712632
0.042874869509041284 -0.03453836357208195 0.03309971191150872
0.04948591166097839 -0.024354095524625172 0.03293579360724108
0.05375343257801093 -0.012988368408500173 0.03268967259618573
0.0535000903264971 -0.012623187533878252 0.04516078507177526
0.05522454547355344 -0.0006074501169366288 0.044843969698865296
0.05432530124455149 0.011496455073738386 0.04447127389882298
0.0508444053002012 0.023122562883955245 0.04406012451303667
0.044944620466122416 0.03372724943399894 0.043629746429826005
0.03690181412401677 0.04281465136705204 0.04320026365003104
0.02709205895950391 0.04995985186864677 0.04279175831109915
0.015974048221316678 0.054828749304648546 0.042423331668657735
0.004067647734791274 0.05719367944234077 0.04211221094303053
-0.008070412446336066 0.05694406077691602 0.04187294379356203
-0.01987257011848076 0.05409156519973833 0.04171671808623503
-0.030786969506049464 0.04876957223367541 0.04165083876149176
-0.04030326542416313 0.041226932354849984 0.04167838626333758
-0.047976486452294013 0.03181633102095384 0.04179807250120304
-0.05344784130333935 0.02097779749122781 0.04200430107962726
-0.056461495505438435 0.009218129547357023 0.042287428979489707
-0.05687653393753719 -0.002912803807535283 0.04263421745486688
-0.05467354986383274 -0.014847773612338406 0.04302845106207786
-0.049955552371170595 -0.026028713943745948 0.04345169587580863
-0.042943149778630035 -0.035932816458583934 0.043884161438971975
-0.03396423423771253 -0.04409697633087789 0.04430562614248532
-0.023438649859763547 -0.05013944651881132 0.04469638276523676
-0.01185856127194914 -0.05377768783211972 0.04503815996184123
0.0002345594537085382 -0.054841580150607576 0.04531497661044358
0.012275251432616072 -0.0532813770518938 0.04551388907221476
0.023700505290107712 -0.049170031898833025 0.04562559642151768
0.03397608885406477 -0.04269978662135044 0.04564487534685274
0.04262152725752746 -0.034173182697460044 0.04557082438709825
0.04923256940946456 -0.023988914650003263 0.045406906082830614
0.0535000903264971 -0.012623187533878266 0.04516078507177526
0.05324674807498327 -0.012258006659256342 0.057631897547364794
0.05497120322203961 -0.0002422692423147209 0.05731508217445482
0.05407195899303766 0.011861635948360295 0.05694238637441251
0.05059106304868737 0.02348774375857715 0.0565312369886262
0.04469127821460859 0.03409243030862085 0.05610085890541554
0.03664847187250294 0.043179832241673946 0.055671376125620564
0.026838716707990082 0.05032503274326868 0.055262870786688685
0.01572070596980285 0.055193930179270455 0.05489444414424726
0.003814305483277445 0.05755886031696268 0.05458332341862006
-0.008323754697849895 0.05730924165153793 0.05434405626915156
-0.020125912369994586 0.05445674607436024 0.054187830561824565
-0.03104031175756329 0.04913475310829732 0.05412195123708129
-0.04055660767567696 0.04159211322947189 0.05414949873892711
-0.04822982870380784 0.03218151189557575 0.054269184976792575
-0.05370118355485318 0.021342978365849717 0.05447541355521679
-0.05671483775695226 0.009583310421978932 0.05475854145507923
-0.057129876189051014 -0.0025476229329133753 0.055105329930456415
-0.05492689211534657 -0.014482592737716496 0.055499563537667385
-0.05020889462268442 -0.025663533069124042 0.05592280835139816
-0.04319649203014386 -0.035567635583962025 0.0563552739145615
-0.03421757648922636 -0.04373179545625598 0.05677673861807485
-0.023691992111277375 -0.04977426564418941 0.05716749524082629
-0.01211190352346297 -0.05341250695749781 0.05750927243743076
-1.878279780529053e-05 -0.05447639927598567 0.0577860890860331
0.012021909181102243 -0.05291619617727189 0.05798500154780429
0.023447163038593885 -0.048804851024211116 0.05809670889710721
0.033722746602550945 -0.04233460574672853 0.05811598782244227
0.04236818500601363 -0.033808001822838135 0.058041936862687785
0.048979227157950736 -0.023623733775381357 0.05787801855842014
0.05324674807498327 -0.012258006659256356 0.057631897547364794
0.0011400401318122295 -0.001643313935798586 -0.05612000614015289
0.007183016599233952 -0.003187905113026911 -0.05595201820601823
0.013225993066655674 -0.004732496290255237 -0.055784030271883576
0.019268969534077394 -0.006277087467483561 -0.05561604233774892
0.02531194600149912 -0.007821678644711888 -0.055448054403614264
0.03135492246892084 -0.009366269821940214 -0.055280066469479604
0.03739789893634256 -0.010910860999168537 -0.05511207853534495
0.04344087540376429 -0.012455452176396865 -0.05494409060121029
0.04948385187118601 -0.01400004335362519 -0.05477610266707564
0.05552682833860773 -0.015544634530853516 -0.05460811473294098
0.0011400401318122295 -0.001643313935798586 -0.05612000614015289
0.007358397403505936 -0.0011422011909931098 -0.05600835805388781
0.013576754675199643 -0.0006410884461876337 -0.05589670996762274
0.019795111946893346 -0.00013997570138215616 -0.05578506188135767
0.026013469218587056 0.0003611370434233187 -0.0556734137950926
0.03223182649028076 0.0008622497882287952 -0.05556176570882753
0.03845018376197446 0.0013633625330342735 -0.05545011762256246
0.04466854103366818 0.0018644752778397475 -0.05533846953629739
0.05088689830536188 0.0023655880226452234 -0.05522682145003232
0.057105255577055584 0.002866700767450699 -0.05511517336376725
0.0011400401318122295 -0.001643313935798586 -0.05612000614015289
0.00685992270963536 0.000849199389575639 -0.056076796704302774
0.01257980528745849 0.0033417127149498642 -0.056033587268452666
0.018299687865281616 0.005834226040324089 -0.05599037783260255
0.02401957044310475 0.008326739365698313 -0.05594716839675244
0.029739453020927877 0.010819252691072537 -0.05590395896090233
0.035459335598751 0.013311766016446763 -0.05586074952505222
0.041179218176574134 0.01580427934182099 -0.0558175400892021
0.04689910075439727 0.018296792667195215 -0.055774330653351994
0.0526189833322204 0.02078930599256944 -0.05573112121750188
0.0011400401318122295 -0.001643313935798586 -0.05612000614015289
0.0057416099853349 0.002570497476010989 -0.05614991776755557
0.010343179838857571 0.006784308887820564 -0.056179829394958254
0.014944749692380242 0.010998120299630139 -0.05620974102236094
0.019546319545902913 0.015211931711439712 -0.056239652649763626
0.024147889399425585 0.019425743123249295 -0.05626956427716631
0.028749459252948254 0.023639554535058865 -0.05629947590456899
0.03335102910647092 0.027853365946868446 -0.05632938753197168
0.037952598959993596 0.03206717735867801 -0.05635929915937436
0.042554168813516265 0.03628098877048759 -0.05638921078677705
0.0011400401318122295 -0.001643313935798586 -0.05612000614015289
0.00412464576669231 0.00383516371195597 -0.05621979744185256
0.007109251401572391 0.009313641359710524 -0.056319588743552244
0.01009385703645247 0.014792119007465075 -0.056419380045251925
0.013078462671332553 0.020270596655219637 -0.056519171346951606
0.016063068306212635 0.025749074302974195 -0.05661896264865129
0.019047673941092712 0.031227551950728738 -0.05671875395035097
0.022032279575972792 0.03670602959848329 -0.05681854525205065
0.025016885210852876 0.04218450724623786 -0.05691833655375033
0.028001490845732956 0.047662984893992406 -0.05701812785545001
0.0011400401318122295 -0.001643313935798586 -0.05612000614015289
0.0021842532165824583 0.0045061518874274275 -0.056278863180188814
0.0032284663013526873 0.01065561771065344 -0.056437720220224745
0.004272679386122916 0.016805083533879453 -0.056596577260260676
0.005316892470893146 0.022954549357105468 -0.05675543430029661
0.006361105555663375 0.02910401518033148 -0.05691429134033254
0.007405318640433604 0.03525348100355749 -0.05707314838036847
0.008449531725203834 0.041402946826783506 -0.0572320054204044
0.009493744809974062 0.04755241265000952 -0.05739086246044033
0.010537957894744293 0.053701878473235536 -0.05754971950047626
0.0011400401318122295 -0.001643313935798586 -0.05612000614015289
0.00013070397610232811 0.004510750022158761 -0.056320714293316226
-0.0008786321796075732 0.010664813980116107 -0.05652142244647957
-0.0018879683353174748 0.016818877938073455 -0.05672213059964291
-0.002897304491027376 0.022972941896030802 -0.05692283875280625
-0.003906640646737278 0.02912700585398815 -0.057123546905969595
-0.004915976802447179 0.035281069811945495 -0.05732425505913293
-0.00592531295815708 0.041435133769902835 -0.057524963212296276
-0.006934649113866981 0.04758919772786019 -0.05772567136545962
-0.007943985269576882 0.053743261685817535 -0.057926379518622964
0.0011400401318122295 -0.001643313935798586 -0.05612000614015289
-0.001813468030442522 0.0038484598369044184 -0.056340815563740515
-0.004766976192697273 0.009340233609607422 -0.05656162498732815
-0.007720484354952026 0.014832007382310426 -0.05678243441091577
-0.010673992517206776 0.020323781155013432 -0.057003243834503406
-0.013627500679461533 0.025815554927716436 -0.05722405325809104
-0.01658100884171628 0.03130732870041944 -0.057444862681678664
-0.01953451700397104 0.03679910247312244 -0.0576656721052663
-0.02248802516622578 0.04229087624582545 -0.05788648152885393
-0.025441533328480544 0.04778265001852845 -0.058107290952441555
0.0011400401318122295 -0.001643313935798586 -0.05612000614015289
-0.003437581599206071 0.002591050749727753 -0.05633698870690786
-0.00801520333022437 0.006825415435254092 -0.056553971273662844
-0.01259282506124267 0.01105978012078043 -0.05677095384041782
-0.01717044679226097 0.015294144806306769 -0.0569879364071728
-0.021748068523279273 0.01952850949183311 -0.05720491897392777
-0.02632569025429757 0.02376287417735945 -0.05742190154068275
-0.030903311985315873 0.027997238862885784 -0.05763888410743773
-0.03548093371633417 0.032231603548412126 -0.05785586667419271
-0.04005855544735247 0.03646596823393847 -0.05807284924094768
0.0011400401318122295 -0.001643313935798586 -0.05612000614015289
-0.0045656388242942434 0.0008747825459366049 -0.056309648422135886
-0.010271317780400717 0.003392879027671796 -0.05649929070411889
-0.01597699673650719 0.005910975509406987 -0.05668893298610189
-0.021682675692613663 0.008429071991142177 -0.056878575268084895
-0.027388354648720137 0.01094716847287737 -0.0570682175500679
-0.03309403360482661 0.013465264954612558 -0.0572578598320509
-0.03879971256093309 0.01598336143634775 -0.057447502114033905
-0.044505391517039555 0.018501457918082942 -0.05763714439601691
-0.05021107047314604 0.02101955439981814 -0.05782678667799991
0.0011400401318122295 -0.001643313935798586 -0.05612000614015289
-0.005075397201757434 -0.0011143604839432225 -0.056261757453507866
-0.011290834535327098 -0.0005854070320878591 -0.05640350876686284
-0.01750627186889676 -5.645358023249648e-05 -0.05654526008021782
-0.023721709202466426 0.0004724998716228678 -0.056687011393572795
-0.02993714653603609 0.0010014533234782303 -0.05682876270692778
-0.03615258386960575 0.001530406775333593 -0.056970514020282755
-0.04236802120317541 0.0020593602271889557 -0.05711226533363773
-0.04858345853674508 0.0025883136790443217 -0.05725401664699271
-0.054798895870314744 0.0031172671308996843 -0.057395767960347684
0.0011400401318122295 -0.001643313935798586 -0.05612000614015289
-0.004911616501681308 -0.0031608238278900396 -0.056198505530579576
-0.010963273135174846 -0.0046783337199814935 -0.05627700492100627
-0.017014929768668387 -0.0061958436120729465 -0.05635550431143296
-0.023066586402161922 -0.0077133535041644 -0.05643400370185966
-0.029118243035655467 -0.009230863396255855 -0.05651250309228635
-0.035169899669149005 -0.010748373288347308 -0.05659100248271304
-0.04122155630264254 -0.01226588318043876 -0.05666950187313973
-0.04727321293613607 -0.013783393072530216 -0.056748001263566425
-0.053324869569629625 -0.015300902964621667 -0.05682650065399312
0.0011400401318122295 -0.001643313935798586 -0.05612000614015289
-0.004092044904238523 -0.005042841428436679 -0.05612674698065502
-0.009324129940289276 -0.00844236892107477 -0.05613348782115715
-0.014556214976340028 -0.011841896413712864 -0.05614022866165928
-0.01978830001239078 -0.015241423906350957 -0.056146969502161415
-0.025020385048441538 -0.018640951398989046 -0.05615371034266355
-0.030252470084492285 -0.02204047889162714 -0.056160451183165684
-0.03548455512054304 -0.025440006384265232 -0.056167192023667815
-0.04071664015659379 -0.028839533876903325 -0.05617393286416995
-0.045948725192644556 -0.03223906136954142 -0.056180673704672085
0.0011400401318122295 -0.001643313935798586 -0.05612000614015289
-0.0027054957089756105 -0.006556467476052006 -0.05605425795606714
-0.00655103154976345 -0.011469621016305427 -0.05598850977198139
-0.010396567390551288 -0.016382774556558847 -0.055922761587895636
-0.01424210323133913 -0.021295928096812265 -0.055857013403809885
-0.018087639072126967 -0.026209081637065687 -0.055791265219724134
-0.021933174912914806 -0.031122235177319105 -0.05572551703563838
-0.025778710753702645 -0.03603538871757253 -0.05565976885155264
-0.029624246594490488 -0.040948542257825946 -0.05559402066746689
-0.033469782435278324 -0.045861695798079374 -0.05552827248338114
0.0011400401318122295 -0.001643313935798586 -0.05612000614015289
-0.0009022230357267874 -0.00753767710214889 -0.05598889376741313
-0.0029444862032658044 -0.013432040268499194 -0.05585778139467338
-0.00498674937080482 -0.019326403434849496 -0.05572666902193363
-0.007029012538343838 -0.0252207666011998 -0.05559555664919388
-0.009071275705882854 -0.031115129767550105 -0.055464444276454125
-0.01111353887342187 -0.037009492933900406 -0.055333331903714374
-0.01315580204096089 -0.042903856100250715 -0.05520221953097462
-0.015198065208499905 -0.048798219266601016 -0.05507110715823487
-0.01724032837603892 -0.05469258243295132 -0.05493999478549512
0.0011400401318122295 -0.001643313935798586 -0.05612000614015289
0.001122360540702961 -0.007880141018703693 -0.05593773763876356
0.0011046809495936923 -0.014116968101608802 -0.05575546913737423
0.001087001358484424 -0.020353795184513905 -0.05557320063598491
0.0010693217673751552 -0.026590622267419015 -0.05539093213459558
0.0010516421762658864 -0.03282744935032412 -0.055208663633206256
0.0010339625851566185 -0.039064276433229225 -0.05502639513181693
0.0010162829940473497 -0.045301103516134325 -0.054844126630427606
0.000998603402938081 -0.051537930599039446 -0.05466185812903828
0.0009809238118288139 -0.057774757681944545 -0.054479589627648956
0.0011400401318122295 -0.001643313935798586 -0.05612000614015289
0.003148859975156519 -0.00754674794648253 -0.05590633313042672
0.005157679818500809 -0.013450181957166475 -0.05569266012070055
0.007166499661845101 -0.019353615967850415 -0.05547898711097438
0.009175319505189388 -0.02525704997853436 -0.055265314101248214
0.01118413934853368 -0.031160483989218307 -0.055051641091522045
0.013192959191877972 -0.037063917999902246 -0.054837968081795876
0.015201779035222256 -0.04296735201058619 -0.05462429507206971
0.017210598878566546 -0.04887078602127014 -0.05441062206234354
0.01921941872191084 -0.054774220031954084 -0.05419694905261737
0.0011400401318122295 -0.001643313935798586 -0.05612000614015289
0.0049576726095322925 -0.006573626197987083 -0.05589808340817206
0.008775305087252355 -0.011503938460175582 -0.05567616067619123
0.012592937564972416 -0.01643425072236408 -0.0554542379442104
0.01641057004269248 -0.021364562984552575 -0.05523231521222957
0.020228202520412544 -0.026294875246741074 -0.05501039248024874
0.024045834998132603 -0.03122518750892957 -0.05478846974826791
0.027863467475852666 -0.036155499771118066 -0.05456654701628708
0.03168109995357273 -0.041085812033306565 -0.05434462428430625
0.03549873243129279 -0.046016124295495064 -0.054122701552325424
0.0011400401318122295 -0.001643313935798586 -0.05612000614015289
0.006352785528275839 -0.005066228614206526 -0.0559138824574135
0.01156553092473945 -0.008489143292614465 -0.05570775877467411
0.016778276321203055 -0.011912057971022405 -0.05550163509193473
0.02199102171766667 -0.015334972649430345 -0.05529551140919534
0.02720376711413028 -0.018757887327838285 -0.055089387726455954
0.03241651251059388 -0.022180802006246222 -0.05488326404371657
0.037629257907057505 -0.025603716684654162 -0.054677140360977185
0.04284200330352111 -0.029026631363062102 -0.054471016678237796
0.04805474869998472 -0.032449546041470045 -0.054264892995498415
0.0011400401318122295 -0.001643313935798586 -0.05612000614015289
0.007183016599233952 -0.003187905113026913 -0.05595201820601823
0.013225993066655674 -0.00473249629025524 -0.055784030271883576
0.019268969534077394 -0.0062770874674835655 -0.05561604233774892
0.02531194600149912 -0.007821678644711894 -0.055448054403614264
0.03135492246892084 -0.009366269821940222 -0.055280066469479604
0.03739789893634256 -0.010910860999168546 -0.05511207853534495
0.04344087540376429 -0.012455452176396875 -0.05494409060121029
0.04948385187118601 -0.014000043353625202 -0.05477610266707564
0.05552682833860773 -0.01554463453085353 -0.05460811473294098
-0.0011400401318122295 0.001643313935798586 0.05612000614015289
0.0049029363356094926 9.872275857026047e-05 0.05628799407428754
0.010945912803031215 -0.001445868418658065 0.056455982008422195
0.016988889270452934 -0.0029904595958863897 0.056623969942556855
0.02303186573787466 -0.004535050773114716 0.05679195787669151
0.029074842205296384 -0.006079641950343042 0.05695994581082617
0.0351178186727181 -0.007624233127571365 0.05712793374496082
0.04116079514013983 -0.009168824304799691 0.05729592167909548
0.04720377160756155 -0.010713415482028017 0.057463909613230134
0.05324674807498327 -0.012258006659256342 0.057631897547364794
-0.0011400401318122295 0.001643313935798586 0.05612000614015289
0.005078317139881477 0.002144426680604062 0.05623165422641796
0.011296674411575183 0.002645539425409538 0.05634330231268303
0.017515031683268886 0.0031466521702150155 0.0564549503989481
0.023733388954962596 0.0036477649150204903 0.05656659848521317
0.029951746226656303 0.004148877659825967 0.05667824657147824
0.03617010349835 0.004649990404631445 0.05678989465774331
0.04238846077004372 0.005151103149436919 0.05690154274400838
0.04860681804173742 0.005652215894242395 0.05701319083027345
0.054825175313431125 0.006153328639047871 0.05712483891653852
-0.0011400401318122295 0.001643313935798586 0.05612000614015289
0.004579842446010901 0.004135827261172811 0.056163215576003
0.010299725023834031 0.006628340586547036 0.056206425011853106
0.016019607601657156 0.00912085391192126 0.05624963444770322
0.021739490179480292 0.011613367237295487 0.05629284388355333
0.027459372757303417 0.01410588056266971 0.056336053319403445
0.03317925533512654 0.016598393888043936 0.056379262755253554
0.038899137912949674 0.01909090721341816 0.05642247219110367
0.044619020490772814 0.021583420538792385 0.05646568162695378
0.05033890306859594 0.02407593386416661 0.05650889106280389
-0.0011400401318122295 0.001643313935798586 0.05612000614015289
0.0034615297217104415 0.0058571253476081605 0.056090094512750203
0.008063099575233112 0.010070936759417736 0.05606018288534752
0.012664669428755783 0.014284748171227312 0.05603027125794483
0.017266239282278453 0.018498559583036884 0.056000359630542146
0.021867809135801126 0.022712370994846465 0.05597044800313946
0.026469378989323795 0.026926182406656035 0.05594053637573678
0.03107094884284646 0.031139993818465616 0.055910624748334095
0.035672518696369136 0.03535380523027518 0.05588071312093141
0.040274088549891805 0.03956761664208476 0.05585080149352872
-0.0011400401318122295 0.001643313935798586 0.05612000614015289
0.0018445655030678513 0.007121791583553141 0.05602021483845321
0.004829171137947932 0.012600269231307698 0.05592042353675353
0.007813776772828011 0.018078746879062246 0.055820632235053846
0.010798382407708093 0.023557224526816807 0.055720840933354165
0.013782988042588176 0.029035702174571364 0.055621049631654484
0.016767593677468252 0.03451417982232591 0.055521258329954803
0.019752199312348333 0.03999265747008046 0.05542146702825512
0.022736804947228417 0.04547113511783503 0.05532167572655544
0.025721410582108497 0.050949612765589576 0.05522188442485576
-0.0011400401318122295 0.001643313935798586 0.05612000614015289
-9.582704704200044e-05 0.007792779759024599 0.05596114910011696
0.0009483860377282286 0.013942245582250613 0.05580229206008103
0.001992599122498458 0.020091711405476623 0.055643435020045096
0.003036812207268687 0.026241177228702638 0.055484577980009164
0.004081025292038916 0.03239064305192865 0.05532572093997323
0.0051252383768091445 0.03854010887515466 0.0551668638999373
0.006169451461579376 0.044689574698380675 0.05500800685990137
0.0072136645463496026 0.05083904052160669 0.054849149819865446
0.008257877631119834 0.056988506344832705 0.054690292779829515
-0.0011400401318122295 0.001643313935798586 0.05612000614015289
-0.002149376287522131 0.007797377893755932 0.055919297986989545
-0.003158712443232032 0.01395144185171328 0.0557185898338262
-0.004168048598941934 0.020105505809670625 0.055517881680662864
-0.005177384754651835 0.02625956976762797 0.05531717352749952
-0.006186720910361737 0.03241363372558532 0.05511646537433618
-0.007196057066071638 0.038567697683542665 0.05491575722117284
-0.00820539322178154 0.044721761641500005 0.054715049068009496
-0.00921472937749144 0.05087582559945736 0.05451434091484615
-0.010224065533201342 0.057029889557414705 0.054313632761682815
-0.0011400401318122295 0.001643313935798586 0.05612000614015289
-0.004093548294066981 0.00713508770850159 0.05589919671656526
-0.0070470564563217325 0.012626861481204595 0.055678387292977624
-0.010000564618576485 0.018118635253907597 0.05545757786939
-0.012954072780831235 0.0236104090266106 0.055236768445802366
-0.015907580943085992 0.029102182799313606 0.05501595902221473
-0.01886108910534074 0.03459395657201661 0.05479514959862711
-0.0218145972675955 0.04008573034471961 0.054574340175039475
-0.02476810542985024 0.04557750411742262 0.05435353075145184
-0.027721613592105003 0.05106927789012562 0.05413272132786422
-0.0011400401318122295 0.001643313935798586 0.05612000614015289
-0.00571766186283053 0.0058776786213249246 0.05590302357339791
-0.01029528359384883 0.010112043306851264 0.05568604100664293
-0.01487290532486713 0.014346407992377604 0.055469058439887954
-0.01945052705588543 0.01858077267790394 0.05525207587313297
-0.024028148786903732 0.022815137363430278 0.055035093306378
-0.02860577051792203 0.02704950204895662 0.054818110739623026
-0.03318339224894033 0.031283866734482954 0.054601128172868045
-0.03776101397995863 0.035518231420009296 0.054384145606113064
-0.04233863571097693 0.03975259610553564 0.05416716303935809
-0.0011400401318122295 0.001643313935798586 0.05612000614015289
-0.006845719087918703 0.004161410417533777 0.055930363858169886
-0.012551398044025176 0.0066795068992689674 0.05574072157618688
-0.018257077000131648 0.00919760338100416 0.05555107929420388
-0.023962755956238122 0.01171569986273935 0.05536143701222088
-0.029668434912344596 0.014233796344474543 0.05517179473023787
-0.03537411386845107 0.01675189282620973 0.05498215244825487
-0.04107979282455755 0.01926998930794492 0.05479251016627187
-0.046785471780664015 0.02178808578968011 0.054602867884288864
-0.0524911507367705 0.02430618227141531 0.05441322560230586
-0.0011400401318122295 0.001643313935798586 0.05612000614015289
-0.007355477465381894 0.002172267387653949 0.055978254826797906
-0.013570914798951558 0.0027012208395093126 0.05583650351344293
-0.01978635213252122 0.003230174291364675 0.05569475220008795
-0.026001789466090885 0.0037591277432200395 0.05555300088673298
-0.03221722679966055 0.004288081195075402 0.055411249573377994
-0.03843266413323021 0.004817034646930765 0.05526949826002302
-0.04464810146679987 0.005345988098786127 0.05512774694666804
-0.05086353880036954 0.005874941550641493 0.054985995633313065
-0.057078976133939203 0.006403895002496856 0.05484424431995809
-0.0011400401318122295 0.001643313935798586 0.05612000614015289
-0.007191696765305768 0.00012580404370713224 0.056041506749726196
-0.013243353398799305 -0.0013917058483843214 0.0559630073592995
-0.019295010032292847 -0.002909215740475775 0.05588450796887281
-0.02534666666578638 -0.004426725632567229 0.055806008578446115
-0.031398323299279926 -0.005944235524658683 0.05572750918801942
-0.037449979932773464 -0.007461745416750136 0.055649009797592734
-0.043501636566267 -0.008979255308841586 0.05557051040716604
-0.04955329319976053 -0.010496765200933043 0.05549201101673935
-0.055604949833254085 -0.012014275093024494 0.05541351162631265
-0.0011400401318122295 0.001643313935798586 0.05612000614015289
-0.006372125167862982 -0.0017562135568395065 0.05611326529965075
-0.011604210203913735 -0.005155741049477599 0.05610652445914862
-0.016836295239964487 -0.00855526854211569 0.05609978361864649
-0.02206838027601524 -0.011954796034753783 0.05609304277814436
-0.027300465312065997 -0.015354323527391875 0.05608630193764222
-0.032532550348116744 -0.01875385102002997 0.05607956109714009
-0.0377646353841675 -0.022153378512668062 0.056072820256637956
-0.04299672042021825 -0.025552906005306155 0.056066079416135825
-0.048228805456269015 -0.028952433497944248 0.05605933857563369
-0.0011400401318122295 0.001643313935798586 0.05612000614015289
-0.004985575972600069 -0.0032698396044548344 0.05618575432423863
-0.008831111813387908 -0.008182993144708254 0.056251502508324384
-0.012676647654175748 -0.013096146684961674 0.056317250692410135
-0.016522183494963587 -0.018009300225215095 0.056382998876495886
-0.020367719335751426 -0.022922453765468517 0.05644874706058164
-0.024213255176539265 -0.027835607305721936 0.05651449524466739
-0.028058791017327105 -0.03274876084597536 0.05658024342875313
-0.031904326858114944 -0.037661914386228776 0.056645991612838884
-0.03574986269890278 -0.042575067926482205 0.056711739796924635
-0.0011400401318122295 0.001643313935798586 0.05612000614015289
-0.003182303299351246 -0.004251049230551718 0.05625111851289264
-0.005224566466890263 -0.010145412396902021 0.05638223088563239
-0.00726682963442928 -0.016039775563252326 0.056513343258372144
-0.009309092801968297 -0.02193413872960263 0.056644455631111895
-0.011351355969507313 -0.027828501895952935 0.05677556800385165
-0.01339361913704633 -0.03372286506230324 0.0569066803765914
-0.01543588230458535 -0.039617228228653545 0.05703779274933115
-0.017478145472124364 -0.045511591395003846 0.0571689051220709
-0.01952040863966338 -0.05140595456135415 0.05730001749481065
-0.0011400401318122295 0.001643313935798586 0.05612000614015289
-0.001157719722921498 -0.004593513147106522 0.056302274641542215
-0.0011753993140307666 -0.010830340230011629 0.05648454314293154
-0.001193078905140035 -0.017067167312916735 0.056666811644320865
-0.0012107584962493037 -0.023303994395821846 0.05684908014571019
-0.0012284380873585725 -0.02954082147872695 0.057031348647099515
-0.0012461176784678404 -0.035777648561632056 0.05721361714848884
-0.0012637972695771092 -0.042014475644537155 0.057395885649878166
-0.001281476860686378 -0.048251302727442276 0.05757815415126749
-0.001299156451795645 -0.054488129810347376 0.057760422652656816
-0.0011400401318122295 0.001643313935798586 0.05612000614015289
0.0008687797115320601 -0.004260120074885358 0.05633367914987905
0.00287759955487635 -0.010163554085569302 0.05654735215960522
0.004886419398220642 -0.016066988096253246 0.05676102516933139
0.006895239241564929 -0.02197042210693719 0.05697469817905756
0.008904059084909221 -0.027873856117621137 0.057188371188783726
0.010912878928253513 -0.033777290128305076 0.057402044198509895
0.012921698771597797 -0.03968072413898902 0.057615717208236064
0.014930518614942087 -0.04558415814967297 0.05782939021796223
0.01693933845828638 -0.051487592160356914 0.0580430632276884
-0.0011400401318122295 0.001643313935798586 0.05612000614015289
0.0026775923459078335 -0.003286998326389912 0.05634192887213371
0.006495224823627896 -0.008217310588578408 0.05656385160411454
0.010312857301347957 -0.013147622850766906 0.05678577433609537
0.014130489779068021 -0.018077935112955405 0.0570076970680762
0.017948122256788084 -0.023008247375143905 0.05722961980005703
0.021765754734508144 -0.0279385596373324 0.05745154253203786
0.025583387212228206 -0.032868871899520896 0.05767346526401869
0.029401019689948273 -0.037799184161709395 0.05789538799599952
0.03321865216766833 -0.042729496423897895 0.05811731072798035
-0.0011400401318122295 0.001643313935798586 0.05612000614015289
0.00407270526465138 -0.0017796007426093537 0.05632612982289227
0.00928545066111499 -0.0052025154210172935 0.05653225350563166
0.014498196057578596 -0.008625430099425232 0.05673837718837104
0.01971094145404221 -0.012048344777833172 0.05694450087111043
0.02492368685050582 -0.015471259456241114 0.05715062455384982
0.030136432246969422 -0.018894174134649052 0.0573567482365892
0.035349177643433045 -0.022317088813056992 0.05756287191932859
0.04056192303989665 -0.025740003491464932 0.057768995602067975
0.04577466843636026 -0.029162918169872872 0.05797511928480736
-0.0011400401318122295 0.001643313935798586 0.05612000614015289
0.0049029363356094926 9.872275857025896e-05 0.05628799407428754
0.010945912803031215 -0.001445868418658068 0.056455982008422195
0.016988889270452934 -0.002990459595886394 0.056623969942556855
0.02303186573787466 -0.004535050773114722 0.05679195787669151
0.02907484220529638 -0.00607964195034305 0.05695994581082617
0.0351178186727181 -0.007624233127571374 0.05712793374496082
0.04116079514013983 -0.009168824304799702 0.05729592167909548
0.04720377160756155 -0.010713415482028029 0.057463909613230134
0.05324674807498327 -0.012258006659256356 0.057631897547364794
