# .PCD v0.7 - Point Cloud Data file format
VERSION 0.7
FIELDS x y z
SIZE 4 4 4
TYPE F F F
COUNT 1 1 1
WIDTH 700
HEIGHT 1
VIEWPOINT 0 0 0 1 0 0 0
POINTS 700
DATA ascii
0.08246602746336873 -0.05756494162894128 -0.11022283492034092
0.09293351581180245 -0.03729711963208359 -0.11061522514652643
0.09880557198489498 -0.015251616369205762 -0.11076230708627162
0.09980762516231417 0.007540744928937106 -0.11065720335154385
0.09589282045118605 0.030014218779933963 -0.11030482847616455
0.08724420976880998 0.05111797052398446 -0.10972165911766993
0.07426619253845354 0.06986521218467219 -0.10893496362711702
0.05756560642177803 0.08537934357800593 -0.1079815270112948
0.03792335226423083 0.09693494116275209 -0.10690593090669048
0.016257880039421368 0.10399167803897211 -0.1057584689917161
-0.006417756850861132 0.10621958903333374 -0.10459279531020357
-0.029043270827787415 0.1035144995038858 -0.10346341546794716
-0.05056071800424904 0.09600289643053422 -0.10242313801115524
-0.06996396646519953 0.08403601402444175 -0.10152060515752205
-0.08634574187776659 0.06817341040668276 -0.10079801834019025
-0.09894005063069429 0.049156803292405946 -0.10028916491564073
-0.10715799684426454 0.02787538809483417 -0.10001783830445544
-0.110615318487122 0.005324260136011668 -0.09999672543741556
-0.10915035504178365 -0.017442114904485505 -0.10022681352871858
-0.10283160657076361 -0.03935920663277222 -0.10069734391493974
-0.09195453072978224 -0.059402196198731695 -0.10138631511817629
-0.07702772749616234 -0.0766338956864426 -0.10226151161070139
-0.05874915759915769 -0.090248569979518 -0.1032820101772356
-0.03797350665198095 -0.09960961203963735 -0.10440009343901047
-0.015672221002444513 -0.10427930994412046 -0.10556348106536571
0.007111916018578076 -0.10403931380895014 -0.10671777434390542
0.029313543486733293 -0.09890084558667042 -0.10780899980382991
0.0498945379769468 -0.08910417434035789 -0.10878613295544312
0.0678925550609888 -0.07510738152927202 -0.10960348413858109
0.08246602746336872 -0.0575649416289413 -0.11022283492034092
0.08365398585900484 -0.057725146010843185 -0.08680750457799782
0.09412147420743856 -0.037457324013985493 -0.08719989480418333
0.09999353038053109 -0.01541182075110767 -0.08734697674392852
0.10099558355795028 0.007380540547035199 -0.08724187300920075
0.09708077884682216 0.029854014398032057 -0.08688949813382145
0.08843216816444609 0.050957766142082556 -0.08630632877532685
0.07545415093408965 0.06970500780277028 -0.08551963328477392
0.05875356481741414 0.08521913919610402 -0.08456619666895171
0.03911131065986694 0.09677473678085018 -0.08349060056434739
0.017445838435057478 0.1038314736570702 -0.08234313864937301
-0.005229798455225021 0.10605938465143183 -0.08117746496786048
-0.027855312432151304 0.1033542951219839 -0.08004808512560406
-0.04937275960861293 0.09584269204863231 -0.07900780766881214
-0.06877600806956342 0.08387580964253984 -0.07810527481517895
-0.08515778348213048 0.06801320602478085 -0.07738268799784716
-0.09775209223505818 0.04899659891050404 -0.07687383457329763
-0.10597003844862843 0.027715183712932263 -0.07660250796211235
-0.10942736009148589 0.005164055754109761 -0.07658139509507246
-0.10796239664614754 -0.017602319286387412 -0.07681148318637548
-0.1016436481751275 -0.03951941101467412 -0.07728201357259665
-0.09076657233414613 -0.0595624005806336 -0.0779709847758332
-0.07583976910052623 -0.07679410006834451 -0.0788461812683583
-0.05756119920352158 -0.0904087743614199 -0.0798666798348925
-0.03678554825634484 -0.09976981642153926 -0.08098476309666737
-0.014484262606808402 -0.10443951432602237 -0.08214815072302262
0.008299874414214188 -0.10419951819085205 -0.08330244400156232
0.030501501882369404 -0.09906104996857233 -0.08439366946148681
0.05108249637258291 -0.0892643787222598 -0.08537080261310002
0.06908051345662491 -0.07526758591117393 -0.086188153796238
0.08365398585900483 -0.057725146010843206 -0.08680750457799782
0.08484194425464095 -0.057885350392745095 -0.06339217423565474
0.09530943260307467 -0.037617528395887403 -0.06378456446184025
0.1011814887761672 -0.015572025133009577 -0.06393164640158544
0.1021835419535864 0.007220336165133291 -0.06382654266685767
0.09826873724245827 0.029693810016130147 -0.06347416779147837
0.0896201265600822 0.050797561760180646 -0.06289099843298376
0.07664210932972576 0.06954480342086837 -0.06210430294243084
0.05994152321305025 0.08505893481420211 -0.061150866326608634
0.04029926905550305 0.09661453239894827 -0.0600752702220043
0.018633796830693588 0.10367126927516829 -0.05892780830702992
-0.00404184005958891 0.10589918026952992 -0.057762134625517395
-0.026667354036515194 0.10319409074008198 -0.05663275478326098
-0.04818480121297682 0.0956824876667304 -0.055592477326469054
-0.06758804967392731 0.08371560526063793 -0.054689944472835865
-0.08396982508649437 0.06785300164287894 -0.053967357655504075
-0.09656413383942207 0.04883639452860213 -0.05345850423095455
-0.10478208005299232 0.027554979331030353 -0.053187177619769266
-0.10823940169584978 0.005003851372207852 -0.05316606475272938
-0.10677443825051143 -0.017762523668289322 -0.05339615284403241
-0.10045568977949139 -0.03967961539657603 -0.053866683230253565
-0.08957861393851002 -0.05972260496253551 -0.054555654433490114
-0.07465181070489012 -0.07695430445024642 -0.05543085092601521
-0.05637324080788547 -0.09056897874332182 -0.05645134949254942
-0.03559758986070873 -0.09993002080344117 -0.057569432754324294
-0.013296304211172292 -0.10459971870792428 -0.05873282038067953
0.009487832809850298 -0.10435972257275396 -0.05988711365921924
0.03168946027800552 -0.09922125435047424 -0.060978339119143736
0.05227045476821902 -0.08942458310416171 -0.061955472270756935
0.07026847185226102 -0.07542779029307584 -0.06277282345389491
0.08484194425464094 -0.057885350392745116 -0.06339217423565474
0.08602990265027706 -0.058045554774647 -0.03997684389331165
0.09649739099871078 -0.03777773277778931 -0.040369234119497166
0.10236944717180331 -0.015732229514911485 -0.040516316059242365
0.1033715003492225 0.007060131783231383 -0.040411212324514584
0.09945669563809438 0.02953360563422824 -0.04005883744913529
0.09080808495571831 0.05063735737827874 -0.039475668090640674
0.07783006772536187 0.06938459903896646 -0.03868897260008776
0.06112948160868636 0.0848987304323002 -0.03773553598426555
0.04148722745113916 0.09645432801704636 -0.036659939879661214
0.0198217552263297 0.10351106489326638 -0.035512477964686845
-0.0028538816639527994 0.10573897588762801 -0.03434680428317431
-0.02547939564087908 0.10303388635818007 -0.033217424440917895
-0.04699684281734071 0.0955222832848285 -0.03217714698412598
-0.0664000912782912 0.08355540087873602 -0.03127461413049278
-0.08278186669085826 0.06769279726097703 -0.030552027313160996
-0.09537617544378596 0.04867619014670023 -0.030043173888611472
-0.10359412165735621 0.027394774949128446 -0.029771847277426187
-0.10705144330021367 0.004843646990305945 -0.0297507344103863
-0.10558647985487532 -0.01792272805019123 -0.029980822501689323
-0.09926773138385528 -0.03983981977847793 -0.030451352887910482
-0.08839065554287391 -0.05988280934443741 -0.03114032409114703
-0.07346385230925401 -0.07711450883214833 -0.03201552058367213
-0.05518528241224936 -0.09072918312522373 -0.03303601915020634
-0.03440963146507262 -0.10009022518534308 -0.03415410241198121
-0.012108345815536182 -0.10475992308982619 -0.035317490038336445
0.010675791205486408 -0.10451992695465587 -0.03647178331687616
0.03287741867364163 -0.09938145873237615 -0.037563008776800653
0.05345841316385513 -0.08958478748606362 -0.03854014192841386
0.07145643024789713 -0.07558799467497775 -0.03935749311155184
0.08602990265027705 -0.05804555477464702 -0.03997684389331165
0.08721786104591317 -0.05820575915654891 -0.016561513550968562
0.0976853493943469 -0.03793793715969122 -0.016953903777154077
0.10355740556743942 -0.015892433896813392 -0.01710098571689927
0.10455945874485861 0.006899927401329476 -0.01699588198217149
0.10064465403373049 0.029373401252326334 -0.0166435071067922
0.09199604335135442 0.05047715299637683 -0.016060337748297585
0.07901802612099798 0.06922439465706455 -0.015273642257744666
0.06231744000432247 0.08473852605039829 -0.014320205641922462
0.04267518584677527 0.09629412363514445 -0.013244609537318127
0.02100971362196581 0.10335086051136447 -0.01209714762234375
-0.0016659232683166885 0.1055787715057261 -0.010931473940831219
-0.02429143724524297 0.10287368197627816 -0.009802094098574805
-0.0458088844217046 0.09536207890292658 -0.008761816641782884
-0.0652121328826551 0.0833951964968341 -0.007859283788149695
-0.08159390829522215 0.06753259287907512 -0.007136696970817905
-0.09418821704814985 0.04851598576479832 -0.00662784354626838
-0.1024061632617201 0.02723457056722654 -0.006356516935083095
-0.10586348490457756 0.0046834426084040376 -0.006335404068043207
-0.10439852145923921 -0.018082932432093135 -0.006565492159346233
-0.09807977298821917 -0.04000002416037984 -0.00703602254556739
-0.0872026971472378 -0.06004301372633932 -0.007724993748803941
-0.0722758939136179 -0.07727471321405024 -0.008600190241329039
-0.05399732401661325 -0.09088938750712564 -0.009620688807863247
-0.03322167306943651 -0.10025042956724499 -0.01073877206963812
-0.01092038741990007 -0.1049201274717281 -0.011902159695993357
0.01186374960112252 -0.10468013133655778 -0.013056452974533065
0.03406537706927774 -0.09954166311427806 -0.014147678434457562
0.05464637155949124 -0.08974499186796553 -0.015124811586070765
0.07264438864353324 -0.07574819905687966 -0.015942162769208748
0.08721786104591316 -0.05820575915654893 -0.016561513550968562
0.0884058194415493 -0.05836596353845082 0.006853816791374529
0.09887330778998302 -0.03809814154159313 0.006461426565189015
0.10474536396307554 -0.016052638278715302 0.006314344625443822
0.10574741714049474 0.006739723019427568 0.006419448360171602
0.10183261242936661 0.029213196870424424 0.006771823235550894
0.09318400174699054 0.05031694861447492 0.007354992594045508
0.0802059845166341 0.06906419027516265 0.008141688084598427
0.06350539839995858 0.0845783216684964 0.00909512470042063
0.04386314424241138 0.09613391925324255 0.010170720805024966
0.02219767201760192 0.10319065612946257 0.011318182719999341
-0.0004779648726805775 0.1054185671238242 0.012483856401511874
-0.02310347884960686 0.10271347759437627 0.013613236243768286
-0.04462092602606849 0.09520187452102469 0.014653513700560207
-0.06402417448701897 0.08323499211493221 0.015556046554193398
-0.08040594989958602 0.06737238849717322 0.016278633371525186
-0.09300025865251373 0.04835578138289641 0.016787486796074714
-0.10121820486608397 0.02707436618532463 0.01705881340726
-0.10467552650894144 0.004523238226502129 0.017079926274299887
-0.10321056306360309 -0.018243136813995045 0.01684983818299686
-0.09689181459258304 -0.04016022854228175 0.016379307796775704
-0.08601473875160168 -0.06020321810824123 0.01569033659353915
-0.07108793551798177 -0.07743491759595214 0.014815140101014054
-0.05280936562097714 -0.09104959188902753 0.013794641534479846
-0.0320337146738004 -0.10041063394914689 0.012676558272704972
-0.00973242902426396 -0.10508033185363 0.011513170646349736
0.01305170799675863 -0.10484033571845967 0.010358877367810026
0.03525333546491385 -0.09970186749617996 0.00926765190788553
0.05583432995512735 -0.08990519624986743 0.008290518756272326
0.07383234703916937 -0.07590840343878155 0.007473167573134346
0.08840581944154928 -0.05836596353845084 0.00685381679137453
0.0895937778371854 -0.05852616792035272 0.030269147133717606
0.10006126618561913 -0.03825834592349503 0.029876756907532092
0.10593332235871165 -0.01621284266061721 0.0297296749677869
0.10693537553613085 0.00657951863752566 0.029834778702514678
0.10302057082500272 0.029052992488522517 0.03018715357789397
0.09437196014262665 0.05015674423257302 0.030770322936388584
0.08139394291227021 0.06890398589326074 0.0315570184269415
0.0646933567955947 0.08441811728659449 0.03251045504276371
0.04505110263804749 0.09597371487134064 0.03358605114736804
0.02338563041323803 0.10303045174756066 0.03473351306234242
0.0007099935229555327 0.1052583627419223 0.03589918674385495
-0.02191552045397075 0.10255327321247436 0.03702856658611136
-0.04343296763043238 0.09504167013912278 0.03806884404290328
-0.06283621609138286 0.0830747877330303 0.03897137689653647
-0.07921799150394991 0.06721218411527131 0.03969396371386826
-0.09181230025687762 0.048195577000994506 0.04020281713841779
-0.10003024647044786 0.026914161803422723 0.04047414374960308
-0.10348756811330533 0.004363033844600222 0.040495256616642966
-0.10202260466796698 -0.01840334119589695 0.040265168525339935
-0.09570385619694693 -0.040320432924183656 0.03979463813911878
-0.08482678035596557 -0.060363422490143134 0.03910566693588223
-0.06989997712234566 -0.07759512197785405 0.03823047044335713
-0.05162140722534103 -0.09120979627092944 0.03720997187682292
-0.030845756278164292 -0.1005708383310488 0.03609188861504805
-0.00854447062862785 -0.10524053623553191 0.03492850098869281
0.01423966639239474 -0.10500054010036158 0.033774207710153104
0.03644129386054996 -0.09986207187808187 0.03268298225022861
0.05702228835076346 -0.09006540063176934 0.0317058490986154
0.07502030543480548 -0.07606860782068346 0.030888497915477424
0.08959377783718539 -0.05852616792035274 0.030269147133717606
0.09078173623282151 -0.05868637230225463 0.05368447747606069
0.10124922458125524 -0.03841855030539694 0.05329208724987518
0.10712128075434776 -0.016373047042519115 0.053145005310129986
0.10812333393176696 0.006419314255623753 0.05325010904485777
0.10420852922063883 0.02889278810662061 0.05360248392023706
0.09555991853826276 0.04999653985067111 0.05418565327873168
0.08258190130790632 0.06874378151135883 0.05497234876928459
0.0658813151912308 0.08425791290469258 0.0559257853851068
0.0462390610336836 0.09581351048943873 0.05700138148971113
0.02457358880887414 0.10287024736565875 0.058148843404685506
0.0018979519185916437 0.10509815836002039 0.05931451708619804
-0.02072756205833464 0.10239306883057245 0.06044389692845445
-0.04224500923479627 0.09488146575722087 0.06148417438524637
-0.06164825769574676 0.08291458335112839 0.06238670723887956
-0.0780300331083138 0.0670519797333694 0.06310929405621135
-0.0906243418612415 0.048035372619092596 0.06361814748076088
-0.09884228807481175 0.026753957421520817 0.06388947409194616
-0.10229960971766922 0.0042028294626983145 0.06391058695898605
-0.10083464627233087 -0.018563545577798858 0.06368049886768302
-0.09451589780131082 -0.040480637306085566 0.06320996848146186
-0.08363882196032946 -0.060523626872045044 0.06252099727822531
-0.06871201872670955 -0.07775532635975596 0.06164580078570022
-0.05043344882970492 -0.09137000065283135 0.06062530221916601
-0.029657797882528182 -0.1007310427129507 0.05950721895739114
-0.007356512232991738 -0.10540074061743382 0.0583438313310359
0.015427624788030852 -0.1051607444822635 0.05718953805249619
0.03762925225618607 -0.10002227625998378 0.0560983125925717
0.05821024674639957 -0.09022560501367125 0.05512117944095849
0.07620826383044159 -0.07622881220258537 0.05430382825782051
0.0907817362328215 -0.05868637230225465 0.05368447747606069
0.09196969462845762 -0.05884657668415654 0.07709980781840378
0.10243718297689135 -0.03857875468729885 0.07670741759221827
0.10830923914998387 -0.016533251424421025 0.07656033565247308
0.10931129232740307 0.0062591098737218446 0.07666543938720086
0.10539648761627494 0.0287325837247187 0.07701781426258014
0.09674787693389887 0.0498363354687692 0.07760098362107476
0.08376985970354243 0.06858357712945692 0.07838767911162768
0.06706927358686691 0.08409770852279067 0.07934111572744988
0.04742701942931971 0.09565330610753682 0.08041671183205422
0.025761547204510255 0.10271004298375684 0.0815641737470286
0.0030859103142277544 0.10493795397811848 0.08272984742854113
-0.019539603662698527 0.10223286444867054 0.08385922727079755
-0.04105705083916016 0.09472126137531896 0.08489950472758946
-0.06046029930011065 0.08275437896922648 0.08580203758122265
-0.07684207471267769 0.0668917753514675 0.08652462439855445
-0.0894363834656054 0.047875168237190686 0.08703347782310397
-0.09765432967917564 0.026593753039618907 0.08730480443428926
-0.1011116513220331 0.004042625080796406 0.08732591730132915
-0.09964668787669476 -0.018723749959700768 0.08709582921002612
-0.09332793940567471 -0.040640841687987476 0.08662529882380496
-0.08245086356469335 -0.060683831253946954 0.08593632762056841
-0.06752406033107344 -0.07791553074165787 0.08506113112804331
-0.04924549043406881 -0.09153020503473326 0.08404063256150911
-0.02846983948689207 -0.10089124709485262 0.08292254929973422
-0.006168553837355627 -0.10556094499933573 0.08175916167337899
0.016615583183666963 -0.1053209488641654 0.08060486839483928
0.03881721065182218 -0.10018248064188569 0.07951364293491478
0.05939820514203568 -0.09038580939557316 0.07853650978330158
0.0773962222260777 -0.07638901658448728 0.0777191586001636
0.09196969462845761 -0.05884657668415656 0.07709980781840378
0.09315765302409373 -0.059006781066058445 0.10051513816074688
0.10362514137252746 -0.03873895906920075 0.10012274793456137
0.10949719754561998 -0.01669345580632293 0.09997566599481618
0.11049925072303918 0.006098905491819937 0.10008076972954395
0.10658444601191105 0.028572379342816794 0.10043314460492324
0.09793583532953498 0.049676131086867296 0.10101631396341786
0.08495781809917854 0.06842337274755501 0.10180300945397078
0.06825723198250302 0.08393750414088876 0.10275644606979298
0.04861497782495582 0.09549310172563491 0.10383204217439732
0.026949505600146365 0.10254983860185493 0.10497950408937169
0.004273868709863866 0.10477774959621657 0.10614517777088422
-0.018351645267062417 0.10207266006676863 0.10727455761314064
-0.03986909244352405 0.09456105699341705 0.10831483506993256
-0.05927234090447454 0.08259417458732457 0.10921736792356575
-0.07565411631704158 0.06673157096956558 0.10993995474089754
-0.08824842506996929 0.04771496385528878 0.11044880816544707
-0.09646637128353953 0.026433548657717 0.11072013477663235
-0.099923692926397 0.003882420698894499 0.11074124764367224
-0.09845872948105865 -0.018883954341602675 0.1105111595523692
-0.0921399810100386 -0.04080104606988938 0.11004062916614805
-0.08126290516905724 -0.06084403563584886 0.1093516579629115
-0.06633610193543733 -0.07807573512355978 0.1084764614703864
-0.0480575320384327 -0.09169040941663517 0.10745596290385219
-0.02728188109125596 -0.10105145147675453 0.10633787964207732
-0.004980595441719516 -0.10572114938123764 0.10517449201572208
0.017803541579303073 -0.10548115324606731 0.10402019873718238
0.04000516904745829 -0.1003426850237876 0.10292897327725788
0.06058616353767179 -0.09054601377747507 0.10195184012564468
0.07858418062171381 -0.07654922096638919 0.10113448894250669
0.09315765302409372 -0.059006781066058465 0.10051513816074688
-0.005345812780362499 0.0007209197185585845 -0.1053689865405439
0.00441105835782986 -0.005755287097830289 -0.10590830302718801
0.014167929496022219 -0.012231493914219163 -0.10644761951383212
0.023924800634214576 -0.018707700730608037 -0.10698693600047623
0.03368167177240694 -0.02518390754699691 -0.10752625248712035
0.0434385429105993 -0.03166011436338579 -0.10806556897376446
0.053195414048791655 -0.03813632117977466 -0.10860488546040857
0.06295228518698401 -0.04461252799616353 -0.10914420194705268
0.07270915632517637 -0.05108873481255241 -0.10968351843369681
0.08246602746336873 -0.05756494162894128 -0.11022283492034092
-0.005345812780362499 0.0007209197185585845 -0.1053689865405439
0.0059836715311503 -0.002231607953994928 -0.10596397980663184
0.0173131558426631 -0.00518413562654844 -0.10655897307271979
0.028642640154175895 -0.008136663299101952 -0.10715396633880774
0.0399721244656887 -0.011089190971655465 -0.1077489596048957
0.0513016087772015 -0.01404171864420898 -0.10834395287098364
0.06263109308871428 -0.01699424631676249 -0.10893894613707159
0.07396057740022709 -0.01994677398931601 -0.10953393940315953
0.08529006171173989 -0.022899301661869514 -0.11012893266924748
0.09661954602325268 -0.025851829334423027 -0.11072392593533543
-0.005345812780362499 0.0007209197185585845 -0.1053689865405439
0.006328559284256442 0.0016120233763487427 -0.1059551798334233
0.018002931348875383 0.002503127034138901 -0.10654137312630269
0.02967730341349432 0.0033942306919290625 -0.10712756641918209
0.04135167547811327 0.004285334349719217 -0.10771375971206149
0.053026047542732206 0.00517643800750937 -0.10829995300494089
0.06470041960735114 0.00606754166529954 -0.10888614629782027
0.07637479167197009 0.00695864532308969 -0.10947233959069967
0.08804916373658903 0.00784974898087985 -0.11005853288357907
0.09972353580120796 0.00874085263867001 -0.11064472617645847
-0.005345812780362499 0.0007209197185585845 -0.1053689865405439
0.005408347677614365 0.005359089798472963 -0.10588285672120516
0.016162508135591228 0.009997259878387342 -0.10639672690186641
0.026916668593568092 0.01463542995830172 -0.10691059708252768
0.03767082905154496 0.0192736000382161 -0.10742446726318894
0.04842498950952182 0.023911770118130476 -0.10793833744385019
0.059179149967498686 0.028549940198044854 -0.10845220762451145
0.06993331042547554 0.033188110277959225 -0.1089660778051727
0.0806874708834524 0.03782628035787361 -0.10947994798583396
0.09144163134142927 0.042464450437787994 -0.10999381816649523
-0.005345812780362499 0.0007209197185585845 -0.1053689865405439
0.0033227559173579797 0.008603538523814487 -0.10575484780139498
0.011991324615078458 0.01648615732907039 -0.10614070906224606
0.020659893312798935 0.02436877613432629 -0.10652657032309713
0.029328462010519415 0.03225139493958219 -0.10691243158394821
0.0379970307082399 0.0401340137448381 -0.1072982928447993
0.04666559940596037 0.048016632550093995 -0.10768415410565038
0.05533416810368085 0.055899251355349906 -0.10807001536650146
0.06400273680140132 0.06378187016060581 -0.10845587662735254
0.07267130549912179 0.07166448896586171 -0.10884173788820362
-0.005345812780362499 0.0007209197185585845 -0.1053689865405439
0.00029779023200153174 0.010993783190173587 -0.10558502482671724
0.005941393244365562 0.02126664666178859 -0.10580106311289057
0.011584996256729586 0.03153951013340359 -0.10601710139906391
0.017228599269093623 0.04181237360501859 -0.10623313968523725
0.022872202281457647 0.05208523707663359 -0.10644917797141058
0.02851580529382167 0.06235810054824859 -0.10666521625758392
0.03415940830618571 0.0726309640198636 -0.10688125454375726
0.03980301131854975 0.08290382749147861 -0.1070972928299306
0.04544661433091377 0.09317669096309361 -0.10731333111610393
-0.005345812780362499 0.0007209197185585845 -0.1053689865405439
-0.003338747409267897 0.012270803699482899 -0.10539179075155321
-0.001331682038173295 0.023820687680407213 -0.10541459496256253
0.0006753833329213067 0.035370571661331514 -0.10543739917357184
0.0026824487040159085 0.04692045564225584 -0.10546020338458116
0.004689514075110514 0.05847033962318015 -0.10548300759559047
0.006696579446205112 0.07002022360410445 -0.10550581180659979
0.008703644817299717 0.08157010758502878 -0.1055286160176091
0.010710710188394316 0.0931199915659531 -0.10555142022861842
0.012717775559488918 0.1046698755468774 -0.10557422443962773
-0.005345812780362499 0.0007209197185585845 -0.1053689865405439
-0.007192781726323415 0.012296215064543942 -0.10519608548628254
-0.009039750672284332 0.0238715104105293 -0.10502318443202119
-0.010886719618245246 0.03544680575651465 -0.10485028337775983
-0.012733688564206164 0.04702210110250001 -0.10467738232349846
-0.014580657510167079 0.05859739644848536 -0.10450448126923712
-0.016427626456127994 0.07017269179447072 -0.10433158021497575
-0.018274595402088912 0.08174798714045609 -0.1041586791607144
-0.02012156434804983 0.09332328248644145 -0.10398577810645304
-0.02196853329401074 0.1048985778324268 -0.10381287705219168
-0.005345812780362499 0.0007209197185585845 -0.1053689865405439
-0.010846668299408066 0.011067263569654399 -0.10501911673307736
-0.016347523818453634 0.021413607420750214 -0.10466924692561083
-0.0218483793374992 0.03175995127184602 -0.1043193771181443
-0.027349234856544773 0.04210629512294184 -0.10396950731067776
-0.032850090375590335 0.05245263897403765 -0.10361963750321124
-0.0383509458946359 0.06279898282513346 -0.10326976769574471
-0.04385180141368148 0.07314532667622928 -0.10291989788827817
-0.04935265693272704 0.0834916705273251 -0.10257002808081164
-0.054853512451772606 0.09383801437842092 -0.1022201582733451
-0.005345812780362499 0.0007209197185585845 -0.1053689865405439
-0.013904451822436366 0.008717125178432757 -0.1048800618023006
-0.022463090864510232 0.01671333063830693 -0.1043911370640573
-0.031021729906584097 0.024709536098181103 -0.10390221232581401
-0.03958036894865796 0.03270574155805527 -0.1034132875875707
-0.04813900799073183 0.04070194701792945 -0.1029243628493274
-0.05669764703280569 0.04869815247780362 -0.1024354381110841
-0.06525628607487957 0.0566943579376778 -0.1019465133728408
-0.07381492511695344 0.06469056339755197 -0.10145758863459751
-0.08237356415902732 0.07268676885742616 -0.10096866389635421
-0.005345812780362499 0.0007209197185585845 -0.1053689865405439
-0.016034774004288266 0.005500473851722263 -0.10479398945336146
-0.026723735228214036 0.01028002798488594 -0.10421899236617904
-0.0374126964521398 0.01505958211804962 -0.1036439952789966
-0.04810165767606557 0.019839136251213297 -0.10306899819181417
-0.058790618899991334 0.024618690384376973 -0.10249400110463175
-0.06947958012391711 0.029398244517540657 -0.10191900401744931
-0.08016854134784286 0.034177798650704326 -0.10134400693026689
-0.09085750257176865 0.038957352783868006 -0.10076900984308446
-0.1015464637956944 0.043736906917031686 -0.10019401275590202
-0.005345812780362499 0.0007209197185585845 -0.1053689865405439
-0.01700678138120565 0.001765883672259886 -0.10477022696081763
-0.0286677499820488 0.0028108476259611874 -0.10417146738109136
-0.04032871858289195 0.003855811579662489 -0.10357270780136509
-0.051989687183735096 0.00490077553336379 -0.1029739482216388
-0.06365065578457825 0.005945739487065088 -0.10237518864191253
-0.07531162438542141 0.006990703440766393 -0.10177642906218626
-0.08697259298626456 0.008035667394467687 -0.10117766948245999
-0.0986335615871077 0.009080631348168996 -0.10057890990273372
-0.11029453018795085 0.010125595301870297 -0.09998015032300744
-0.005345812780362499 0.0007209197185585845 -0.1053689865405439
-0.016715141871651087 -0.002081944565872379 -0.10481134935944926
-0.028084470962939676 -0.0048848088503033425 -0.10425371217835462
-0.03945380005422826 -0.007687673134734303 -0.10369607499725998
-0.05082312914551685 -0.01049053741916527 -0.10313843781616534
-0.062192458236805435 -0.01329340170359623 -0.1025808006350707
-0.07356178732809403 -0.01609626598802719 -0.10202316345397607
-0.08493111641938263 -0.018899130272458157 -0.10146552627288143
-0.09630044551067121 -0.021701994556889124 -0.10090788909178679
-0.1076697746019598 -0.024504858841320077 -0.10035025191069215
-0.005345812780362499 0.0007209197185585845 -0.1053689865405439
-0.015191459141738063 -0.005626038967866155 -0.10491290039928487
-0.025037105503113628 -0.011972997654290895 -0.10445681425802585
-0.034882751864489185 -0.01831995634071563 -0.10400072811676682
-0.04472839822586475 -0.024666915027140374 -0.1035446419755078
-0.05457404458724032 -0.031013873713565118 -0.10308855583424878
-0.06441969094861588 -0.03736083239998985 -0.10263246969298975
-0.07426533730999145 -0.0437077910864146 -0.10217638355173073
-0.08411098367136702 -0.05005474977283934 -0.1017202974104717
-0.09395663003274259 -0.05640170845926409 -0.10126421126921267
-0.005345812780362499 0.0007209197185585845 -0.1053689865405439
-0.012600847857626163 -0.008482341912974716 -0.10506387544943155
-0.019855882934889827 -0.017685603544508016 -0.10475876435831918
-0.027110918012153488 -0.02688886517604131 -0.10445365326720683
-0.03436595308941715 -0.03609212680757462 -0.10414854217609448
-0.041620988166680806 -0.045295388439107916 -0.10384343108498213
-0.04887602324394447 -0.05449865007064121 -0.10353831999386977
-0.056131058321208134 -0.06370191170217451 -0.10323320890275742
-0.06338609339847182 -0.07290517333370782 -0.10292809781164507
-0.07064112847573548 -0.08210843496524112 -0.1026229867205327
-0.005345812780362499 0.0007209197185585845 -0.1053689865405439
-0.009224040949424672 -0.01034132865698889 -0.1052479140205866
-0.013102269118486843 -0.021403577032536366 -0.10512684150062931
-0.016980497287549016 -0.03246582540808384 -0.10500576898067203
-0.020858725456611188 -0.04352807378363132 -0.10488469646071473
-0.024736953625673363 -0.0545903221591788 -0.10476362394075744
-0.028615181794735534 -0.06565257053472626 -0.10464255142080015
-0.0324934099637977 -0.07671481891027375 -0.10452147890084286
-0.03637163813285988 -0.08777706728582121 -0.10440040638088556
-0.04024986630192205 -0.0988393156613687 -0.10427933386092827
-0.005345812780362499 0.0007209197185585845 -0.1053689865405439
-0.0054269678421950095 -0.011001549141043395 -0.10544507267791275
-0.00550812290402752 -0.022724018000645375 -0.10552115881528161
-0.0055892779658600275 -0.03444648686024736 -0.10559724495265045
-0.005670433027692542 -0.04616895571984934 -0.1056733310900193
-0.005751588089525056 -0.05789142457945133 -0.10574941722738816
-0.005832743151357556 -0.06961389343905329 -0.10582550336475702
-0.005913898213190074 -0.08133636229865526 -0.10590158950212587
-0.005995053275022585 -0.09305883115825725 -0.10597767563949473
-0.0060762083368550955 -0.10478130001785924 -0.10605376177686358
-0.005345812780362499 0.0007209197185585845 -0.1053689865405439
-0.001621100324765267 -0.010391458231314599 -0.10563398622165691
0.0021036121308319645 -0.021503836181187782 -0.10589898590276994
0.005828324586429198 -0.032616214131060965 -0.10616398558388296
0.009553037042026428 -0.04372859208093415 -0.10642898526499597
0.013277749497623663 -0.05484097003080734 -0.106693984946109
0.017002461953220895 -0.0659533479806805 -0.10695898462722202
0.02072717440881812 -0.07706572593055369 -0.10722398430833503
0.024451886864415354 -0.08817810388042688 -0.10748898398944806
0.0281765993200126 -0.09929048183030006 -0.10775398367056108
-0.005345812780362499 0.0007209197185585845 -0.1053689865405439
0.0017811368032319575 -0.008577168744407452 -0.10579418293805877
0.008908086386826414 -0.01787525720737349 -0.10621937933557365
0.016035035970420868 -0.027173345670339525 -0.10664457573308853
0.023161985554015326 -0.036471434133305565 -0.1070697721306034
0.030288935137609784 -0.0457695225962716 -0.10749496852811828
0.03741588472120424 -0.05506761105923764 -0.10792016492563315
0.0445428343047987 -0.06436569952220367 -0.10834536132314802
0.051669783888393155 -0.0736637879851697 -0.10877055772066291
0.05879673347198761 -0.08296187644813574 -0.10919575411817778
-0.005345812780362499 0.0007209197185585845 -0.1053689865405439
0.0044110583578298584 -0.005755287097830292 -0.10590830302718801
0.014167929496022216 -0.012231493914219169 -0.10644761951383212
0.023924800634214573 -0.018707700730608044 -0.10698693600047623
0.03368167177240693 -0.025183907546996922 -0.10752625248712035
0.043438542910599294 -0.031660114363385804 -0.10806556897376446
0.05319541404879165 -0.038136321179774675 -0.10860488546040857
0.062952285186984 -0.044612527996163547 -0.10914420194705268
0.07270915632517636 -0.05108873481255243 -0.1096835184336968
0.08246602746336872 -0.0575649416289413 -0.11022283492034092
0.005345812780362499 -0.0007209197185585845 0.1053689865405439
0.015102683918554858 -0.007197126534947459 0.10482967005389979
0.024859555056747216 -0.013673333351336333 0.10429035356725568
0.03461642619493957 -0.020149540167725206 0.10375103708061156
0.04437329733313193 -0.02662574698411408 0.10321172059396745
0.05413016847132429 -0.03310195380050295 0.10267240410732333
0.06388703960951665 -0.03957816061689182 0.10213308762067921
0.07364391074770901 -0.046054367433280695 0.1015937711340351
0.08340078188590137 -0.05253057424966957 0.10105445464739099
0.09315765302409373 -0.059006781066058445 0.10051513816074688
0.005345812780362499 -0.0007209197185585845 0.1053689865405439
0.016675297091875298 -0.003673447391112097 0.10477399327445595
0.028004781403388097 -0.006625975063665609 0.104179000008368
0.03933426571490089 -0.009578502736219121 0.10358400674228005
0.05066375002641369 -0.012531030408772634 0.1029890134761921
0.061993234337926494 -0.015483558081326149 0.10239402021010416
0.07332271864943929 -0.018436085753879658 0.10179902694401621
0.08465220296095209 -0.021388613426433178 0.10120403367792825
0.0959816872724649 -0.024341141098986684 0.10060904041184031
0.10731117158397768 -0.027293668771540196 0.10001404714575236
0.005345812780362499 -0.0007209197185585845 0.1053689865405439
0.01702018484498144 0.00017018393923157364 0.1047827932476645
0.02869455690960038 0.0010612875970217317 0.1041965999547851
0.040368928974219315 0.0019523912548118933 0.10361040666190571
0.05204330103883826 0.002843494912602048 0.10302421336902631
0.0637176731034572 0.003734598570392201 0.10243802007614691
0.07539204516807614 0.004625702228182371 0.10185182678326751
0.08706641723269509 0.005516805885972521 0.10126563349038813
0.09874078929731403 0.0064079095437626805 0.10067944019750873
0.11041516136193297 0.00729901320155284 0.10009324690462933
0.005345812780362499 -0.0007209197185585845 0.1053689865405439
0.016099973238339362 0.003917250361355794 0.10485511635988264
0.026854133696316226 0.008555420441270173 0.10434124617922139
0.037608294154293086 0.01319359052118455 0.10382737599856012
0.04836245461226995 0.01783176060109893 0.10331350581789886
0.05911661507024681 0.022469930681013307 0.10279963563723761
0.06987077552822368 0.027108100760927685 0.10228576545657635
0.08062493598620055 0.03174627084084206 0.10177189527591508
0.09137909644417741 0.03638444092075645 0.10125802509525383
0.10213325690215427 0.04102261100067083 0.10074415491459257
0.005345812780362499 -0.0007209197185585845 0.1053689865405439
0.014014381478082977 0.007161699086697318 0.10498312527969282
0.022682950175803455 0.015044317891953221 0.10459726401884174
0.03135151887352393 0.022926936697209122 0.10421140275799065
0.04002008757124441 0.030809555502465027 0.10382554149713957
0.04868865626896489 0.038692174307720935 0.1034396802362885
0.05735722496668536 0.04657479311297683 0.10305381897543742
0.06602579366440585 0.054457411918232744 0.10266795771458634
0.07469436236212633 0.06234003072348864 0.10228209645373526
0.0833629310598468 0.07022264952874453 0.10189623519288418
0.005345812780362499 -0.0007209197185585845 0.1053689865405439
0.01098941579272653 0.009551943753056418 0.10515294825437056
0.01663301880509056 0.01982480722467142 0.10493690996819723
0.022276621817454583 0.03009767069628642 0.10472087168202389
0.02792022482981862 0.04037053416790143 0.10450483339585055
0.03356382784218264 0.050643397639516426 0.10428879510967722
0.039207430854546664 0.06091626111113143 0.10407275682350388
0.0448510338669107 0.07118912458274643 0.10385671853733054
0.05049463687927474 0.08146198805436143 0.1036406802511572
0.05613823989163876 0.09173485152597644 0.10342464196498387
0.005345812780362499 -0.0007209197185585845 0.1053689865405439
0.0073528781514571005 0.01082896426236573 0.10534618232953458
0.009359943522551702 0.022378848243290044 0.10532337811852527
0.011367008893646304 0.03392873222421435 0.10530057390751595
0.013374074264740906 0.045478616205138676 0.10527776969650664
0.015381139635835511 0.05702850018606299 0.10525496548549731
0.01738820500693011 0.06857838416698728 0.105232161274488
0.019395270378024715 0.0801282681479116 0.10520935706347868
0.021402335749119313 0.09167815212883593 0.10518655285246938
0.023409401120213915 0.10322803610976022 0.10516374864146005
0.005345812780362499 -0.0007209197185585845 0.1053689865405439
0.0034988438344015823 0.010854375627426773 0.10554188759480525
0.0016518748884406659 0.02242967097341213 0.10571478864906661
-0.0001950940575202488 0.034004966319397485 0.10588768970332797
-0.002042063003481167 0.04558026166538285 0.10606059075758932
-0.0038890319494420816 0.0571555570113682 0.10623349181185068
-0.005736000895402996 0.06873085235735354 0.10640639286611205
-0.0075829698413639145 0.08030614770333891 0.1065792939203734
-0.009429938787324833 0.09188144304932427 0.10675219497463476
-0.011276907733285744 0.10345673839530962 0.1069250960288961
0.005345812780362499 -0.0007209197185585845 0.1053689865405439
-0.00015504273868306977 0.00962542413253723 0.10571885634801043
-0.005655898257728638 0.019971767983633044 0.10606872615547697
-0.011156753776774202 0.030318111834728854 0.1064185959629435
-0.016657609295819775 0.04066445568582468 0.10676846577041002
-0.02215846481486534 0.05101079953692049 0.10711833557787656
-0.027659320333910904 0.061357143388016296 0.10746820538534309
-0.03316017585295649 0.0717034872391121 0.10781807519280963
-0.03866103137200205 0.08204983109020793 0.10816794500027616
-0.044161886891047615 0.09239617494130374 0.10851781480774268
0.005345812780362499 -0.0007209197185585845 0.1053689865405439
-0.003212826261711368 0.007275285741315588 0.1058579112787872
-0.011771465303785235 0.015271491201189761 0.10634683601703049
-0.0203301043458591 0.023267696661063934 0.10683576075527379
-0.02888874338793297 0.03126390212093811 0.10732468549351709
-0.03744738243000684 0.03926010758081229 0.10781361023176039
-0.0460060214720807 0.047256313040686455 0.10830253497000368
-0.054564660514154574 0.055252518500560635 0.10879145970824698
-0.06312329955622843 0.0632487239604348 0.10928038444649028
-0.07168193859830231 0.07124492942030898 0.10976930918473359
0.005345812780362499 -0.0007209197185585845 0.1053689865405439
-0.00534314844356327 0.0040586344146050935 0.10594398362772632
-0.01603210966748904 0.008838188547768772 0.10651898071490876
-0.026721070891414806 0.013617742680932451 0.10709397780209119
-0.03741003211534058 0.018397296814096128 0.10766897488927361
-0.048098993339266344 0.023176850947259804 0.10824397197645605
-0.058787954563192114 0.027956405080423487 0.10881896906363848
-0.06947691578711786 0.032735959213587164 0.1093939661508209
-0.08016587701104365 0.037515513346750844 0.10996896323800334
-0.0908548382349694 0.042295067479914523 0.11054396032518576
0.005345812780362499 -0.0007209197185585845 0.1053689865405439
-0.0063151558204806515 0.0003240442351427169 0.10596774612027017
-0.017976124421323802 0.0013690081888440182 0.10656650569999644
-0.029637093022166956 0.0024139721425453196 0.10716526527972271
-0.041298061623010106 0.003458936096246621 0.10776402485944898
-0.05295903022385326 0.004503900049947919 0.10836278443917526
-0.0646199988246964 0.005548864003649224 0.10896154401890153
-0.07628096742553955 0.006593827957350518 0.1095603035986278
-0.0879419360263827 0.007638791911051827 0.11015906317835408
-0.09960290462722585 0.008683755864753128 0.11075782275808035
0.005345812780362499 -0.0007209197185585845 0.1053689865405439
-0.00602351631092609 -0.003523784002989548 0.10592662372163854
-0.01739284540221468 -0.006326648287420512 0.10648426090273318
-0.028762174493503264 -0.009129512571851472 0.10704189808382782
-0.04013150358479186 -0.011932376856282439 0.10759953526492246
-0.051500832676080445 -0.014735241140713399 0.1081571724460171
-0.06287016176736902 -0.01753810542514436 0.10871480962711173
-0.07423949085865762 -0.020340969709575326 0.10927244680820637
-0.08560881994994621 -0.023143833994006293 0.10983008398930101
-0.09697814904123479 -0.025946698278437246 0.11038772117039565
0.005345812780362499 -0.0007209197185585845 0.1053689865405439
-0.004499833581013066 -0.007067878404983324 0.10582507268180293
-0.01434547994238863 -0.013414837091408064 0.10628115882306195
-0.02419112630376419 -0.0197617957778328 0.10673724496432097
-0.03403677266513976 -0.026108754464257544 0.10719333110557999
-0.04388241902651533 -0.03245571315068228 0.10764941724683902
-0.053728065387890885 -0.03880267183710701 0.10810550338809805
-0.06357371174926645 -0.04514963052353176 0.10856158952935707
-0.07341935811064201 -0.0514965892099565 0.1090176756706161
-0.08326500447201758 -0.05784354789638125 0.10947376181187511
0.005345812780362499 -0.0007209197185585845 0.1053689865405439
-0.0019092222969011655 -0.009924181350091885 0.10567409763165625
-0.00916425737416483 -0.019127442981625185 0.1059792087227686
-0.01641929245142849 -0.02833070461315848 0.10628431981388096
-0.023674327528692158 -0.03753396624469178 0.10658943090499332
-0.030929362605955812 -0.04673722787622508 0.10689454199610567
-0.03818439768321948 -0.05594048950775837 0.10719965308721802
-0.045439432760483144 -0.06514375113929169 0.10750476417833038
-0.05269446783774682 -0.07434701277082499 0.10780987526944273
-0.05994950291501048 -0.0835502744023583 0.10811498636055508
0.005345812780362499 -0.0007209197185585845 0.1053689865405439
0.001467584611300326 -0.01178316809410606 0.10549005906050118
-0.0024106435577618468 -0.022845416469653535 0.10561113158045848
-0.006288871726824019 -0.033907664845201003 0.10573220410041577
-0.010167099895886192 -0.04496991322074848 0.10585327662037307
-0.014045328064948365 -0.05603216159629596 0.10597434914033035
-0.017923556234010537 -0.06709440997184343 0.10609542166028764
-0.02180178440307271 -0.07815665834739093 0.10621649418024494
-0.025680012572134883 -0.08921890672293839 0.10633756670020222
-0.029558240741197058 -0.10028115509848588 0.10645863922015952
0.005345812780362499 -0.0007209197185585845 0.1053689865405439
0.005264657718529988 -0.012443388578160564 0.10529290040317504
0.005183502656697477 -0.024165857437762544 0.10521681426580619
0.00510234759486497 -0.03588832629736452 0.10514072812843733
0.005021192533032456 -0.0476107951569665 0.10506464199106848
0.0049400374711999415 -0.05933326401656849 0.10498855585369964
0.004858882409367441 -0.07105573287617047 0.10491246971633078
0.004777727347534923 -0.08277820173577244 0.10483638357896193
0.004696572285702413 -0.09450067059537443 0.10476029744159307
0.004615417223869902 -0.10622313945497641 0.10468421130422421
0.005345812780362499 -0.0007209197185585845 0.1053689865405439
0.00907052523595973 -0.011833297668431768 0.10510398685943087
0.012795237691556962 -0.02294567561830495 0.10483898717831786
0.016519950147154194 -0.03405805356817813 0.10457398749720484
0.020244662602751425 -0.045170431518051314 0.10430898781609181
0.02396937505834866 -0.0562828094679245 0.1040439881349788
0.027694087513945892 -0.06739518741779768 0.10377898845386578
0.03141879996954312 -0.07850756536767087 0.10351398877275275
0.03514351242514035 -0.08961994331754405 0.10324898909163974
0.038868224880737594 -0.10073232126741724 0.10298398941052671
0.005345812780362499 -0.0007209197185585845 0.1053689865405439
0.012472762363956955 -0.010019008181524621 0.10494379014302901
0.01959971194755141 -0.019317096644490658 0.10451859374551414
0.026726661531145866 -0.028615185107456694 0.10409339734799927
0.03385361111474032 -0.03791327357042273 0.10366820095048439
0.04098056069833478 -0.047211362033388764 0.10324300455296952
0.04810751028192923 -0.0565094504963548 0.10281780815545465
0.05523445986552369 -0.06580753895932084 0.10239261175793976
0.062361409449118145 -0.07510562742228688 0.10196741536042489
0.06948835903271261 -0.08440371588525292 0.10154221896291002
0.005345812780362499 -0.0007209197185585845 0.1053689865405439
0.015102683918554856 -0.007197126534947461 0.10482967005389979
0.024859555056747213 -0.013673333351336338 0.10429035356725568
0.03461642619493957 -0.020149540167725213 0.10375103708061156
0.044373297333131924 -0.02662574698411409 0.10321172059396745
0.054130168471324284 -0.033101953800502966 0.10267240410732333
0.06388703960951664 -0.03957816061689184 0.10213308762067921
0.073643910747709 -0.04605436743328071 0.1015937711340351
0.08340078188590136 -0.052530574249669594 0.10105445464739099
0.09315765302409372 -0.059006781066058465 0.10051513816074688
